# This PCD file was generated using the MATLAB® pcwrite function
# from Computer Vision Toolbox®.
# .PCD v.7 - Point Cloud Data file format
VERSION .7
FIELDS x y z
SIZE 4 4 4
TYPE F F F
COUNT 1 1 1
WIDTH 1634
HEIGHT 1
VIEWPOINT 0 0 0 1 0 0 0
POINTS 1634
DATA ascii
-1.499488 5.866549 -1.692425
-1.637712 6.450251 -1.676183
-1.798884 7.131230 -1.654928
-1.997750 7.971373 -1.632504
-2.288184 9.001464 -1.602728
-2.606462 10.318736 -1.565618
-3.030728 12.065081 -1.515823
-3.650028 14.625177 -1.463779
-3.254697 13.022935 -0.986822
-3.172863 12.696310 -0.650267
-3.313918 13.297047 -0.350708
-3.481191 14.007689 -0.025286
-3.511748 14.144611 0.320812
-3.914887 15.833454 0.749541
-3.906440 15.822922 1.136451
-3.895875 15.803655 1.523206
-3.891072 15.795881 1.915026
-7.444676 30.591619 4.432690
-9.244563 38.131660 6.455479
-8.407789 34.674595 6.742438
-0.136400 0.218849 -0.359508
-0.139656 0.233403 -0.349707
-0.151151 0.282062 -0.358311
-0.170087 0.362812 -0.380819
-0.220978 0.578446 -0.464901
-0.413239 1.391805 -0.811039
-0.479543 1.673331 -0.882858
-1.007068 3.909457 -1.725605
-1.077007 4.212487 -1.723009
-1.152827 4.537698 -1.713905
-1.243452 4.930346 -1.710138
-1.343093 5.362480 -1.700466
-1.462563 5.875752 -1.692397
-1.596887 6.458361 -1.675691
-1.754905 7.144083 -1.655314
-1.949692 7.989213 -1.633588
-2.232203 9.013357 -1.602368
-2.543123 10.334407 -1.565581
-2.954720 12.073578 -1.514614
-3.558337 14.635361 -1.462608
-3.281589 13.490831 -1.019382
-3.190235 13.115782 -0.669752
-3.254050 13.406381 -0.352875
-3.453847 14.273755 -0.025446
-0.001229 -0.348152 -0.013190
-3.813318 15.833446 0.748491
-3.804481 15.820963 1.134708
-3.798614 15.821055 1.522702
-3.794303 15.815215 1.914613
-7.138506 30.113016 4.357777
-8.848384 37.469345 6.335232
-7.960912 33.702114 6.545640
-0.134408 0.225025 -0.362556
-0.136408 0.234580 -0.349690
-0.150812 0.297068 -0.365817
-0.164503 0.357195 -0.377206
-0.215796 0.580078 -0.464883
-0.404739 1.399841 -0.813465
-0.467814 1.674604 -0.882065
-0.982846 3.913617 -1.724851
-1.052358 4.222502 -1.724355
-1.126798 4.550002 -1.715804
-1.214379 4.939475 -1.710708
-1.311597 5.372183 -1.700991
-1.427779 5.884232 -1.692368
-1.559704 6.471385 -1.676586
-1.713463 7.156089 -1.655700
-1.902208 7.996563 -1.632810
-2.180771 9.029936 -1.602984
-2.483419 10.348854 -1.565543
-2.887084 12.098043 -1.515507
-3.474152 14.653466 -1.462374
-4.292436 18.217150 -1.361171
-3.208511 13.538663 -0.689426
-3.285466 13.894279 -0.364410
-3.473998 14.735647 -0.025769
-3.533761 15.007214 0.339807
-3.718412 15.835430 0.747625
-3.711891 15.832645 1.134068
-3.703352 15.821089 1.520726
-3.367247 14.364731 1.739342
-7.116062 30.799698 4.450562
-8.701579 37.801456 6.382755
-7.749699 33.654423 6.528029
-0.128345 0.214478 -0.355388
-0.132561 0.234084 -0.348692
-0.145423 0.291468 -0.362038
-0.160695 0.360316 -0.378087
-0.208699 0.574690 -0.461437
-0.394671 1.402539 -0.813445
-0.457423 1.684942 -0.885134
-0.959168 3.927043 -1.727743
-1.027228 4.234407 -1.726386
-1.097303 4.555150 -1.715137
-1.182563 4.945127 -1.710084
-1.276944 5.372551 -1.698751
-1.390762 5.893003 -1.692339
-1.519968 6.478766 -1.676093
-1.670634 7.168146 -1.656086
-1.853269 8.003940 -1.632033
-2.124631 9.041203 -1.602623
-2.420004 10.355674 -1.564385
-2.812286 12.111498 -1.514997
-3.382444 14.662565 -1.461202
-3.219436 13.950342 -1.049919
-3.226803 14.006153 -0.711182
-3.254288 14.151947 -0.370226
-3.458384 15.073909 -0.025987
-0.001213 -0.347314 -0.013158
-3.617542 15.836146 0.746668
-3.614737 15.836621 1.132876
-3.605844 15.823105 1.518934
-3.389534 14.877385 1.797984
-6.860917 30.500231 4.401936
-7.436225 33.142010 5.594319
-7.572936 33.813412 6.549870
-0.126215 0.220646 -0.358436
-0.131084 0.243744 -0.353580
-0.140610 0.287517 -0.359200
-0.156622 0.361624 -0.378070
-0.204140 0.579824 -0.463133
-0.384186 1.403406 -0.812611
-0.446486 1.691558 -0.886659
-0.934528 3.932900 -1.727718
-1.000031 4.236966 -1.724990
-1.067012 4.552554 -1.711901
-1.152856 4.955994 -1.711251
-1.243168 5.376447 -1.697618
-1.355199 5.903206 -1.692818
-1.479390 6.482103 -1.674675
-1.627730 7.179958 -1.656472
-1.805969 8.018715 -1.632744
-2.070945 9.055613 -1.602913
-2.357465 10.365967 -1.563787
-2.738794 12.120112 -1.514021
-3.295516 14.680248 -1.460967
-3.233512 14.409476 -1.081768
-3.247785 14.499153 -0.734168
-3.264140 14.598630 -0.380700
-3.546402 15.904905 -0.026610
-3.527989 15.847354 0.358228
-3.512390 15.802451 0.744155
-3.503686 15.775673 1.127135
-3.491572 15.746670 1.509775
-3.412364 15.407707 1.858705
-6.622007 30.256975 4.361613
-7.160759 32.802650 5.530522
-7.365735 33.808807 6.540742
-0.123301 0.223448 -0.359440
-0.128412 0.248294 -0.355526
-0.136210 0.285269 -0.357302
-0.152162 0.361169 -0.377154
-0.198050 0.577845 -0.461401
-0.375299 1.413212 -0.815851
-0.435899 1.699897 -0.888956
-0.908321 3.931318 -1.724777
-0.971642 4.237705 -1.722908
-1.038000 4.555302 -1.710592
-1.121899 4.961078 -1.710627
-1.210762 5.391651 -1.699801
-1.317973 5.905638 -1.691264
-1.438833 6.491166 -1.674644
-1.582625 7.187977 -1.656022
-1.756286 8.029691 -1.632710
-2.015933 9.063921 -1.602226
-2.294279 10.382092 -1.564028
-0.001214 -0.346502 -0.013126
-3.206409 14.687707 -1.459795
-3.603967 16.581099 -1.237380
-3.272756 15.037794 -0.759332
-3.281398 15.104582 -0.392613
-3.422545 15.796923 -0.026452
-3.425562 15.824758 0.357293
-3.428401 15.865829 0.746220
-3.392708 15.724352 1.122084
-3.387386 15.726588 1.505959
-3.444343 16.010710 1.927964
-6.501825 30.588814 4.403485
-6.997177 33.003345 5.557068
-8.116965 38.374153 7.407687
-0.121310 0.231308 -0.363510
-0.122761 0.239198 -0.349622
-0.135680 0.302026 -0.365748
-0.151223 0.378203 -0.385226
-0.194918 0.589988 -0.466526
-0.366637 1.422897 -0.819091
-0.425607 1.711883 -0.892797
-0.885903 3.947841 -1.729126
-0.945969 4.247314 -1.724253
-1.011640 4.570891 -1.713774
-1.091684 4.969729 -1.711197
-1.176910 5.395173 -1.698667
-1.282328 5.915419 -1.691743
-1.399430 6.499736 -1.674613
-1.541308 7.200924 -1.656825
-1.709067 8.037861 -1.632303
-1.960845 9.079994 -1.602841
-2.230835 10.387774 -1.562869
-2.596427 12.169618 -1.516037
-3.015020 14.213557 -1.412337
-3.541568 16.771942 -1.249605
-3.006502 14.210186 -0.718244
-2.980670 14.097552 -0.367395
-3.509827 16.692390 -0.027121
-3.472862 16.542450 0.373298
-0.001225 -0.346107 -0.013111
-3.328963 15.884744 1.132064
-3.349137 15.997324 1.529768
-6.441441 31.148146 3.719878
-6.346933 30.740650 4.419898
-6.808890 33.032600 5.555543
-7.891502 38.409088 7.405576
-0.114000 0.212147 -0.351234
-0.120171 0.243700 -0.351567
-0.131353 0.299720 -0.363850
-0.145067 0.368919 -0.379816
-0.186681 0.577316 -0.459652
-0.358229 1.434340 -0.823146
-0.415551 1.721867 -0.895866
-0.861511 3.955106 -1.729829
-0.920961 4.260461 -1.726969
-0.982197 4.571455 -1.711822
-1.062165 4.981945 -1.712961
-1.144190 5.404146 -1.699191
-1.246245 5.923097 -1.691714
-1.359974 6.508083 -1.674582
-1.497230 7.214200 -1.657627
-1.658912 8.046318 -1.631897
-1.905820 9.079596 -1.600849
-2.168182 10.396973 -1.562270
-2.526100 12.182370 -1.515761
-0.001215 -0.345690 -0.013095
-3.484933 17.001759 -1.264650
-3.467493 16.930189 -0.848982
-3.480527 17.026205 -0.438668
-3.471620 17.012794 -0.027313
-3.500299 17.171776 0.387288
-7.303665 36.278175 1.698388
-0.001215 -0.345690 -0.013095
-6.410640 31.915403 3.028901
-7.140308 35.620197 4.245051
-6.217097 31.025763 4.455407
-6.846239 34.263630 5.754068
-6.884732 34.489429 6.647576
-0.112670 0.223338 -0.357346
-0.116672 0.244801 -0.351550
-0.127872 0.302606 -0.364773
-0.140812 0.370177 -0.379799
-0.181190 0.578816 -0.459634
-0.347632 1.434969 -0.822312
-0.405380 1.735566 -0.900480
-0.835627 3.958706 -1.729075
-0.896199 4.275313 -1.730371
-0.953342 4.579473 -1.712437
-1.029813 4.984798 -1.711739
-1.110323 5.407268 -1.698057
-1.208644 5.928895 -1.691175
-1.320838 6.518118 -1.675014
-1.453665 7.223094 -1.657594
-1.612023 8.063858 -1.633350
-1.851380 9.098878 -1.602116
-2.105129 10.403852 -1.561390
-2.452854 12.203387 -1.516417
-0.001226 -0.345295 -0.013079
-0.001226 -0.345295 -0.013079
-3.424042 17.254807 -0.863616
-0.001226 -0.345295 -0.013079
-0.001226 -0.345295 -0.013079
-7.651359 39.172939 0.889195
-3.455029 17.528969 0.821277
-6.721084 34.463421 2.437397
-6.584606 33.819710 3.204890
-6.932428 35.691566 4.248610
-6.842216 35.255226 5.052189
-6.287661 32.430313 5.442472
-6.657979 34.425789 6.627760
-0.109403 0.224367 -0.357329
-0.113267 0.245866 -0.351533
-0.123150 0.298530 -0.361935
-0.135698 0.366104 -0.377085
-0.175876 0.580233 -0.459616
-0.336693 1.433753 -0.820662
-0.393717 1.740090 -0.901231
-0.810128 3.960192 -1.727591
-0.868506 4.275282 -1.728288
-0.924597 4.583434 -1.711768
-0.999082 4.991054 -1.711711
-1.078222 5.419643 -1.699686
-1.172124 5.934257 -1.690637
-1.280910 6.524117 -1.674520
-1.408265 7.222123 -1.655474
-1.563196 8.071479 -1.632943
-1.796207 9.105918 -1.601427
-2.043167 10.416216 -1.561349
-2.380892 12.219674 -1.516606
-2.780391 14.356637 -1.420998
-2.780618 14.371535 -1.072353
-4.731481 24.748453 -1.224322
-0.001215 -0.344878 -0.013064
-10.723422 56.696098 -0.059423
-12.549762 66.539047 1.512498
-0.001215 -0.344878 -0.013064
-6.545834 34.637257 2.447008
-6.408215 33.967083 3.215299
-6.443777 34.223564 4.070596
-0.001215 -0.344878 -0.013064
-6.556466 34.928951 5.852025
-6.347954 33.872505 6.515023
-0.106415 0.227097 -0.358334
-0.109546 0.245195 -0.350535
-0.119436 0.299634 -0.361918
-0.131607 0.367266 -0.377068
-0.167611 0.565640 -0.451884
-0.324470 1.425286 -0.815753
-0.383013 1.749994 -0.904300
-0.784979 3.963359 -1.726837
-0.840877 4.275056 -1.726205
-0.896201 4.589071 -1.711741
-0.969009 5.000878 -1.712877
-1.045004 5.426155 -1.699657
-1.135243 5.937504 -1.689591
-1.241324 6.531781 -1.674488
-1.364292 7.228602 -1.655023
-1.514691 8.080746 -1.632908
-1.742453 9.120394 -1.602041
-1.982939 10.437947 -1.562708
-2.307417 12.227713 -1.515861
-2.693881 14.363010 -1.420012
-2.694009 14.377902 -1.071597
-4.592258 24.805170 -1.225669
-5.858588 31.804882 -0.797791
-0.001227 -0.344483 -0.013048
-12.138985 66.470924 1.509486
-0.001227 -0.344483 -0.013048
-6.360267 34.763111 2.453312
-6.176506 33.815674 3.197711
-6.226251 34.158829 4.058695
-7.045577 38.737942 5.535901
-6.425231 35.366676 5.918593
-6.117122 33.721199 6.479351
-0.104331 0.234866 -0.362403
-0.106144 0.246220 -0.350518
-0.116650 0.305925 -0.364722
-0.129047 0.377225 -0.381544
-0.163946 0.575880 -0.456152
-0.314583 1.429329 -0.816548
-0.371916 1.758004 -0.906597
-0.760147 3.968215 -1.726811
-0.814578 4.282075 -1.726864
-0.868748 4.600152 -1.713639
-0.939189 5.012414 -1.714641
-1.011075 5.428703 -1.698522
-1.098385 5.940517 -1.688544
-1.201354 6.537309 -1.673993
-1.320649 7.236735 -1.654990
-1.466127 8.089742 -1.632872
-1.687557 9.128736 -1.601677
-1.921502 10.453484 -1.563228
-2.234619 12.239241 -1.515582
-2.583071 14.231640 -1.405909
-2.616820 14.436793 -1.074651
-4.440373 24.792269 -1.223699
-5.691031 31.938913 -0.800149
-0.001216 -0.344066 -0.013032
-11.745688 66.492859 1.508582
-7.726460 43.708740 2.037089
-6.241978 35.279102 2.487065
-6.078783 34.418026 3.251042
-6.012785 34.110336 4.048871
-6.497612 36.926437 5.273350
-6.292538 35.823509 5.988390
-5.873775 33.485111 6.427823
-0.099533 0.227387 -0.357278
-0.103914 0.254100 -0.354425
-0.112012 0.301761 -0.361883
-0.123383 0.369549 -0.377033
-0.156806 0.566533 -0.450991
-0.304048 1.431569 -0.816528
-0.361647 1.771436 -0.911210
-0.735294 3.972922 -1.726785
-0.787096 4.287241 -1.726837
-0.841514 4.612951 -1.716178
-0.908312 5.018143 -1.714612
-0.977436 5.438794 -1.699598
-1.062154 5.947154 -1.688513
-1.159531 6.538957 -1.672573
-1.276281 7.248702 -1.655790
-1.415404 8.094816 -1.632092
-1.631299 9.128972 -1.600010
-1.858052 10.469012 -1.563745
-2.163099 12.258189 -1.516237
-0.001227 -0.343671 -0.013017
-0.001227 -0.343671 -0.013017
-0.001227 -0.343671 -0.013017
-0.001227 -0.343671 -0.013017
-0.001227 -0.343671 -0.013017
-11.379303 66.670189 1.511268
-7.156223 41.885509 1.950387
-6.050453 35.433945 2.495443
-5.890981 34.563835 3.261457
-6.133227 36.037197 4.271853
-6.422242 37.831993 5.396346
-5.722373 33.742725 5.637419
-5.736095 33.859947 6.492819
-0.098682 0.243629 -0.366455
-0.099509 0.249948 -0.351464
-0.108453 0.304571 -0.362806
-0.119155 0.370662 -0.377015
-0.156700 0.599931 -0.466401
-0.292029 1.424726 -0.812433
-0.349390 1.775763 -0.911961
-0.709352 3.975782 -1.726030
-0.759296 4.290375 -1.726124
-0.812988 4.623878 -1.718075
-0.875550 5.018191 -1.712792
-0.941857 5.437315 -1.697357
-1.024796 5.953753 -1.688482
-1.117420 6.538435 -1.670690
-1.230275 7.250741 -1.654504
-1.363731 8.093772 -1.630196
-1.576989 9.150572 -1.601926
-1.793523 10.478301 -1.563423
-2.087971 12.269230 -1.515957
-2.446181 14.465975 -1.425292
-2.450945 14.526664 -1.078781
-2.452420 14.551435 -0.728887
-0.001217 -0.343254 -0.013001
-0.001217 -0.343254 -0.013001
-11.017645 66.957916 1.516470
-6.902314 41.907898 1.949590
-5.989238 36.397121 2.560515
-5.526792 33.633427 3.171111
-5.891131 35.912544 4.253037
-5.596269 34.172478 4.873059
-5.509955 33.714108 5.627192
-0.001217 -0.343254 -0.013001
-0.093660 0.234417 -0.360308
-0.095273 0.245748 -0.348504
-0.105010 0.307323 -0.363729
-0.115887 0.377034 -0.379694
-0.149832 0.592318 -0.462097
-0.281282 1.421335 -0.809968
-0.341501 1.805487 -0.923524
-0.685030 3.983897 -1.727461
-0.732513 4.289397 -1.724040
-0.783774 4.625145 -1.716764
-0.844950 5.025440 -1.713360
-0.909844 5.444803 -1.697880
-0.987302 5.952325 -1.686418
-1.078663 6.543058 -1.670194
-1.187526 7.255984 -1.654052
-1.317180 8.105563 -1.630903
-1.521022 9.152123 -1.600583
-1.732742 10.486605 -1.563101
-2.014977 12.279499 -1.515677
-2.367100 14.519564 -1.428987
-2.368160 14.542514 -1.078870
-2.364411 14.551903 -0.728172
-2.362193 14.571086 -0.375444
-0.001211 -0.342833 -0.012984
-10.770078 67.909454 1.536834
-6.612583 41.653282 1.936063
-5.585916 35.170918 2.472475
-5.339744 33.681870 3.172867
-5.347640 33.808834 4.001869
-5.385705 34.090069 4.857104
-5.330648 33.814941 5.638908
-5.403558 34.360527 6.575621
-0.089815 0.231941 -0.358248
-0.092683 0.251848 -0.351430
-0.101795 0.311811 -0.365592
-0.112532 0.383406 -0.382373
-0.142537 0.581054 -0.456080
-0.271665 1.426938 -0.811577
-0.325234 1.782278 -0.912691
-0.661222 3.995531 -1.730350
-0.706380 4.297659 -1.725384
-0.754584 4.626225 -1.715452
-0.814003 5.030629 -1.713331
-0.876502 5.450337 -1.697850
-0.951617 5.962119 -1.687403
-1.038097 6.543801 -1.668774
-1.143448 7.261164 -1.653600
-1.268494 8.113414 -1.630867
-1.466312 9.161123 -1.600544
-1.669437 10.490932 -1.562219
-1.942237 12.291303 -1.515630
-2.295639 14.625857 -1.437740
-2.286329 14.581928 -1.080652
-2.291246 14.648627 -0.732098
-2.285594 14.646121 -0.376879
-0.001223 -0.342438 -0.012969
-6.588616 43.029129 0.971107
-0.001223 -0.342438 -0.012969
-5.391140 35.267998 2.477131
-5.126178 33.596256 3.162098
-5.162428 33.916065 4.010968
-5.247446 34.520489 4.913671
-5.179578 34.149956 5.689349
-5.181504 34.243702 6.547698
-0.085998 0.229449 -0.356188
-0.089497 0.254512 -0.352394
-0.098799 0.318024 -0.368396
-0.105236 0.363216 -0.371570
-0.111160 0.405281 -0.371211
-0.261470 1.428871 -0.811557
-0.315939 1.804590 -0.921165
-0.635415 3.994139 -1.728137
-0.679909 4.303912 -1.726042
-0.725404 4.627141 -1.714141
-0.781657 5.026195 -1.710315
-0.842562 5.451893 -1.696714
-0.914443 5.962166 -1.685848
-0.998693 6.551994 -1.669203
-1.099910 7.269963 -1.653983
-1.220611 8.126813 -1.631945
-1.411261 9.167861 -1.600179
-1.607878 10.506651 -1.563016
-1.870016 12.306612 -1.516050
-2.236091 14.820477 -1.454922
-0.001212 -0.342021 -0.012953
-0.001212 -0.342021 -0.012953
-0.001212 -0.342021 -0.012953
-0.001212 -0.342021 -0.012953
-11.473719 78.238945 1.768673
-6.176228 42.055645 1.951510
-5.152372 35.067829 2.461095
-4.990423 34.037514 3.200702
-0.001212 -0.342021 -0.012953
-5.095921 34.891621 4.961938
-4.983118 34.195229 5.692033
-5.158354 35.497177 6.779755
-0.084410 0.242242 -0.363321
-0.086060 0.255417 -0.352376
-0.094987 0.318990 -0.368378
-0.098654 0.346533 -0.362564
-0.100292 0.359778 -0.348910
-0.250956 1.430791 -0.811537
-0.303563 1.806780 -0.921144
-0.609896 3.994453 -1.726652
-0.652065 4.306405 -1.725329
-0.697549 4.637272 -1.716038
-0.750458 5.029119 -1.709688
-0.808427 5.459096 -1.697236
-0.879187 5.975387 -1.687848
-0.957756 6.558207 -1.669170
-1.054183 7.272880 -1.653113
-1.169788 8.130422 -1.631164
-1.357013 9.180144 -1.600791
-1.543203 10.514430 -1.562693
-1.797683 12.321514 -1.516469
-2.149835 14.841396 -1.455617
-2.654031 18.450670 -1.354923
-3.543920 24.785360 -1.216128
-4.947536 34.828033 -0.865213
-0.001223 -0.341626 -0.012937
-6.326950 44.803898 1.009895
-5.917021 41.984055 1.946686
-6.021061 42.836674 3.001446
-5.629857 40.132397 3.767321
-4.820276 34.353798 4.055708
-4.902279 35.033451 4.977822
-4.741089 33.956718 5.647928
-5.215820 37.438866 7.141997
-0.080458 0.239746 -0.361261
-0.082749 0.258044 -0.353340
-0.090589 0.316444 -0.366480
-0.095524 0.354592 -0.366142
-0.094682 0.350008 -0.343750
-0.001213 -0.341209 -0.012922
-0.292266 1.819932 -0.925756
-0.586375 4.015017 -1.733185
-0.625030 4.308622 -1.724616
-0.667717 4.639869 -1.715367
-0.717808 5.028210 -1.707867
-0.774990 5.464068 -1.697205
-0.841426 5.978978 -1.687308
-0.917748 6.562075 -1.668674
-1.010297 7.279237 -1.653077
-1.120724 8.135462 -1.630755
-1.301019 9.192340 -1.601402
-1.480636 10.523552 -1.562649
-1.721703 12.326458 -1.515720
-2.060240 14.858229 -1.455937
-2.543068 18.446287 -1.353448
-3.394216 24.802391 -1.215857
-4.888117 35.966839 -0.891971
-5.690728 41.984081 -0.046104
-0.001213 -0.341209 -0.012922
-5.639561 41.822762 1.937742
-5.638646 41.870331 2.931763
-4.744560 35.268867 3.310532
-5.106198 38.084545 4.489641
-4.722713 35.244091 5.003672
-4.545073 33.995560 5.649967
-4.785028 35.904648 6.845983
-0.077336 0.242301 -0.362265
-0.080198 0.265822 -0.357247
-0.086118 0.312101 -0.363642
-0.090132 0.344903 -0.360732
-0.088603 0.334822 -0.336019
-0.093172 0.371073 -0.333157
-0.278177 1.809157 -0.920329
-0.560080 4.009492 -1.729514
-0.598712 4.316275 -1.725959
-0.639270 4.645895 -1.715980
-0.688332 5.044001 -1.711421
-0.742030 5.472645 -1.698280
-0.804747 5.982219 -1.686767
-0.878696 6.573447 -1.670028
-0.966136 7.283396 -1.652624
-1.071374 8.138291 -1.629973
-1.246578 9.204007 -1.602013
-1.416246 10.518552 -1.560646
-1.649988 12.346419 -1.516839
-1.972403 14.868272 -1.455694
-2.433798 18.453104 -1.352820
-3.247053 24.804087 -1.214924
-4.706243 36.206978 -0.896994
-0.001224 -0.340814 -0.012906
-0.001224 -0.340814 -0.012906
-5.414373 41.993664 1.944281
-0.001224 -0.340814 -0.012906
-4.539922 35.299934 3.311009
-4.679340 36.495655 4.300299
-4.499777 35.129597 4.983849
-4.354192 34.076385 5.659108
-4.619279 36.273273 6.910630
-0.074194 0.244837 -0.363269
-0.076703 0.266672 -0.357230
-0.081263 0.304232 -0.358923
-0.084000 0.328063 -0.351727
-0.083147 0.323180 -0.330001
-0.087278 0.357499 -0.326620
-0.265323 1.807477 -0.918763
-0.535011 4.013048 -1.729487
-0.571867 4.320056 -1.725931
-0.611201 4.655560 -1.717876
-0.657066 5.046390 -1.710794
-0.708066 5.473409 -1.697144
-0.768088 5.985222 -1.686227
-0.838394 6.574926 -1.669069
-0.921970 7.287294 -1.652171
-1.021582 8.136917 -1.628448
-1.190610 9.203593 -1.600669
-1.354148 10.530877 -1.561162
-1.576397 12.352170 -1.516323
-1.882814 14.863975 -1.454140
-2.326743 18.477106 -1.353460
-3.097279 24.783127 -1.212948
-4.490062 36.188232 -0.895780
-0.001214 -0.340397 -0.012890
-0.001214 -0.340397 -0.012890
-5.235807 42.560005 1.969146
-5.325375 43.355309 3.031080
-4.373994 35.650093 3.341335
-4.553385 37.234356 4.383719
-4.727933 38.730244 5.487215
-4.191394 34.395206 5.707623
-0.001214 -0.340397 -0.012890
-0.072036 0.255901 -0.369381
-0.072791 0.264045 -0.355250
-0.077143 0.301574 -0.357025
-0.077424 0.305871 -0.340025
-0.077642 0.309681 -0.323128
-0.083477 0.360197 -0.327418
-0.252304 1.803870 -0.916425
-0.509490 4.012762 -1.728001
-0.545226 4.325545 -1.726588
-0.581983 4.655628 -1.716564
-0.626016 5.050496 -1.710764
-0.674559 5.477799 -1.697112
-0.731857 5.991868 -1.686703
-0.798311 6.578123 -1.668572
-0.877573 7.288993 -1.651300
-0.972054 8.137217 -1.627294
-1.136542 9.218540 -1.601931
-1.290344 10.529066 -1.559718
-1.503488 12.363426 -1.516507
-1.794747 14.871012 -1.453709
-2.219244 18.498535 -1.353958
-2.943921 24.727530 -1.209362
-4.300974 36.396603 -0.900079
-0.001225 -0.340002 -0.012875
-0.001225 -0.340002 -0.012875
-5.009176 42.766460 1.977431
-5.168134 44.200226 3.087922
-4.410096 37.780006 3.537491
-4.254080 36.541981 4.299834
-4.057661 34.890579 4.943376
-0.001225 -0.340002 -0.012875
-0.001225 -0.340002 -0.012875
-0.067632 0.248168 -0.364256
-0.068929 0.261381 -0.353271
-0.072248 0.291897 -0.351366
-0.072509 0.296051 -0.334615
-0.073097 0.303333 -0.319682
-0.077888 0.348388 -0.321696
-0.239338 1.800188 -0.914087
-0.484609 4.017881 -1.728703
-0.517110 4.325367 -1.725189
-0.553613 4.663064 -1.717818
-0.595169 5.056306 -1.711331
-0.640214 5.484027 -1.697633
-0.694933 5.992552 -1.685654
-0.757675 6.586997 -1.669463
-0.832495 7.296413 -1.651681
-0.921312 8.139324 -1.626511
-1.081245 9.223371 -1.601564
-1.226707 10.544806 -1.560792
-1.429855 12.368324 -1.515990
-1.707778 14.887429 -1.454215
-2.108755 18.523661 -1.354738
-2.796826 24.720657 -1.208143
-4.081366 36.349628 -0.898239
-0.001215 -0.339585 -0.012859
-4.938945 44.268650 0.994723
-4.737605 42.584499 1.967849
-8.997178 81.444633 5.677194
-4.187319 37.837559 3.540559
-4.165719 37.699810 4.432416
-3.803630 34.502907 4.885631
-0.001215 -0.339585 -0.012859
-0.001215 -0.339585 -0.012859
-0.063600 0.243823 -0.361174
-0.065533 0.263925 -0.354234
-0.068501 0.292712 -0.351348
-0.066842 0.279111 -0.325610
-0.068817 0.298755 -0.317093
-0.073351 0.343774 -0.319234
-0.443539 3.862406 -1.781308
-0.459308 4.019147 -1.727947
-0.490417 4.330548 -1.725846
-0.525377 4.672225 -1.719714
-0.564255 5.061966 -1.711897
-0.606456 5.486113 -1.697049
-0.658861 6.000686 -1.686637
-0.717149 6.585856 -1.668040
-0.789824 7.301354 -1.651645
-0.873937 8.144743 -1.626473
-1.024270 9.228054 -1.601197
-1.164003 10.552084 -1.560747
-1.354838 12.380939 -1.516407
-1.617162 14.895734 -1.453970
-2.001123 18.545816 -1.355376
-2.643893 24.697458 -1.206164
-3.867473 36.349068 -0.897548
-0.001226 -0.339190 -0.012843
-4.661461 44.176258 0.992123
-0.001226 -0.339190 -0.012843
-0.001226 -0.339190 -0.012843
-3.866921 36.830734 3.444860
-4.136269 39.553368 4.646242
-3.612088 34.613274 4.898199
-3.767287 36.175652 5.989376
-0.001226 -0.339190 -0.012843
-0.059826 0.239433 -0.358093
-0.060953 0.252527 -0.347350
-0.062844 0.272410 -0.340047
-0.061591 0.262107 -0.316605
-0.063888 0.286946 -0.311077
-0.068142 0.331866 -0.313512
-0.070163 0.353333 -0.303965
-0.434001 4.020278 -1.727190
-0.463882 4.337434 -1.727188
-0.496111 4.671818 -1.718401
-0.532946 5.063629 -1.711269
-0.573459 5.495645 -1.698676
-0.622138 6.002858 -1.686096
-0.678385 6.601892 -1.670781
-0.744273 7.304366 -1.651190
-0.822812 8.142362 -1.624946
-0.971009 9.236000 -1.601481
-1.101039 10.557054 -1.560422
-1.283968 12.390690 -1.516590
-1.532858 14.912841 -1.454663
-1.893112 18.565376 -1.355873
-2.503822 24.710257 -1.205986
-0.001216 -0.338773 -0.012827
-5.708243 57.182793 -0.056819
-0.001216 -0.338773 -0.012827
-0.001216 -0.338773 -0.012827
-3.951256 39.823051 2.778260
-3.648444 36.875214 3.447007
-3.886155 39.369308 4.622133
-3.728071 37.888649 5.355372
-3.561080 36.305782 6.007244
-0.001216 -0.338773 -0.012827
-0.056374 0.240196 -0.358075
-0.057269 0.251551 -0.346352
-0.058224 0.262619 -0.334388
-0.056525 0.246839 -0.308499
-0.059321 0.278725 -0.306774
-0.063823 0.329018 -0.311865
-0.066575 0.359641 -0.306265
-0.408810 4.030601 -1.730077
-0.435431 4.333017 -1.724418
-0.466887 4.680736 -1.720296
-0.500705 5.065192 -1.710642
-0.538818 5.499352 -1.698643
-0.584304 6.004924 -1.685554
-0.637012 6.604252 -1.670283
-0.698735 7.307090 -1.650736
-0.773364 8.157273 -1.626766
-0.914181 9.241985 -1.601438
-1.036739 10.567735 -1.560935
-1.208404 12.398489 -1.516539
-1.441754 14.916133 -1.454042
-1.781834 18.586609 -1.356509
-2.351570 24.687300 -1.204101
-3.438966 36.400532 -0.897504
-0.001227 -0.338378 -0.012812
-0.001227 -0.338378 -0.012812
-5.749188 61.660278 2.843531
-3.586630 38.479279 2.683444
-3.609705 38.875729 3.631033
-3.653404 39.423698 4.625955
-3.477356 37.650127 5.318954
-3.148996 34.191978 5.656862
-3.229183 35.137493 6.670855
-0.052443 0.234054 -0.353972
-0.052472 0.236661 -0.337505
-0.052568 0.238739 -0.321207
-0.052986 0.245792 -0.307583
-0.055275 0.274077 -0.304185
-0.059449 0.322498 -0.308587
-0.061271 0.345710 -0.300069
-0.383148 4.027729 -1.727863
-0.408838 4.330174 -1.722333
-0.437647 4.679971 -1.718983
-0.470051 5.074116 -1.712402
-0.505873 5.498849 -1.697506
-0.548090 6.012448 -1.686536
-0.598042 6.606190 -1.669785
-0.656010 7.311296 -1.650699
-0.726060 8.163836 -1.627098
-0.859322 9.251449 -1.602047
-0.975636 10.571793 -1.560610
-1.134504 12.399702 -1.515787
-1.354214 14.928570 -1.454358
-1.676102 18.596685 -1.356441
-2.204591 24.668999 -1.202501
-3.226619 36.412174 -0.897195
-5.300288 60.156384 -0.058676
-0.001221 -0.337957 -0.012795
-0.001221 -0.337957 -0.012795
-0.001221 -0.337957 -0.012795
-3.412955 39.153603 3.655113
-0.001221 -0.337957 -0.012795
-3.208737 37.012169 5.226882
-3.162529 36.622429 6.052987
-2.929739 34.039482 6.460742
-0.048423 0.226184 -0.348847
-0.049019 0.235612 -0.336507
-0.048651 0.232403 -0.317428
-0.049777 0.248260 -0.308464
-0.051915 0.276567 -0.305025
-0.054632 0.312314 -0.303681
-0.056876 0.340938 -0.297735
-0.357851 4.028399 -1.727107
-0.381733 4.340413 -1.725046
-0.408721 4.682825 -1.718954
-0.438413 5.071422 -1.710580
-0.471217 5.502158 -1.697474
-0.511191 6.012047 -1.685488
-0.556349 6.604206 -1.668363
-0.610766 7.317399 -1.651080
-0.675431 8.166446 -1.626687
-0.803096 9.244832 -1.600052
-0.910389 10.571867 -1.559725
-1.060943 12.404461 -1.515504
-1.266273 14.936506 -1.454302
-1.563874 18.608692 -1.356515
-2.062666 24.707558 -1.203649
-0.001210 -0.337541 -0.012780
-4.959456 60.410435 -0.058664
-0.001210 -0.337541 -0.012780
-0.001210 -0.337541 -0.012780
-3.166118 38.850925 2.706735
-0.001210 -0.337541 -0.012780
-3.113989 38.452011 4.508261
-2.979828 36.940102 5.214263
-2.768020 34.439213 5.691939
-2.729716 34.030682 6.456055
-0.044815 0.223426 -0.346787
-0.044665 0.224137 -0.329623
-0.044997 0.229560 -0.315531
-0.046011 0.245395 -0.306649
-0.048114 0.275479 -0.304151
-0.050046 0.302098 -0.298775
-0.053397 0.349032 -0.300806
-0.332482 4.038291 -1.729995
-0.355056 4.346690 -1.726389
-0.378634 4.681787 -1.717641
-0.406862 5.081956 -1.712939
-0.437853 5.509015 -1.698549
-0.473634 6.017308 -1.685963
-0.516798 6.613508 -1.669717
-0.566937 7.325109 -1.651878
-0.627018 8.178433 -1.628136
-0.746521 9.253767 -1.600662
-0.847536 10.577333 -1.559680
-0.985006 12.406973 -1.514987
-1.175754 14.946150 -1.454432
-1.454885 18.619768 -1.356590
-1.916432 24.751640 -1.205080
-0.001221 -0.337146 -0.012765
-2.668048 34.833897 -0.039223
-0.001221 -0.337146 -0.012765
-0.001221 -0.337146 -0.012765
-2.913384 38.508770 2.681875
-0.001221 -0.337146 -0.012765
-2.870538 38.291889 4.487610
-2.741517 36.639023 5.169806
-2.561448 34.370331 5.678170
-2.523736 34.019218 6.451001
-0.041204 0.218940 -0.343706
-0.040430 0.210882 -0.321758
-0.041858 0.231969 -0.316454
-0.042525 0.244271 -0.305734
-0.044563 0.274335 -0.303276
-0.046232 0.300955 -0.297942
-0.047897 0.327637 -0.291522
-0.001210 -0.336730 -0.012749
-0.327808 4.345311 -1.724990
-0.351377 4.695569 -1.721462
-0.376326 5.080734 -1.711714
-0.403910 5.508004 -1.697412
-0.438002 6.018326 -1.685422
-0.476742 6.616783 -1.669682
-0.524399 7.332459 -1.652677
-0.579698 8.186140 -1.628841
-0.690978 9.254378 -1.599969
-0.783642 10.568633 -1.557676
-0.911720 12.414827 -1.515170
-1.087286 14.947111 -1.453813
-1.345236 18.622286 -1.356100
-1.770791 24.746712 -1.204239
-2.582064 36.334000 -0.893737
-2.462659 34.809162 -0.039083
-0.001210 -0.336730 -0.012749
-0.001210 -0.336730 -0.012749
-2.702976 38.718380 2.695384
-0.001210 -0.336730 -0.012749
-2.652043 38.268070 4.483112
-0.001210 -0.336730 -0.012749
-2.389881 34.711361 5.731857
-2.354457 34.366562 6.513811
-0.037648 0.212694 -0.339603
-0.036907 0.204545 -0.317817
-0.038579 0.232602 -0.316437
-0.039391 0.246686 -0.306615
-0.041160 0.276784 -0.304116
-0.042438 0.299788 -0.297110
-0.044076 0.328294 -0.291505
-0.280183 4.001700 -1.713905
-0.299858 4.332537 -1.719478
-0.321276 4.694175 -1.720150
-0.344652 5.090892 -1.714072
-0.370348 5.512564 -1.697933
-0.400519 6.025078 -1.686405
-0.435711 6.623775 -1.670572
-0.477409 7.333976 -1.652222
-0.529236 8.191788 -1.629174
-0.637261 9.256528 -1.599602
-0.721089 10.577308 -1.558191
-0.840237 12.416148 -1.514654
-1.002037 14.955338 -1.453944
-1.236551 18.638067 -1.356597
-1.627073 24.768850 -1.204723
-0.001221 -0.336335 -0.012733
-2.259035 34.805214 -0.038958
-0.001221 -0.336335 -0.012733
-0.001221 -0.336335 -0.012733
-0.001221 -0.336335 -0.012733
-0.001221 -0.336335 -0.012733
-0.001221 -0.336335 -0.012733
-0.001221 -0.336335 -0.012733
-2.281737 36.330853 5.995031
-0.001221 -0.336335 -0.012733
-0.034280 0.213325 -0.339586
-0.033812 0.208638 -0.319762
-0.034991 0.229696 -0.314539
-0.035732 0.245521 -0.305699
-0.037315 0.273800 -0.302385
-0.039304 0.311370 -0.301982
-0.039800 0.323425 -0.289171
-0.254760 4.009262 -1.716064
-0.001210 -0.335918 -0.012718
-0.292278 4.696360 -1.720120
-0.314484 5.112241 -1.720014
-0.336072 5.522733 -1.700112
-0.363655 6.023814 -1.685356
-0.396050 6.634345 -1.672388
-0.434459 7.334963 -1.651769
-0.480103 8.195101 -1.629135
-0.578775 9.262604 -1.599885
-0.656060 10.577858 -1.557585
-0.762306 12.421458 -1.514602
-0.907776 14.947663 -1.452574
-1.123576 18.639503 -1.356105
-1.477939 24.776487 -1.204542
-0.001210 -0.335918 -0.012718
-2.049653 34.804424 -0.038833
-0.001210 -0.335918 -0.012718
-0.001210 -0.335918 -0.012718
-0.001210 -0.335918 -0.012718
-0.001210 -0.335918 -0.012718
-0.001210 -0.335918 -0.012718
-0.001210 -0.335918 -0.012718
-2.049426 35.969337 5.933819
-0.001210 -0.335918 -0.012718
-0.031018 0.210480 -0.337526
-0.030580 0.205738 -0.317783
-0.031813 0.230300 -0.314522
-0.032669 0.249686 -0.307480
-0.033706 0.272599 -0.301511
-0.035391 0.306512 -0.299520
-0.035913 0.320360 -0.287609
-0.230411 4.024077 -1.721138
-0.244474 4.306469 -1.708454
-0.001199 -0.335502 -0.012702
-0.282880 5.110572 -1.718789
-0.304029 5.538365 -1.703949
-0.327203 6.030080 -1.686339
-0.357298 6.640749 -1.673278
-0.390355 7.339705 -1.652149
-0.431147 8.202060 -1.629839
-0.525035 9.264132 -1.599517
-0.595419 10.587684 -1.558379
-0.690504 12.416004 -1.513384
-0.822078 14.946936 -1.451955
-1.017372 18.641895 -1.355756
-1.338187 24.794733 -1.204932
-1.941694 36.374683 -0.893386
-1.852956 34.807728 -0.038716
-1.848306 34.949257 0.781500
-0.001199 -0.335502 -0.012702
-0.001199 -0.335502 -0.012702
-0.001199 -0.335502 -0.012702
-0.001199 -0.335502 -0.012702
-0.001199 -0.335502 -0.012702
-1.869868 36.564419 6.029480
-0.001199 -0.335502 -0.012702
-0.027963 0.212759 -0.338530
-0.027384 0.204556 -0.316785
-0.028556 0.230869 -0.314505
-0.029124 0.246696 -0.305665
-0.030371 0.276796 -0.303208
-0.031925 0.314408 -0.302762
-0.032230 0.322789 -0.288364
-0.205451 4.029473 -1.722568
-0.217888 4.328875 -1.715965
-0.231913 4.649113 -1.702737
-0.251329 5.108699 -1.717563
-0.269155 5.540477 -1.703917
-0.290263 6.026469 -1.684781
-0.315640 6.637304 -1.671855
-0.345154 7.350101 -1.653781
-0.380381 8.202911 -1.629427
-0.469834 9.269367 -1.599801
-0.530874 10.597361 -1.559172
-0.617062 12.420156 -1.513333
-0.734036 14.951827 -1.451897
-0.904828 18.650002 -1.355827
-1.193617 24.806419 -1.205035
-0.001210 -0.335107 -0.012687
-1.643921 34.808517 -0.038593
-0.001210 -0.335107 -0.012687
-0.001210 -0.335107 -0.012687
-0.001210 -0.335107 -0.012687
-0.001210 -0.335107 -0.012687
-0.001210 -0.335107 -0.012687
-0.001210 -0.335107 -0.012687
-0.001210 -0.335107 -0.012687
-0.001210 -0.335107 -0.012687
-0.024570 0.209871 -0.336470
-0.024612 0.215569 -0.322654
-0.025199 0.231426 -0.314488
-0.025519 0.243689 -0.303850
-0.026846 0.277359 -0.303190
-0.027892 0.307668 -0.299486
-0.028617 0.330753 -0.291435
-0.181224 4.053315 -1.731286
-0.191466 4.341729 -1.720049
-0.203594 4.660221 -1.705916
-0.220589 5.125708 -1.722310
-0.235392 5.544242 -1.704437
-0.253539 6.026504 -1.684240
-0.275701 6.645244 -1.673208
-0.302442 7.358185 -1.654995
-0.332777 8.207256 -1.629760
-0.412822 9.272395 -1.599757
-0.468070 10.604594 -1.559685
-0.540853 12.412091 -1.511881
-0.643654 14.964263 -1.452587
-0.795705 18.661293 -1.356181
-1.044244 24.809464 -1.204758
-1.515809 36.325520 -0.891472
-1.441740 34.823795 -0.038483
-0.001199 -0.334691 -0.012671
-0.001199 -0.334691 -0.012671
-0.001199 -0.334691 -0.012671
-0.001199 -0.334691 -0.012671
-0.001199 -0.334691 -0.012671
-0.001199 -0.334691 -0.012671
-0.001199 -0.334691 -0.012671
-0.001199 -0.334691 -0.012671
-0.021966 0.222438 -0.343603
-0.021223 0.207381 -0.317732
-0.022236 0.237244 -0.317291
-0.022427 0.247783 -0.305631
-0.023364 0.279730 -0.304030
-0.024501 0.317361 -0.303542
-0.024828 0.329463 -0.290645
-0.155878 4.052827 -1.730530
-0.165108 4.360063 -1.726189
-0.175345 4.676856 -1.711019
-0.188734 5.115849 -1.718696
-0.201391 5.542064 -1.703300
-0.217356 6.041791 -1.687762
-0.235879 6.658791 -1.675948
-0.256516 7.352435 -1.653288
-0.282016 8.207516 -1.629348
-0.359163 9.274948 -1.599715
-0.405413 10.617412 -1.561038
-0.469782 12.419300 -1.512296
-0.557607 14.952114 -1.451030
-0.686426 18.669952 -1.356394
-0.904305 24.829281 -1.205335
-0.001210 -0.334296 -0.012656
-1.239374 34.835899 -0.038371
-0.001210 -0.334296 -0.012656
-0.001210 -0.334296 -0.012656
-0.001210 -0.334296 -0.012656
-0.001210 -0.334296 -0.012656
-0.001210 -0.334296 -0.012656
-0.001210 -0.334296 -0.012656
-0.001210 -0.334296 -0.012656
-0.001210 -0.334296 -0.012656
-0.018548 0.219525 -0.341543
-0.017889 0.204423 -0.315753
-0.018774 0.236015 -0.316334
-0.019019 0.250098 -0.306512
-0.019739 0.280237 -0.304013
-0.020699 0.316058 -0.302710
-0.020953 0.331832 -0.291400
-0.129844 4.054071 -1.730501
-0.137892 4.355713 -1.724103
-0.145969 4.691480 -1.715480
-0.156481 5.121104 -1.719859
-0.167482 5.541609 -1.702715
-0.179059 6.027922 -1.683664
-0.195112 6.642927 -1.671749
-0.212241 7.354182 -1.653251
-0.232908 8.213342 -1.630051
-0.302236 9.281276 -1.600323
-0.342640 10.629859 -1.562390
-0.394086 12.422270 -1.512244
-0.467128 14.963516 -1.451720
-0.577141 18.679974 -1.356747
-0.754664 24.824625 -1.204773
-0.001199 -0.333880 -0.012640
-0.001199 -0.333880 -0.012640
-1.874917 64.060577 1.436136
-0.001199 -0.333880 -0.012640
-0.001199 -0.333880 -0.012640
-0.001199 -0.333880 -0.012640
-0.001199 -0.333880 -0.012640
-0.001199 -0.333880 -0.012640
-0.001199 -0.333880 -0.012640
-0.001199 -0.333880 -0.012640
-0.015314 0.218305 -0.340504
-0.015020 0.213616 -0.320641
-0.015404 0.232982 -0.314436
-0.015597 0.248825 -0.305596
-0.016049 0.275340 -0.301424
-0.016918 0.314732 -0.301878
-0.017033 0.328650 -0.289839
-0.104560 4.055153 -1.730473
-0.110696 4.349322 -1.721333
-0.116971 4.690750 -1.714808
-0.125107 5.124218 -1.720425
-0.133630 5.542885 -1.702682
-0.142127 6.015697 -1.680075
-0.154176 6.611285 -1.663850
-0.167963 7.355671 -1.653213
-0.183955 8.228708 -1.632613
-0.246952 9.287204 -1.600931
-0.279575 10.636024 -1.562902
-0.320613 12.424726 -1.512192
-0.378877 14.960373 -1.451099
-0.467578 18.681385 -1.356536
-0.609082 24.800989 -1.203361
-0.877789 36.431549 -0.893120
-0.001210 -0.333485 -0.012625
-1.438442 61.260181 1.373106
-0.001210 -0.333485 -0.012625
-0.001210 -0.333485 -0.012625
-0.001210 -0.333485 -0.012625
-0.001210 -0.333485 -0.012625
-0.001210 -0.333485 -0.012625
-0.001210 -0.333485 -0.012625
-0.001210 -0.333485 -0.012625
-0.011981 0.215346 -0.338444
-0.011625 0.207147 -0.316699
-0.012070 0.235242 -0.315359
-0.012156 0.249299 -0.305579
-0.012571 0.283057 -0.304835
-0.013067 0.315232 -0.301860
-0.013133 0.330994 -0.290593
-0.078660 4.065434 -1.734088
-0.083067 4.359699 -1.724730
-0.087083 4.687982 -1.713494
-0.092578 5.117650 -1.718004
-0.098761 5.543977 -1.702649
-0.104495 6.020720 -1.681056
-0.112962 6.612485 -1.663814
-0.122387 7.360857 -1.654009
-0.133167 8.232029 -1.632943
-0.189940 9.292849 -1.601538
-0.214625 10.645823 -1.563973
-0.244999 12.432787 -1.512838
-0.288283 14.972734 -1.451973
-0.354699 18.682238 -1.356322
-0.459746 24.794580 -1.202797
-0.660060 36.460487 -0.893569
-0.001204 -0.333064 -0.012609
-1.072527 61.244030 1.372765
-0.001204 -0.333064 -0.012609
-0.001204 -0.333064 -0.012609
-0.001204 -0.333064 -0.012609
-0.001204 -0.333064 -0.012609
-0.001204 -0.333064 -0.012609
-0.001204 -0.333064 -0.012609
-0.001204 -0.333064 -0.012609
-0.008795 0.214088 -0.337406
-0.008555 0.211094 -0.318644
-0.008792 0.235706 -0.315342
-0.008838 0.253342 -0.307359
-0.008940 0.276280 -0.301389
-0.009300 0.313878 -0.301028
-0.009259 0.327772 -0.289031
-0.053235 4.058764 -1.731144
-0.055993 4.356740 -1.723330
-0.058179 4.690698 -1.714105
-0.061172 5.118503 -1.717972
-0.064899 5.544858 -1.702616
-0.068229 6.054513 -1.689656
-0.072977 6.615366 -1.664240
-0.078000 7.355980 -1.652719
-0.083601 8.207494 -1.628070
-0.134520 9.296160 -1.601820
-0.151445 10.651236 -1.564485
-0.171562 12.440331 -1.513485
-0.200210 14.980508 -1.452475
-0.245012 18.672407 -1.355406
-0.314724 24.775257 -1.201667
-0.448639 36.506077 -0.894451
-0.001193 -0.332648 -0.012593
-0.001193 -0.332648 -0.012593
-0.001193 -0.332648 -0.012593
-0.001193 -0.332648 -0.012593
-0.001193 -0.332648 -0.012593
-0.001193 -0.332648 -0.012593
-0.001193 -0.332648 -0.012593
-0.001193 -0.332648 -0.012593
-0.001193 -0.332648 -0.012593
-0.005636 0.214539 -0.337388
-0.005425 0.211532 -0.318627
-0.005520 0.234364 -0.314384
-0.005444 0.250201 -0.305544
-0.005464 0.282147 -0.303943
-0.005571 0.314326 -0.301010
-0.005442 0.326369 -0.288241
-0.027972 4.064988 -1.733302
-0.029010 4.363028 -1.725357
-0.029237 4.691358 -1.714075
-0.029788 5.122986 -1.719135
-0.031023 5.541692 -1.701478
-0.031399 6.045523 -1.687082
-0.033065 6.643328 -1.670679
-0.033685 7.352804 -1.651846
-0.034297 8.180730 -1.622826
-0.079075 9.299148 -1.602102
-0.088220 10.658275 -1.565277
-0.098091 12.455420 -1.515066
-0.112092 14.993759 -1.453537
-0.135563 18.675900 -1.355475
-0.170079 24.771055 -1.201294
-0.236065 36.444462 -0.892796
-0.001204 -0.332253 -0.012578
-0.376698 63.550476 1.424851
-0.001204 -0.332253 -0.012578
-0.001204 -0.332253 -0.012578
-0.001204 -0.332253 -0.012578
-0.001204 -0.332253 -0.012578
-0.001204 -0.332253 -0.012578
-0.001204 -0.332253 -0.012578
-0.001204 -0.332253 -0.012578
-0.002471 0.209806 -0.334307
-0.002306 0.215431 -0.320572
-0.002249 0.233024 -0.313427
-0.002085 0.254204 -0.307324
-0.001925 0.282568 -0.303926
-0.001861 0.316560 -0.301808
-0.001644 0.326793 -0.288224
-0.002647 4.059883 -1.731088
-0.001967 4.359757 -1.723957
-0.000297 4.693740 -1.714686
0.001633 5.115837 -1.716715
0.002827 5.540270 -1.700892
0.005349 6.049876 -1.688064
0.007115 6.647692 -1.671568
0.010574 7.351313 -1.651391
0.014804 8.214599 -1.629104
-0.023590 9.303812 -1.602709
-0.024910 10.655040 -1.564669
-0.024453 12.466106 -1.516180
-0.023828 15.004514 -1.454412
-0.026079 18.680767 -1.355685
-0.025452 24.732069 -1.199313
-0.024236 36.433624 -0.892384
-0.001193 -0.331836 -0.012562
-0.001193 -0.331836 -0.012562
-0.001193 -0.331836 -0.012562
-0.001193 -0.331836 -0.012562
-0.001193 -0.331836 -0.012562
-0.001193 -0.331836 -0.012562
-0.001193 -0.331836 -0.012562
-0.001193 -0.331836 -0.012562
-0.001193 -0.331836 -0.012562
0.000675 0.217090 -0.338375
0.000841 0.212357 -0.318592
0.000999 0.231663 -0.312470
0.001295 0.254610 -0.307307
0.001620 0.281175 -0.303051
0.001979 0.315133 -0.300975
0.002158 0.325363 -0.287434
0.022669 4.062099 -1.731788
0.025907 4.361986 -1.724612
0.028651 4.695943 -1.715297
0.033037 5.119958 -1.717877
0.037640 5.536698 -1.699754
0.042139 6.054016 -1.689045
0.048511 6.644042 -1.670606
0.056151 7.349557 -1.650935
0.065705 8.238342 -1.633523
0.031897 9.298278 -1.601688
0.040286 10.655393 -1.564620
0.049305 12.476377 -1.517293
0.064578 15.020736 -1.455849
0.086892 18.714897 -1.358008
0.118780 24.708220 -1.198087
0.187797 36.487549 -0.893551
-0.001204 -0.331442 -0.012546
-0.001204 -0.331442 -0.012546
-0.001204 -0.331442 -0.012546
-0.001204 -0.331442 -0.012546
-0.001204 -0.331442 -0.012546
-0.001204 -0.331442 -0.012546
-0.001204 -0.331442 -0.012546
-0.001204 -0.331442 -0.012546
-0.001204 -0.331442 -0.012546
0.003984 0.224342 -0.342444
0.004112 0.216236 -0.320537
0.004350 0.232055 -0.312452
0.004780 0.254998 -0.307289
0.005152 0.281559 -0.303034
0.005698 0.313698 -0.300143
0.006079 0.329409 -0.288961
0.047979 4.062300 -1.731759
0.052905 4.360267 -1.723897
0.057619 4.696106 -1.715267
0.064443 5.120084 -1.717845
0.071441 5.536786 -1.699721
0.078897 6.052138 -1.688502
0.088735 6.647935 -1.671495
0.099034 7.347578 -1.650479
0.113478 8.230400 -1.631995
0.089114 9.306211 -1.602946
0.103321 10.627676 -1.560655
0.125498 12.496117 -1.519572
0.155561 15.008542 -1.454663
0.196659 18.720474 -1.358358
0.267326 24.703487 -1.197806
0.400197 36.518250 -0.894190
-0.001193 -0.331025 -0.012531
-0.001193 -0.331025 -0.012531
1.042803 88.585129 4.071278
-0.001193 -0.331025 -0.012531
-0.001193 -0.331025 -0.012531
-0.001193 -0.331025 -0.012531
-0.001193 -0.331025 -0.012531
-0.001193 -0.331025 -0.012531
-0.001193 -0.331025 -0.012531
0.007020 0.219564 -0.339363
0.007101 0.213104 -0.318558
0.007554 0.235955 -0.314315
0.007989 0.251781 -0.305475
0.008674 0.281911 -0.303016
0.009402 0.314043 -0.300126
0.009751 0.327934 -0.288171
0.073298 4.062365 -1.731730
0.079949 4.360308 -1.723867
0.086475 4.690410 -1.713311
0.095882 5.121940 -1.718410
0.105252 5.536692 -1.699687
0.115696 6.053912 -1.688975
0.128796 6.639938 -1.669608
0.144672 7.351166 -1.651274
0.164197 8.226038 -1.631210
0.142884 9.302023 -1.602250
0.166654 10.641166 -1.562565
0.196413 12.447966 -1.513917
0.241417 15.019780 -1.455725
0.306567 18.731388 -1.359131
0.407831 24.743963 -1.199702
0.610524 36.401783 -0.891337
0.981367 57.487011 -0.053230
-0.001204 -0.330630 -0.012515
-0.001204 -0.330630 -0.012515
-0.001204 -0.330630 -0.012515
-0.001204 -0.330630 -0.012515
-0.001204 -0.330630 -0.012515
-0.001204 -0.330630 -0.012515
-0.001204 -0.330630 -0.012515
-0.001204 -0.330630 -0.012515
0.010242 0.218185 -0.338324
0.010261 0.209974 -0.316579
0.010913 0.236296 -0.314298
0.011440 0.252117 -0.305458
0.012240 0.278645 -0.301285
0.013204 0.318037 -0.301738
0.013653 0.328257 -0.288154
0.099366 4.062251 -1.731701
0.106962 4.360166 -1.723838
0.116410 4.695897 -1.715205
0.128005 5.112128 -1.715392
0.139152 5.540247 -1.700759
0.153642 6.055459 -1.689447
0.169045 6.643380 -1.670496
0.188930 7.350622 -1.651235
0.213432 8.223391 -1.630796
0.200000 9.299432 -1.601879
0.230292 10.662192 -1.565593
0.273042 12.484702 -1.518296
0.332936 15.038384 -1.457534
0.416706 18.745668 -1.360184
0.557449 24.779440 -1.201406
0.830467 36.485867 -0.893311
1.309986 57.288864 -0.052904
-0.001193 -0.330214 -0.012500
-0.001193 -0.330214 -0.012500
-0.001193 -0.330214 -0.012500
-0.001193 -0.330214 -0.012500
-0.001193 -0.330214 -0.012500
-0.001193 -0.330214 -0.012500
-0.001193 -0.330214 -0.012500
-0.001193 -0.330214 -0.012500
0.013640 0.227120 -0.343414
0.013467 0.213789 -0.318524
0.014092 0.233106 -0.312400
0.014806 0.252452 -0.305440
0.015798 0.280771 -0.302124
0.016901 0.316538 -0.300905
0.017565 0.332270 -0.289680
0.124467 4.054575 -1.728757
0.133988 4.359883 -1.723808
0.145371 4.695556 -1.715174
0.159295 5.109794 -1.714763
0.172784 5.533978 -1.699067
0.190290 6.050989 -1.688397
0.209455 6.650483 -1.672309
0.233345 7.355672 -1.652448
0.262645 8.220467 -1.630383
0.255361 9.294583 -1.601183
0.293458 10.655163 -1.564704
0.347079 12.491279 -1.519174
0.421233 15.028659 -1.456723
-0.001183 -0.329798 -0.012484
0.703239 24.818157 -1.203299
1.041360 36.440903 -0.892227
1.641185 57.258774 -0.052696
-0.001183 -0.329798 -0.012484
-0.001183 -0.329798 -0.012484
-0.001183 -0.329798 -0.012484
-0.001183 -0.329798 -0.012484
-0.001183 -0.329798 -0.012484
-0.001183 -0.329798 -0.012484
-0.001183 -0.329798 -0.012484
-0.001183 -0.329798 -0.012484
0.017012 0.232584 -0.346460
0.016595 0.214099 -0.318507
0.017502 0.238701 -0.315204
0.018287 0.256336 -0.307220
0.019377 0.282877 -0.302964
0.020788 0.318640 -0.301702
0.021127 0.325181 -0.286574
0.149722 4.054189 -1.728728
0.161758 4.357534 -1.723092
0.174380 4.696930 -1.715784
0.190554 5.107277 -1.714134
0.207730 5.537106 -1.700138
0.227253 6.055994 -1.689885
0.250517 6.639788 -1.669959
0.278875 7.352595 -1.651991
0.313597 8.225050 -1.631455
0.310789 9.293353 -1.601138
0.358366 10.645697 -1.563536
0.420906 12.489457 -1.519120
0.509409 15.018409 -1.455911
0.639213 18.724358 -1.358907
0.847997 24.812094 -1.203112
1.251276 36.380745 -0.890807
1.987754 57.390320 -0.052599
-0.001193 -0.329403 -0.012469
-0.001193 -0.329403 -0.012469
-0.001193 -0.329403 -0.012469
-0.001193 -0.329403 -0.012469
-0.001193 -0.329403 -0.012469
-0.001193 -0.329403 -0.012469
-0.001193 -0.329403 -0.012469
-0.001193 -0.329403 -0.012469
0.020284 0.231157 -0.345422
0.019964 0.217882 -0.320451
0.020874 0.238987 -0.315186
0.021549 0.251256 -0.304507
0.023076 0.284950 -0.303804
0.024380 0.315263 -0.300055
0.025091 0.327293 -0.287329
0.175580 4.049899 -1.727241
0.189050 4.364429 -1.725803
0.204209 4.696209 -1.715753
0.222978 5.110271 -1.715295
0.241590 5.538128 -1.700657
0.264834 6.047217 -1.687818
0.290827 6.642529 -1.670847
0.322875 7.345406 -1.650700
0.362877 8.223517 -1.631413
0.367821 9.289777 -1.600766
0.421749 10.647836 -1.564045
0.496978 12.487145 -1.519063
0.600256 15.009563 -1.455286
0.749483 18.734707 -1.359819
0.998677 24.844950 -1.204813
1.468437 36.357079 -0.890293
2.318864 57.346348 -0.052382
-0.001183 -0.328986 -0.012453
-0.001183 -0.328986 -0.012453
-0.001183 -0.328986 -0.012453
-0.001183 -0.328986 -0.012453
-0.001183 -0.328986 -0.012453
-0.001183 -0.328986 -0.012453
-0.001183 -0.328986 -0.012453
-0.001183 -0.328986 -0.012453
0.023288 0.226282 -0.342340
0.023047 0.216426 -0.319453
0.024223 0.241019 -0.316109
0.025140 0.256885 -0.307185
0.026611 0.285204 -0.303786
0.028093 0.315514 -0.300038
0.029041 0.331225 -0.288855
0.200979 4.052943 -1.728669
0.216012 4.361804 -1.725087
0.233162 4.695363 -1.715721
0.254316 5.109311 -1.715263
0.275017 5.529359 -1.698413
0.301930 6.053724 -1.689813
0.331249 6.646964 -1.672197
0.367168 7.345776 -1.651078
0.411667 8.211883 -1.629512
0.423734 9.299726 -1.602675
0.484597 10.637695 -1.562877
0.570531 12.478532 -1.518308
0.688496 15.004260 -1.455035
0.859289 18.730499 -1.359744
1.141939 24.801279 -1.202922
1.676787 36.284519 -0.888633
-0.001193 -0.328592 -0.012438
-0.001193 -0.328592 -0.012438
-0.001193 -0.328592 -0.012438
-0.001193 -0.328592 -0.012438
-0.001193 -0.328592 -0.012438
-0.001193 -0.328592 -0.012438
-0.001193 -0.328592 -0.012438
-0.001193 -0.328592 -0.012438
-0.001193 -0.328592 -0.012438
0.026907 0.235128 -0.347430
0.026442 0.221909 -0.322378
0.027429 0.239529 -0.315151
0.028405 0.255337 -0.306269
0.030243 0.287258 -0.304625
0.031999 0.319406 -0.301649
0.032546 0.325915 -0.286521
0.226032 4.048416 -1.727182
0.242825 4.357135 -1.723686
0.262105 4.694355 -1.715690
0.285436 5.104356 -1.714035
0.309264 5.537687 -1.701142
0.338378 6.046494 -1.688254
0.371126 6.639538 -1.670772
0.411483 7.345911 -1.651454
0.461168 8.215666 -1.630584
0.478604 9.285722 -1.600675
0.547952 10.639091 -1.563386
0.644077 12.471467 -1.517785
0.777317 15.010411 -1.455906
0.968639 18.717670 -1.359104
1.286761 24.796696 -1.202921
-0.001187 -0.328171 -0.012422
-0.001187 -0.328171 -0.012422
-0.001187 -0.328171 -0.012422
-0.001187 -0.328171 -0.012422
-0.001187 -0.328171 -0.012422
-0.001187 -0.328171 -0.012422
-0.001187 -0.328171 -0.012422
-0.001187 -0.328171 -0.012422
-0.001187 -0.328171 -0.012422
-0.001187 -0.328171 -0.012422
0.029790 0.228516 -0.343326
0.029797 0.225619 -0.324322
0.030499 0.236233 -0.313254
0.031480 0.250228 -0.303556
0.033489 0.282069 -0.302037
0.035613 0.317775 -0.300817
0.036735 0.333485 -0.289592
0.251350 4.049306 -1.727881
0.269693 4.354176 -1.722971
0.291144 4.695059 -1.716300
0.316947 5.106835 -1.715197
0.343175 5.538146 -1.701660
0.375658 6.054495 -1.690757
0.411027 6.633806 -1.669809
