# This PCD file was generated using the MATLAB® pcwrite function
# from Computer Vision Toolbox®.
# .PCD v.7 - Point Cloud Data file format
VERSION .7
FIELDS x y z
SIZE 4 4 4
TYPE F F F
COUNT 1 1 1
WIDTH 1643
HEIGHT 1
VIEWPOINT 0 0 0 1 0 0 0
POINTS 1643
DATA ascii
-3.063482 5.978625 -1.677356
-3.379469 6.635978 -1.660217
-3.753108 7.416832 -1.635144
-4.265046 8.388260 -1.606484
-4.897864 9.691313 -1.577992
-3.869837 7.588685 -1.040181
-4.035706 7.937142 -0.868407
-3.884718 7.630538 -0.629027
-3.740383 7.340745 -0.407091
-3.747153 7.358449 -0.206963
-3.738325 7.347388 -0.007685
-3.732721 7.342963 0.191133
-3.721178 7.322906 0.390584
-3.717649 7.322742 0.589408
-3.712570 7.315967 0.788185
-3.719609 7.337715 0.992587
-5.523772 11.082705 1.781102
-4.812608 9.614213 1.814030
-3.746407 7.411451 1.618713
-0.251764 0.162372 -0.358098
-0.258784 0.177459 -0.349255
-0.283418 0.228982 -0.361501
-0.312952 0.291088 -0.376515
-0.408537 0.491035 -0.460416
-1.698693 3.183269 -1.760941
-1.792584 3.382698 -1.744625
-1.910329 3.632350 -1.739280
-2.040673 3.906914 -1.732306
-2.180752 4.204156 -1.719772
-2.351937 4.567181 -1.713919
-2.543708 4.971593 -1.703844
-2.765247 5.441495 -1.692041
-3.026358 5.992508 -1.676451
-3.337434 6.652184 -1.659407
-3.706544 7.435181 -1.634429
-4.219523 8.419464 -1.607803
-4.836493 9.708200 -1.576361
-3.817630 7.594461 -1.038127
0.001143 -0.363321 -0.012589
0.001143 -0.363321 -0.012589
-3.684369 7.334885 -0.405732
-3.642245 7.254032 -0.203816
-3.652066 7.278345 -0.007763
-3.649975 7.281120 0.188924
-3.651052 7.290522 0.387732
-3.657486 7.307787 0.586573
-3.659710 7.319668 0.786293
-3.663242 7.334319 0.989297
-5.445286 11.083410 1.776312
-4.777948 9.690298 1.822781
-3.699029 7.428003 1.617576
-0.247993 0.162674 -0.357067
-0.252688 0.173039 -0.345329
-0.276218 0.223039 -0.356799
-0.312232 0.299760 -0.380089
-0.398205 0.482339 -0.454423
-1.674512 3.187068 -1.757694
-1.771789 3.395015 -1.745398
-1.884909 3.638628 -1.737106
-2.014501 3.917650 -1.731630
-2.159254 4.227334 -1.723614
-2.323502 4.581052 -1.713928
-2.515272 4.993966 -1.706056
-2.732590 5.459486 -1.692559
-2.988583 6.010770 -1.676468
-3.297406 6.675817 -1.660257
-3.659388 7.455647 -1.634084
-4.167192 8.440450 -1.607184
-4.774960 9.733541 -1.575842
0.001153 -0.362904 -0.012575
-3.776279 7.633871 -0.832634
-3.675720 7.428380 -0.610116
-3.585412 7.240756 -0.399864
-3.588929 7.255410 -0.203340
-3.597288 7.280390 -0.007799
-3.593126 7.275287 0.188188
-3.595863 7.288334 0.386484
-3.603424 7.311712 0.585143
-3.600528 7.312820 0.783279
-3.613794 7.344911 0.987874
-5.362147 11.083660 1.771240
-4.777601 9.845798 1.845846
-3.635794 7.410419 1.609382
-0.246332 0.167661 -0.359094
-0.250977 0.178104 -0.347275
-0.274221 0.228292 -0.358664
-0.309816 0.305244 -0.381871
-0.395479 0.490010 -0.456977
-1.658809 3.208950 -1.763384
-1.749444 3.405884 -1.745402
-1.862693 3.653538 -1.738564
-1.989867 3.931630 -1.732320
-2.127201 4.230154 -1.719787
-2.294127 4.595157 -1.713938
-2.480225 5.002212 -1.703868
-2.698000 5.475998 -1.692574
-2.949078 6.025266 -1.675565
-3.253941 6.692115 -1.659447
-3.611282 7.474064 -1.633369
-4.114897 8.465415 -1.607213
-4.717473 9.767492 -1.576709
-3.705885 7.599744 -1.033097
-3.684249 7.560846 -0.822872
-3.592439 7.370842 -0.604051
-3.556231 7.296728 -0.401636
-3.539455 7.267916 -0.203136
-3.543476 7.283855 -0.007834
0.001141 -0.362508 -0.012560
-3.542834 7.293650 0.385612
-3.546932 7.309839 0.583292
-3.547411 7.318191 0.781573
-3.555504 7.339588 0.984349
-5.275062 11.074327 1.764771
-4.743378 9.931736 1.856221
-3.592056 7.437650 1.610473
-0.241850 0.166352 -0.357044
-0.248588 0.181547 -0.348241
-0.268622 0.225447 -0.355838
-0.302236 0.299315 -0.377378
-0.391304 0.494350 -0.457821
-1.633506 3.206948 -1.757699
-1.724647 3.409593 -1.742326
-1.837992 3.661216 -1.737116
-1.968965 3.949945 -1.735057
-2.099934 4.241014 -1.719156
-2.263166 4.603486 -1.712163
-2.451820 5.019895 -1.704979
-2.665135 5.493613 -1.693092
-2.911763 6.038491 -1.674660
-3.211271 6.703451 -1.657807
-3.566652 7.492733 -1.633022
-4.063163 8.487590 -1.606918
-4.655869 9.783296 -1.575078
-3.649199 7.597902 -1.030119
-3.701605 7.719941 -0.836930
-3.681285 7.679630 -0.626078
-3.523694 7.342942 -0.402947
-3.517057 7.335882 -0.204336
-3.525635 7.358539 -0.007821
-3.515198 7.343076 0.188809
-3.496193 7.308902 0.385307
-3.493281 7.306348 0.581443
-3.501164 7.331058 0.780805
-3.502870 7.342278 0.981992
-5.204551 11.089620 1.762496
-4.692348 9.972867 1.858791
-3.532475 7.426408 1.603765
-0.235254 0.160311 -0.351936
-0.246879 0.186572 -0.350187
-0.268140 0.233842 -0.359579
-0.299148 0.303098 -0.378263
-0.385626 0.495349 -0.456956
-1.615194 3.221685 -1.760139
-1.701383 3.416500 -1.740790
-1.814790 3.672143 -1.737121
-1.941018 3.954759 -1.732331
-2.072599 4.251723 -1.718524
-2.234543 4.616832 -1.712173
-2.420783 5.034335 -1.704990
-2.629791 5.505734 -1.692095
-2.878030 6.062673 -1.676516
-3.169729 6.720447 -1.657412
-3.520552 7.511756 -1.632676
-4.009684 8.505861 -1.605976
-4.593294 9.801314 -1.573726
-3.595937 7.602900 -1.028065
-3.667271 7.768777 -0.839725
-3.561911 7.539235 -0.613784
-3.472699 7.348946 -0.402233
-3.474323 7.360054 -0.204449
-3.474564 7.364522 -0.007853
-3.464209 7.349017 0.188406
-3.442961 7.309274 0.384248
-3.447434 7.323108 0.581139
-3.447839 7.331526 0.778727
-3.450317 7.344621 0.979636
-5.121523 11.081866 1.756588
-4.639187 10.014560 1.861358
-3.471516 7.411173 1.596314
-0.234349 0.166783 -0.354982
-0.240897 0.182007 -0.346261
-0.263997 0.234165 -0.358629
-0.296769 0.308488 -0.380045
-0.382145 0.501282 -0.458655
-1.593163 3.229941 -1.759330
-1.680349 3.428326 -1.741564
-1.793054 3.686326 -1.738579
-1.916135 3.968323 -1.733021
-2.047547 4.267439 -1.719810
-2.207383 4.633514 -1.713371
-2.387943 5.047254 -1.704452
-2.596742 5.522955 -1.692615
-2.835933 6.071140 -1.674233
-3.123708 6.730583 -1.655358
-3.470613 7.525711 -1.631223
-3.957747 8.527410 -1.605681
-4.535321 9.834233 -1.574593
-3.538710 7.598471 -1.024857
0.001145 -0.361271 -0.012517
-3.514158 7.558820 -0.613670
-3.418510 7.347318 -0.401150
-3.422488 7.363913 -0.204064
-3.415709 7.356153 -0.007894
-3.413274 7.354627 0.188003
-3.395511 7.322067 0.383848
-3.395327 7.329247 0.579991
-3.390066 7.324947 0.775900
-3.397067 7.344785 0.977046
-5.047945 11.099788 1.754590
-4.584697 10.058577 1.864250
-3.402178 7.375679 1.584778
-0.231211 0.168578 -0.354970
-0.236969 0.182242 -0.345270
-0.261157 0.237764 -0.359556
-0.293515 0.312279 -0.380930
-0.375578 0.500626 -0.456935
-1.571720 3.237792 -1.758521
-1.657085 3.436954 -1.740798
-1.768997 3.697310 -1.738584
-1.888926 3.974514 -1.730978
-2.020043 4.279916 -1.719819
-2.176937 4.645188 -1.712787
-2.357527 5.063082 -1.705014
-2.563324 5.542216 -1.693640
-2.798075 6.085978 -1.673790
-3.084369 6.752454 -1.656207
-3.425125 7.545983 -1.631247
-3.901770 8.543909 -1.604417
-4.473356 9.853326 -1.573518
-3.484248 7.603360 -1.022804
-3.886278 8.530839 -0.912547
-3.437321 7.508044 -0.608294
-3.365516 7.351401 -0.400345
-3.368614 7.366154 -0.203634
-3.368008 7.368778 -0.007920
-3.358651 7.354994 0.187457
-3.345077 7.331506 0.383260
-3.339837 7.323483 0.578000
-3.339396 7.330150 0.774383
-3.344943 7.350662 0.975156
-5.051970 11.290809 1.779418
-4.503427 10.036345 1.855431
-3.339035 7.356476 1.576585
-0.232254 0.179790 -0.361074
-0.234517 0.185624 -0.346237
-0.256300 0.236432 -0.357668
-0.285390 0.304519 -0.375541
-0.372044 0.506506 -0.458635
-1.551700 3.248860 -1.759336
-1.635203 3.446824 -1.740802
-1.742669 3.700975 -1.735684
-1.864670 3.987452 -1.731668
-1.993282 4.291882 -1.719826
-2.148076 4.658044 -1.712796
-2.327770 5.080506 -1.706126
-2.527758 5.553735 -1.692643
-2.761669 6.104179 -1.674266
-3.044116 6.772310 -1.656641
-3.382615 7.573218 -1.632747
-3.848866 8.563006 -1.603799
-4.415246 9.881141 -1.573830
0.001143 -0.360458 -0.012488
-3.525620 7.834594 -0.839984
-3.384860 7.511617 -0.607072
-3.312366 7.350880 -0.399355
-3.316158 7.367478 -0.203203
-3.311607 7.360893 -0.007959
-3.303902 7.350749 0.186817
-3.291285 7.329021 0.382106
-3.285331 7.319154 0.576150
-3.285661 7.327696 0.772118
-3.291914 7.350104 0.972566
-5.099081 11.587869 1.820450
-4.449662 10.077059 1.857998
-3.280661 7.343467 1.569878
-0.225777 0.173609 -0.355966
-0.233411 0.192197 -0.349162
-0.254939 0.243179 -0.360471
-0.282954 0.309854 -0.377322
-0.368455 0.512376 -0.460334
-1.530176 3.256459 -1.758526
-1.611814 3.453181 -1.739267
-1.722151 3.718216 -1.738595
-1.839607 3.998518 -1.731674
-1.964241 4.298458 -1.717916
-2.119138 4.670739 -1.712806
-2.292651 5.085381 -1.703386
-2.494397 5.570393 -1.693162
-2.725145 6.122180 -1.674743
-3.002980 6.790138 -1.656661
-3.333842 7.585709 -1.631294
-3.795083 8.579996 -1.602858
-4.353084 9.899526 -1.572755
0.001153 -0.360040 -0.012474
-4.443004 10.132689 -1.069428
-3.330121 7.509356 -0.605433
-3.260138 7.351821 -0.398456
-3.257600 7.353699 -0.202409
-3.259308 7.361822 -0.007992
-3.254005 7.357163 0.186462
-3.242289 7.337220 0.381519
-3.241039 7.338375 0.576128
-3.235921 7.334065 0.770788
-3.239758 7.351039 0.970210
-5.113783 11.816476 1.850863
-4.417728 10.170263 1.869999
-3.227886 7.342712 1.565770
-0.221360 0.172150 -0.353915
-0.230917 0.195537 -0.350129
-0.250106 0.241784 -0.358584
-0.283219 0.321788 -0.382690
-0.359960 0.506537 -0.456050
-1.506505 3.258877 -1.755279
-1.590537 3.464511 -1.740040
-1.696487 3.723313 -1.736420
-1.813027 4.005980 -1.730315
-1.938849 4.313583 -1.719203
-2.090124 4.683273 -1.712816
-2.261994 5.100673 -1.703948
-2.460955 5.586843 -1.693682
-2.686285 6.134572 -1.673839
-2.961013 6.805904 -1.656266
-3.286519 7.601559 -1.630579
-3.743538 8.602105 -1.602886
-4.293936 9.924822 -1.572790
-3.320906 7.603079 -1.015255
-3.524479 8.099722 -0.862570
-3.276326 7.508536 -0.603934
-3.207226 7.350594 -0.397465
-3.208514 7.361669 -0.202159
-3.208642 7.366107 -0.008023
-3.199548 7.352179 0.185823
-3.191027 7.339566 0.380648
-3.190540 7.342585 0.574981
-3.180896 7.327229 0.768150
-3.187697 7.351641 0.967855
-5.042809 11.844325 1.850540
-4.362298 10.208707 1.872240
-3.192465 7.383396 1.570204
-0.220910 0.180197 -0.357981
-0.227050 0.195660 -0.349138
-0.244609 0.238740 -0.355758
-0.273872 0.310576 -0.375507
-0.357015 0.514036 -0.458604
-1.485696 3.269855 -1.756095
-1.567089 3.470596 -1.738504
-1.672237 3.731701 -1.735699
-1.789222 4.022290 -1.732371
-1.910460 4.321580 -1.717932
-2.061788 4.697381 -1.713420
-2.228847 5.112607 -1.703410
-2.424471 5.595955 -1.692179
-2.651367 6.159822 -1.676157
-2.917708 6.821940 -1.655872
-3.237738 7.617689 -1.629864
-3.686628 8.611131 -1.600652
-4.232082 9.948698 -1.572548
0.001151 -0.359226 -0.012445
-3.468138 8.101872 -0.860749
-3.222772 7.511635 -0.602712
-3.156718 7.354552 -0.396751
-3.160966 7.373030 -0.202000
-3.157439 7.372474 -0.008054
-3.146759 7.350539 0.185278
-3.141341 7.345294 0.379966
-3.147048 7.367332 0.575379
-3.150983 7.385130 0.772050
-3.175416 7.449411 0.977866
0.001151 -0.359226 -0.012445
0.001151 -0.359226 -0.012445
-3.160390 7.433022 1.576494
-0.216424 0.178712 -0.355930
-0.221797 0.192554 -0.346191
-0.243724 0.247125 -0.359499
-0.273219 0.320911 -0.379978
-0.353327 0.519850 -0.460303
-1.464780 3.278749 -1.756098
-1.544327 3.480244 -1.738509
-1.649359 3.743385 -1.736431
-1.761861 4.027691 -1.730328
-1.882780 4.331137 -1.717301
-2.032619 4.709592 -1.713430
-2.198007 5.127548 -1.703972
-2.388698 5.606630 -1.691182
-2.612328 6.171782 -1.675253
-2.875388 6.833070 -1.654647
-3.191689 7.632394 -1.629149
-3.632590 8.631430 -1.600358
-4.169685 9.965956 -1.571474
0.001139 -0.358830 -0.012431
-3.410419 8.104252 -0.858928
-3.172178 7.517515 -0.601766
-3.115353 7.384693 -0.397327
-3.138034 7.445305 -0.203339
-3.124804 7.420624 -0.008060
-3.134486 7.452976 0.187391
-3.132620 7.452675 0.384466
-3.132187 7.459817 0.580979
-3.130650 7.460313 0.777820
-3.135551 7.480905 0.979477
-3.144619 7.511880 1.183300
-3.140023 7.504748 1.383291
-3.693767 8.900785 1.871304
-0.213412 0.180331 -0.355919
-0.221935 0.202303 -0.351073
-0.237721 0.242328 -0.355735
-0.268111 0.319504 -0.378174
-0.346263 0.517238 -0.457729
-1.445146 3.290935 -1.757726
-1.523557 3.490917 -1.739282
-1.623635 3.748039 -1.734256
-1.735874 4.036429 -1.729652
-1.854344 4.338788 -1.716031
-2.002711 4.719828 -1.712845
-2.164261 5.135155 -1.702333
-2.352183 5.615285 -1.689680
-2.573256 6.183496 -1.674350
-2.831234 6.846769 -1.653838
-3.144930 7.653433 -1.629542
-3.580872 8.648314 -1.599739
-4.102837 9.971805 -1.568735
-3.163787 7.612482 -1.009322
-3.361636 8.119873 -0.858584
-3.132639 7.550911 -0.602897
-3.085316 7.435804 -0.399007
-3.078333 7.426470 -0.202454
-3.072592 7.420313 -0.008093
-3.127537 7.563755 0.189741
-3.337590 8.104707 0.416565
0.001149 -0.358412 -0.012417
0.001149 -0.358412 -0.012417
-5.770975 14.312534 1.839494
0.001149 -0.358412 -0.012417
-4.179364 10.290009 1.873106
-3.646113 8.936972 1.874245
-0.210843 0.183599 -0.356926
-0.215417 0.195913 -0.346167
-0.236720 0.250727 -0.359476
-0.266036 0.326490 -0.380853
-0.342390 0.523043 -0.459429
-1.420143 3.289369 -1.752854
-1.498669 3.495148 -1.736977
-1.599240 3.758008 -1.734262
-1.710538 4.046757 -1.729658
-1.827810 4.353648 -1.717318
-1.972536 4.732036 -1.712855
-2.132582 5.147940 -1.702345
-2.317392 5.631352 -1.690200
-2.534129 6.194987 -1.673447
-2.788988 6.861534 -1.653443
-3.096627 7.666306 -1.628459
-3.525201 8.664306 -1.598799
-4.044007 9.997502 -1.569048
-3.311410 8.131226 -1.071699
-3.331537 8.192018 -0.863784
-3.869935 9.578939 -0.752626
-3.065093 7.521418 -0.402348
-3.066117 7.532622 -0.204611
-3.297181 8.131785 -0.007734
-3.310500 8.175346 0.204805
-3.362405 8.318507 0.426334
0.001137 -0.358016 -0.012403
-5.821131 14.685794 1.500887
-5.837806 14.745286 1.889600
-4.836742 12.162953 1.881092
-4.120105 10.319841 1.874045
-3.128536 7.759655 1.631378
-0.207731 0.185206 -0.356915
-0.214729 0.204066 -0.350071
-0.233207 0.252496 -0.359464
-0.259523 0.321751 -0.377256
-0.339251 0.530479 -0.461983
-1.402382 3.306426 -1.756920
-1.476469 3.504107 -1.736981
-1.574191 3.764061 -1.732814
-1.685143 4.056942 -1.729665
-1.799962 4.362741 -1.716686
-1.943883 4.745489 -1.713460
-2.101527 5.162328 -1.702907
-2.284245 5.648613 -1.691225
-2.497058 6.211680 -1.673924
-2.750129 6.885215 -1.655122
-3.051061 7.686249 -1.628852
-3.474600 8.688548 -1.599474
-3.981463 10.013632 -1.567973
-3.281666 8.200656 -1.077960
-3.321430 8.313752 -0.873973
-3.799804 9.567931 -0.750166
-3.068923 7.668100 -0.408729
-3.082719 7.713054 -0.208585
-3.246089 8.145445 -0.007763
-3.249197 8.162919 0.203972
-3.367166 8.481881 0.433559
-5.765064 14.783439 1.128819
-5.751405 14.764138 1.505312
0.001147 -0.357598 -0.012388
-4.785647 12.246563 1.889427
-4.062032 10.353050 1.875635
-3.124918 7.891891 1.654375
-0.206414 0.191658 -0.359960
-0.215206 0.215488 -0.355932
-0.231576 0.259193 -0.362267
-0.256869 0.327000 -0.379037
-0.332215 0.527767 -0.459408
-1.380615 3.313145 -1.756110
-1.455492 3.516429 -1.738524
-1.553703 3.782198 -1.736452
-1.659037 4.065221 -1.728988
-1.772766 4.373425 -1.716695
-1.915784 4.760609 -1.714659
-2.069041 5.172943 -1.702368
-2.248272 5.658450 -1.690228
-2.457823 6.222721 -1.673020
-2.709069 6.903168 -1.655557
-3.002632 7.698571 -1.627767
-3.419675 8.701419 -1.598210
-3.920267 10.033102 -1.567453
0.001131 -0.357197 -0.012374
-4.009042 10.291889 -1.068202
0.001131 -0.357197 -0.012374
-3.075365 7.826335 -0.415665
0.001131 -0.357197 -0.012374
0.001131 -0.357197 -0.012374
0.001131 -0.357197 -0.012374
-3.379266 8.669925 0.442007
0.001131 -0.357197 -0.012374
-5.684433 14.851541 1.510672
-5.671802 14.834706 1.892285
-4.721282 12.296618 1.892734
-3.997525 10.369301 1.874297
-3.133584 8.061208 1.684796
-0.202656 0.191632 -0.358929
-0.208252 0.207331 -0.350047
-0.228026 0.260926 -0.362256
-0.253549 0.330555 -0.379923
-0.326489 0.528378 -0.458543
-1.358169 3.318032 -1.754488
-1.433801 3.526883 -1.739298
-1.527912 3.786230 -1.734277
-1.636135 4.082172 -1.731727
-1.746141 4.385748 -1.717342
-1.886294 4.771949 -1.714669
-2.036494 5.183370 -1.701830
-2.214255 5.673523 -1.690748
-2.420553 6.239006 -1.673497
-2.664514 6.911713 -1.653918
-2.958200 7.721692 -1.628899
-3.368126 8.723229 -1.598562
-3.859690 10.054041 -1.567211
-3.684564 9.593050 -1.245921
-3.722368 9.706333 -1.007998
-3.885925 10.154550 -0.790401
-3.075970 7.973616 -0.422049
-3.092005 8.026477 -0.215355
-3.309853 8.622205 -0.007581
-3.323617 8.669664 0.215775
-4.070825 10.710824 0.543486
-5.598567 14.872137 1.130390
-5.585776 14.854531 1.507626
-5.573271 14.837704 1.888495
-4.650374 12.329601 1.893526
-3.932291 10.383305 1.872635
-3.133669 8.212413 1.711503
-0.198326 0.189958 -0.356879
-0.203216 0.204009 -0.347099
-0.222632 0.257682 -0.359430
-0.248987 0.330724 -0.379015
-0.320772 0.528953 -0.457679
-0.624566 1.366497 -0.827351
-1.408279 3.526790 -1.735453
-1.502749 3.791873 -1.732829
-1.607862 4.086892 -1.729685
-1.715579 4.387219 -1.714154
-1.856082 4.781332 -1.714085
-2.004241 5.197567 -1.702393
-2.180137 5.688412 -1.691268
-2.381371 6.253663 -1.673515
-2.622674 6.931472 -1.654769
-2.910897 7.741342 -1.629294
-3.315778 8.742884 -1.598590
-3.797154 10.075323 -1.566970
-3.619743 9.593966 -1.243414
-3.223506 8.515198 -0.888283
0.001129 -0.356384 -0.012345
-3.063373 8.089272 -0.426867
-3.102257 8.206235 -0.219288
-3.332078 8.850851 -0.007501
-3.294704 8.753000 0.217358
0.001129 -0.356384 -0.012345
-5.495216 14.869874 1.127661
-5.485283 14.859736 1.504765
-5.476931 14.845662 1.885404
-4.550196 12.288454 1.883143
-3.835784 10.315873 1.856661
-3.142089 8.391636 1.743777
-0.193922 0.188297 -0.354829
-0.198111 0.200706 -0.344151
-0.217206 0.254408 -0.356604
-0.245503 0.334290 -0.379901
-0.318097 0.538013 -0.461087
-0.607870 1.351553 -0.818406
-1.388373 3.542196 -1.738537
-1.481332 3.807889 -1.735741
-1.582398 4.094432 -1.729008
-1.690140 4.402780 -1.716080
-1.827734 4.795949 -1.715284
-1.973820 5.210909 -1.702954
-2.144003 5.697619 -1.690271
-2.344422 6.267262 -1.673531
-2.579310 6.939048 -1.653128
-2.865737 7.753669 -1.628577
-3.258403 8.753515 -1.597004
-3.734352 10.089959 -1.565895
-3.559967 9.613809 -1.243217
-3.590139 9.704353 -1.003629
-3.644809 9.869344 -0.766092
-3.088948 8.320389 -0.437311
-3.107875 8.378834 -0.223040
0.001138 -0.355966 -0.012331
0.001138 -0.355966 -0.012331
0.001138 -0.355966 -0.012331
-5.401430 14.876301 1.125779
-5.388915 14.858646 1.501534
-5.389959 14.870817 1.884648
-4.530350 12.457855 1.904607
-3.801002 10.402017 1.868010
-3.154032 8.581807 1.778278
-0.193249 0.196254 -0.358894
-0.195687 0.203815 -0.345118
-0.215076 0.259317 -0.358469
-0.241771 0.336015 -0.379890
-0.316683 0.550433 -0.466206
-0.597119 1.351880 -0.816775
-1.365973 3.548552 -1.737771
-1.458679 3.818254 -1.736473
-1.559217 4.110981 -1.731748
-1.664778 4.416139 -1.717366
-1.797682 4.802870 -1.714104
-1.940467 5.218955 -1.701866
-2.110796 5.711735 -1.690790
-2.303691 6.273699 -1.671708
-2.537909 6.956025 -1.653563
-2.817553 7.770952 -1.628602
-3.210394 8.775128 -1.597677
-3.674657 10.107310 -1.565375
-3.497427 9.608959 -1.240244
-3.529292 9.711496 -1.002368
-3.570514 9.840976 -0.762523
-3.079587 8.444872 -0.442591
-3.116460 8.560677 -0.227020
-3.305255 9.111668 -0.007444
0.001127 -0.355570 -0.012317
-3.838870 10.659334 0.537348
-5.303792 14.879293 1.123613
-5.291395 14.861638 1.498675
-5.291734 14.872019 1.880859
-4.466885 12.514078 1.909029
-3.728050 10.398700 1.863419
-3.164281 8.778508 1.813891
-0.191674 0.202667 -0.361941
-0.194648 0.211967 -0.349022
-0.210860 0.259313 -0.357520
-0.235331 0.331091 -0.376293
-0.308358 0.544162 -0.461922
-0.583427 1.345420 -0.811894
-1.339780 3.548271 -1.733925
-1.431466 3.820194 -1.733572
-1.531472 4.117000 -1.730389
-1.634598 4.420956 -1.715457
-1.767658 4.815663 -1.714710
-1.906741 5.228951 -1.701329
-2.072254 5.717238 -1.688783
-2.264935 6.289509 -1.672185
-2.494488 6.971354 -1.653585
-2.771193 7.793507 -1.629735
-3.156158 8.794426 -1.597707
-3.608639 10.118098 -1.563747
-3.431127 9.609279 -1.237738
-3.465606 9.721375 -1.001293
-3.514492 9.875597 -0.763528
-3.113615 8.714718 -0.454883
-3.118651 8.740176 -0.230913
-3.320319 9.339658 -0.007370
-3.383603 9.530511 0.235325
-3.766989 10.663424 0.536368
-5.202327 14.878834 1.121166
-5.192002 14.866808 1.496001
-5.186540 14.860335 1.875434
-4.397464 12.561401 1.912053
-3.660368 10.409836 1.861430
-12.237906 35.650978 7.171696
-0.186701 0.199321 -0.358871
-0.191843 0.215172 -0.349989
-0.209466 0.267668 -0.361261
-0.230117 0.329495 -0.374489
-0.303030 0.546374 -0.461912
-0.573033 1.347437 -0.811075
-1.315411 3.553067 -1.732390
-1.405474 3.825494 -1.732125
-1.505685 4.126159 -1.730396
-1.608045 4.436363 -1.717384
-1.736956 4.826456 -1.714721
-1.875767 5.243898 -1.702441
-2.038034 5.735335 -1.690315
-2.228495 6.308375 -1.673583
-2.451632 6.984151 -1.653190
-2.725463 7.813467 -1.630498
-3.101812 8.813401 -1.597737
-3.548266 10.139112 -1.563782
-3.370032 9.624228 -1.237079
-3.398127 9.719516 -0.999110
-3.446591 9.869608 -0.761622
-3.120326 8.913314 -0.463673
-3.123915 8.935184 -0.235172
-3.333262 9.563771 -0.007298
-3.349696 9.624763 0.237139
-3.694548 10.665172 0.535293
-5.105646 14.882463 1.119141
-5.095402 14.870442 1.493329
-5.081048 14.846056 1.869776
-4.325504 12.594460 1.913124
-3.181020 9.180731 1.644174
-12.005413 35.667461 7.160397
-0.183505 0.200802 -0.358859
-0.187441 0.213387 -0.348020
-0.201991 0.257534 -0.354683
-0.229538 0.341413 -0.379857
-0.296130 0.543367 -0.459338
-0.559477 1.340812 -0.806193
-1.292320 3.559215 -1.731624
-1.380803 3.832145 -1.731404
-1.479080 4.135412 -1.730403
-1.580427 4.445949 -1.717392
-1.708280 4.840409 -1.715920
-1.840723 5.249847 -1.700803
-2.001729 5.743691 -1.689318
-2.187706 6.318191 -1.672681
-2.408639 7.000848 -1.653626
-2.676944 7.829907 -1.630524
-3.050215 8.835256 -1.598413
-3.486552 10.162279 -1.564096
-3.310009 9.636334 -1.236187
-3.281842 9.563517 -0.981953
-3.352044 9.787992 -0.754175
-3.125193 9.107959 -0.472279
-3.133031 9.143300 -0.239749
-3.285623 9.617977 -0.007315
-3.362235 9.856991 0.242411
-3.668483 10.800543 0.540902
-5.008275 14.892081 1.117537
-4.988213 14.849740 1.488228
-4.987854 14.858499 1.867620
-4.247974 12.618440 1.912796
-3.183279 9.379924 1.675358
0.001134 -0.354338 -0.012274
-0.177002 0.192484 -0.352732
-0.183547 0.213227 -0.347030
-0.201640 0.269209 -0.360300
-0.224860 0.341468 -0.378949
-0.294154 0.555834 -0.464457
-0.548021 1.339194 -0.803749
-1.270779 3.572492 -1.733939
-1.358235 3.847759 -1.734317
-1.454930 4.149631 -1.732459
-1.551920 4.455646 -1.717401
-1.676834 4.849051 -1.715336
-1.809592 5.264427 -1.701916
-1.964911 5.754033 -1.688828
-2.149249 6.331079 -1.672698
-2.365651 7.013133 -1.653232
-2.630974 7.849332 -1.631287
-2.996231 8.855490 -1.598766
-3.428375 10.190127 -1.565241
-3.245770 9.641083 -1.234374
-3.270884 9.730965 -0.996406
-3.316961 9.879663 -0.759474
-3.118240 9.278797 -0.479689
-3.128923 9.323845 -0.243647
0.001123 -0.353942 -0.012259
-3.196542 9.551817 0.234277
0.001123 -0.353942 -0.012259
-4.914273 14.902096 1.116074
-4.902409 14.884316 1.488730
-4.889591 14.863671 1.864528
-4.166530 12.622374 1.909677
-3.186849 9.584536 1.707517
0.001123 -0.353942 -0.012259
-0.179088 0.210301 -0.362914
-0.180797 0.216359 -0.347997
-0.195885 0.264057 -0.356536
-0.221932 0.346577 -0.380731
-0.290148 0.561338 -0.466156
-0.540489 1.349686 -0.806993
-1.247577 3.578403 -1.733173
-1.333616 3.852139 -1.732868
-1.428981 4.158331 -1.732467
-1.526755 4.470063 -1.719327
-1.647753 4.858739 -1.715346
-1.776625 5.273330 -1.701378
-1.930780 5.765308 -1.688842
-2.111289 6.345618 -1.673176
-2.325645 7.030372 -1.654081
-2.584538 7.862423 -1.630941
-2.940755 8.865468 -1.597503
-3.364002 10.198766 -1.563612
-3.182117 9.641095 -1.232096
-3.208528 9.736756 -0.995145
-3.251921 9.879998 -0.758123
-3.138877 9.536945 -0.491343
-3.144960 9.562668 -0.248955
-3.310690 10.098326 -0.007166
-3.280001 10.014636 0.245277
-4.676479 14.437251 0.718376
-4.817930 14.903919 1.114050
-4.808825 14.885309 1.486061
-4.796772 14.866532 1.861441
-4.084596 12.623906 1.906279
-3.200584 9.822848 1.745529
-7.605596 23.854799 4.780836
-0.173366 0.203492 -0.357805
-0.177615 0.217769 -0.347985
-0.194545 0.272295 -0.360277
-0.216964 0.344794 -0.378927
-0.283820 0.559932 -0.464437
-0.526319 1.339226 -0.800486
-1.225053 3.583952 -1.732407
-1.308280 3.856586 -1.731421
-1.401841 4.163318 -1.731107
-1.497260 4.473757 -1.717417
-1.617706 4.868550 -1.715356
-1.743628 5.282032 -1.700840
-1.895502 5.776741 -1.688856
-2.070375 6.350635 -1.671352
-2.280637 7.040709 -1.653273
-2.535165 7.876139 -1.630597
-2.886872 8.874615 -1.596237
-3.301398 10.212703 -1.562815
-3.213331 9.937859 -1.266091
-3.151526 9.753036 -0.994992
-3.186990 9.879926 -0.756770
-3.151901 9.774094 -0.501982
-3.151327 9.785323 -0.253856
-3.214853 10.003034 -0.007256
0.001121 -0.353128 -0.012231
-4.697680 14.807833 0.735255
-4.719947 14.899437 1.111605
-4.710087 14.887360 1.483387
-4.706115 14.884829 1.860217
-3.977095 12.541662 1.890593
-3.203476 10.047653 1.780934
-7.463155 23.889252 4.778879
-0.170562 0.206572 -0.358813
-0.173204 0.215889 -0.346016
-0.189275 0.268788 -0.357451
-0.213326 0.348208 -0.379813
-0.280491 0.568949 -0.467846
-0.513601 1.333991 -0.796416
-1.203295 3.596845 -1.734722
-1.282738 3.862895 -1.730700
0.001130 -0.352710 -0.012216
-1.469700 4.486584 -1.718705
-1.585585 4.874810 -1.714177
-1.710166 5.292681 -1.700853
-1.857430 5.782714 -1.687355
-2.031130 6.365067 -1.671831
-2.238996 7.062003 -1.654954
-2.486282 7.891454 -1.630623
-2.834954 8.901429 -1.597884
-3.236326 10.224940 -1.561743
-3.171970 10.021743 -1.273982
-3.170049 10.029078 -1.019985
-3.175128 10.059358 -0.768449
-3.156421 10.005157 -0.512258
-3.156334 10.018493 -0.258988
-3.187093 10.133323 -0.007239
0.001130 -0.352710 -0.012216
-4.638963 14.939092 0.740276
-4.622993 14.906597 1.110001
-4.612666 14.892576 1.481087
-4.611594 14.899596 1.858525
-3.918269 12.624222 1.899201
-3.208957 10.289834 1.819264
-7.086072 23.160196 4.626215
-0.167351 0.207954 -0.358801
-0.171426 0.222316 -0.348940
-0.185201 0.268581 -0.356502
-0.207751 0.344703 -0.377112
-0.274679 0.569218 -0.466981
-0.503113 1.333764 -0.794784
-1.179996 3.602362 -1.733956
-1.260021 3.875999 -1.732885
-1.350822 4.183570 -1.732487
-1.442342 4.497205 -1.719353
-1.557634 4.891589 -1.716567
-1.679170 5.304391 -1.701415
-1.822608 5.795587 -1.687875
-1.996351 6.386048 -1.674148
-2.195900 7.069165 -1.653729
-2.439663 7.903724 -1.630277
-2.782184 8.919904 -1.598237
-3.177765 10.245172 -1.562054
-3.235879 10.453219 -1.324156
0.001136 -0.352288 -0.012202
-3.234094 10.469217 -0.796898
-3.325340 10.789331 -0.549199
-3.167969 10.276435 -0.264713
-3.195308 10.375630 -0.007168
-3.815462 12.474177 0.304513
-4.537736 14.921929 0.738054
-4.529756 14.905825 1.107980
-4.521217 14.897537 1.478979
-4.519155 14.911108 1.856602
-3.844048 12.640639 1.898319
-7.301245 24.355865 4.232636
-7.208117 24.073753 4.797977
-0.162174 0.202722 -0.354711
-0.167143 0.220347 -0.346971
-0.183612 0.276831 -0.360243
-0.205757 0.353152 -0.380687
-0.267330 0.564260 -0.463552
-0.496694 1.349406 -0.800467
-1.155653 3.604177 -1.731650
-1.235135 3.881797 -1.732164
-1.322299 4.186506 -1.730445
-1.415465 4.509461 -1.720640
-1.526886 4.899034 -1.715983
-1.645029 5.312826 -1.700877
-1.787169 5.806391 -1.687890
-1.953615 6.388843 -1.671865
-2.152899 7.086245 -1.654581
-2.391166 7.920363 -1.630672
-2.731525 8.945645 -1.599883
-3.110939 10.250928 -1.560149
-3.199317 10.559774 -1.334822
0.001124 -0.351892 -0.012188
-3.200634 10.593949 -0.804560
-3.257205 10.795278 -0.548592
-3.176750 10.534827 -0.270441
-3.207731 10.655934 -0.007085
-3.219809 10.705316 0.260325
-4.526136 15.211039 0.750882
-4.433015 14.911785 1.106376
-4.424544 14.903486 1.476866
-4.425106 14.916305 1.853979
-3.259670 10.911629 1.641104
-7.118332 24.274069 4.211072
-7.096249 24.215349 4.817549
-0.162215 0.215661 -0.361836
-0.164712 0.225091 -0.348917
-0.179400 0.276615 -0.359294
-0.199595 0.347902 -0.377090
-0.264044 0.573148 -0.466961
-0.488919 1.359659 -0.803711
-1.131151 3.607816 -1.730115
-1.211757 3.892830 -1.733623
-1.297184 4.198055 -1.731819
-1.386393 4.514307 -1.719370
-1.496614 4.908153 -1.715993
-1.610806 5.317059 -1.699238
-1.751683 5.816978 -1.687904
-1.916377 6.405986 -1.673264
-2.109205 7.091017 -1.652941
-2.342273 7.924520 -1.628848
-2.675207 8.958314 -1.599267
-3.048736 10.265263 -1.559629
-3.563998 12.076083 -1.516025
0.001112 -0.351496 -0.012173
-3.240766 10.973230 -0.830661
-3.314547 11.247040 -0.569396
-3.184851 10.801363 -0.276352
0.001112 -0.351496 -0.012173
-3.197969 10.878472 0.264070
-4.352198 14.941363 0.736340
-4.337959 14.912518 1.104493
-4.332207 14.903476 1.474384
-4.328962 14.913302 1.850424
-3.261693 11.166895 1.675688
-6.939309 24.167665 4.185941
-7.009170 24.449146 4.855306
-0.152519 0.193774 -0.347552
-0.161961 0.228094 -0.349885
-0.174435 0.272938 -0.356467
-0.196649 0.352865 -0.378872
-0.259682 0.578558 -0.468661
-0.483492 1.378695 -0.811019
-1.112004 3.625147 -1.734739
-1.187810 3.901924 -1.734356
-1.269441 4.200430 -1.729776
-1.360385 4.529918 -1.721936
-1.466807 4.918935 -1.716599
-1.579679 5.332207 -1.700902
-1.717675 5.832974 -1.689436
-1.877426 6.417320 -1.673281
-2.066581 7.109457 -1.654207
-2.293127 7.938678 -1.628874
-2.627452 8.988716 -1.601882
-2.987530 10.283066 -1.559665
-3.492919 12.090471 -1.515375
-4.195902 14.614684 -1.455411
-3.265352 11.312963 -0.853853
-4.081031 14.236350 -0.711938
-3.200196 11.104955 -0.283131
-3.209728 11.155334 -0.006950
0.001122 -0.351078 -0.012159
-4.244234 14.895374 0.732803
-4.244105 14.916521 1.102891
-4.237903 14.915885 1.473017
-4.236206 14.921171 1.848268
-3.275148 11.474098 1.717808
-6.615843 23.565983 4.075953
-6.713301 23.936441 4.746826
-0.152468 0.206709 -0.354676
-0.158048 0.227787 -0.348894
-0.171669 0.277779 -0.358332
-0.193888 0.359605 -0.381551
-0.252250 0.573519 -0.465231
-0.475458 1.388907 -0.814264
-1.085961 3.623175 -1.730894
-1.160573 3.902131 -1.731455
-1.242712 4.206259 -1.729100
-1.330910 4.536473 -1.721306
-1.435026 4.926094 -1.716015
-1.546423 5.339756 -1.700364
-1.680450 5.841590 -1.688946
-1.838927 6.430303 -1.673759
-2.022542 7.117881 -1.653398
-2.244817 7.950273 -1.628529
-2.569908 8.996922 -1.600620
-2.926761 10.302413 -1.559978
-3.416417 12.101796 -1.514265
-4.111227 14.655104 -1.456948
-3.208661 11.370475 -0.856666
-3.190767 11.321867 -0.571230
0.001111 -0.350682 -0.012145
-3.436135 12.246811 -0.006510
-3.494685 12.479902 0.302340
0.001111 -0.350682 -0.012145
-4.151909 14.925737 1.101711
-4.142598 14.913564 1.470347
-4.139793 14.925373 1.845643
-3.291904 11.806677 1.763555
-6.515610 23.743177 4.099586
-6.488106 23.676517 4.688081
-0.149723 0.209633 -0.355684
-0.153808 0.225732 -0.346925
-0.170814 0.289388 -0.363951
-0.185640 0.345567 -0.373471
-0.246934 0.575358 -0.465222
-0.465433 1.392026 -0.814258
-1.066399 3.642248 -1.736289
-1.136077 3.909136 -1.731461
-1.217418 4.217378 -1.730474
-1.299815 4.533477 -1.717478
-1.403618 4.931000 -1.714836
-1.513632 5.348969 -1.700377
-1.643772 5.847827 -1.687950
-1.799834 6.441199 -1.673776
-1.979003 7.127914 -1.653004
-2.199497 7.972961 -1.630401
-2.516021 9.011986 -1.600649
-2.866398 10.323318 -1.560569
-3.345160 12.123592 -1.514540
-3.130738 11.341462 -1.136147
0.001120 -0.350264 -0.012130
-3.149784 11.438913 -0.575979
-3.391366 12.361413 -0.311966
-3.466071 12.651376 -0.006385
-3.488637 12.755280 0.308534
-4.061576 14.929338 0.731934
-4.058736 14.930535 1.100250
-4.049003 14.916418 1.468236
-4.046145 14.928270 1.843021
-3.305450 12.141745 1.809579
-6.349520 23.677700 4.081933
-6.346624 23.702509 4.685755
-0.146041 0.209253 -0.354653
-0.150054 0.225326 -0.345934
-0.166218 0.287370 -0.362063
-0.186152 0.364342 -0.382426
-0.241139 0.575430 -0.464357
-0.455393 1.395086 -0.814251
-1.044787 3.654088 -1.738603
-1.112929 3.921432 -1.733647
-1.190146 4.221080 -1.729114
-1.273095 4.546796 -1.719405
-1.374141 4.943099 -1.716036
-1.481273 5.359854 -1.700940
-1.609027 5.861339 -1.688976
-1.759720 6.448086 -1.672873
-1.937861 7.147173 -1.654685
-2.151536 7.985888 -1.630426
-2.461562 9.024817 -1.600356
-2.804380 10.338138 -1.560328
-3.272249 12.139223 -1.514122
-3.936623 14.696481 -1.456506
-3.151184 11.704734 -0.878103
-3.166643 11.782016 -0.591530
-3.395276 12.677176 -0.318984
-3.464248 12.952165 -0.006310
-3.492145 13.079358 0.315907
-3.969994 14.939363 0.731218
-3.963645 14.927045 1.098227
-3.956013 14.920633 1.466313
-3.952120 14.928661 1.840166
-3.311776 12.463943 1.853645
-6.363935 24.306652 4.182607
-6.477777 24.785789 4.889778
-0.144534 0.217161 -0.358719
-0.147609 0.229969 -0.347881
-0.160805 0.281870 -0.358299
-0.178044 0.350228 -0.374345
-0.235810 0.577212 -0.464347
-0.442170 1.385696 -0.808556
-1.020801 3.656865 -1.737068
-1.086944 3.922750 -1.731472
-1.161944 4.220984 -1.726389
-1.244422 4.552600 -1.718775
-1.342698 4.947628 -1.714857
-1.448366 5.368696 -1.700952
-1.573216 5.870923 -1.688991
-1.720542 6.458513 -1.672891
-1.894174 7.156719 -1.654291
-2.104444 8.002373 -1.631190
-2.409510 9.046876 -1.601679
-2.741312 10.348754 -1.559531
0.001118 -0.349450 -0.012102
-3.850394 14.721244 -1.456747
-3.177972 12.100056 -0.905188
-3.179156 12.123761 -0.606992
-3.406045 13.034068 -0.326963
-3.443298 13.191335 -0.006263
-3.500394 13.436854 0.324081
-3.876479 14.941083 0.730127
-3.872662 14.938430 1.097328
-3.862642 14.922339 1.464202
-3.859696 14.934248 1.838010
-3.348906 12.922958 1.917529
-6.200604 24.259138 4.168202
-8.670291 34.112263 6.698522
-0.139189 0.210038 -0.353610
-0.143835 0.229542 -0.346890
-0.158010 0.286640 -0.360164
-0.175328 0.356842 -0.377024
-0.229600 0.575452 -0.462627
-0.431861 1.388707 -0.808550
-1.001718 3.679212 -1.744003
-1.062329 3.929339 -1.731478
-1.135726 4.231837 -1.727763
-1.214795 4.554582 -1.716865
-1.312639 4.957522 -1.715462
-1.413940 5.375740 -1.700415
-1.538314 5.884024 -1.690017
-1.678724 6.463335 -1.671529
-1.850086 7.170117 -1.654728
-2.055804 8.018921 -1.631955
-2.354867 9.059097 -1.601385
-2.677297 10.363325 -1.559291
-3.122890 12.155697 -1.511669
-3.760168 14.730045 -1.455509
-3.183121 12.436614 -0.927978
-3.192171 12.483501 -0.623288
-3.421957 13.428390 -0.335812
-3.417309 13.431291 -0.006221
0.001107 -0.349054 -0.012088
-3.783061 14.942256 0.729035
-3.777111 14.942177 1.095865
-3.767659 14.928017 1.462463
-3.767330 14.939293 1.835855
-7.365268 29.583088 4.333066
-9.212240 37.147335 6.347905
-8.397648 33.860512 6.639739
-0.139546 0.226312 -0.362774
-0.140404 0.230794 -0.346878
-0.151722 0.277685 -0.354523
-0.170285 0.354814 -0.375220
-0.219400 0.557895 -0.453213
-0.421845 1.391577 -0.808544
-0.978672 3.689076 -1.745548
-1.036029 3.932369 -1.730031
-1.111092 4.246019 -1.730503
-1.186122 4.563954 -1.717514
-1.280229 4.961916 -1.714283
-1.381854 5.387928 -1.701528
-1.501299 5.893452 -1.690033
-1.640827 6.478976 -1.672927
-1.805376 7.175353 -1.653504
-2.005740 8.023388 -1.630502
-2.299013 9.073301 -1.601416
-2.618388 10.390507 -1.560992
-3.048179 12.172472 -1.511484
-3.669692 14.748623 -1.455198
-3.252621 13.044538 -0.970188
-3.206875 12.877337 -0.641159
-3.422488 13.788960 -0.343844
-3.480886 14.042095 -0.006023
-3.554454 14.369762 0.345661
-3.688528 14.949300 0.728224
-3.684295 14.944716 1.094404
-3.675424 14.932456 1.460727
-3.669583 14.932836 1.832299
-7.165950 29.513758 4.316750
-8.920275 36.883553 6.294111
-7.915593 32.744267 6.413214
-0.132246 0.210776 -0.352568
-0.137469 0.233701 -0.347846
-0.148524 0.280677 -0.355450
-0.167059 0.359673 -0.377002
-0.218353 0.577144 -0.461752
-0.409829 1.387345 -0.805287
-0.477794 1.676093 -0.879961
-1.013937 3.949542 -1.734397
-1.082939 4.249285 -1.729144
-1.157380 4.569262 -1.716883
-1.249630 4.969602 -1.714294
-1.346905 5.392696 -1.700441
-1.464429 5.898647 -1.689036
-1.600282 6.489003 -1.672946
-1.759807 7.182532 -1.652695
-1.956034 8.035543 -1.630528
-2.242875 9.079123 -1.600152
-2.555064 10.408202 -1.561307
-2.972811 12.176692 -1.509910
-3.578085 14.750545 -1.453404
-3.308185 13.634831 -1.011017
-3.224890 13.294580 -0.660140
-3.365365 13.911981 -0.346314
-3.454167 14.312079 -0.005975
-3.591077 14.906154 0.358122
-3.595329 14.949321 0.727133
-3.588486 14.945348 1.092801
-3.580148 14.935026 1.458801
0.001105 -0.348240 -0.012059
-6.791658 28.713451 4.194633
-8.715796 37.007381 6.305972
-7.732913 32.824184 6.419754
-0.130859 0.220358 -0.357653
-0.135993 0.243406 -0.352729
-0.146399 0.288828 -0.359192
-0.164865 0.369778 -0.381474
-0.211638 0.573550 -0.459178
-0.401165 1.397281 -0.808532
-0.465352 1.677511 -0.879186
-0.988011 3.954063 -1.733677
-1.055649 4.256028 -1.729152
-1.128614 4.578287 -1.717532
-1.217626 4.975472 -1.713710
-1.313673 5.404744 -1.701555
-1.426915 5.905738 -1.688546
-1.560133 6.500666 -1.673425
-1.715533 7.195148 -1.653133
-1.906682 8.049334 -1.630924
-2.186450 9.090751 -1.599860
-2.491646 10.425506 -1.561622
-2.897988 12.192588 -1.509725
-3.487543 14.768030 -1.453093
-3.311172 14.027914 -1.037704
-3.238904 13.726636 -0.679774
-3.294587 13.992508 -0.347783
-3.521852 15.007220 -0.005755
-3.508101 14.960735 0.358865
-3.489799 14.906527 0.723972
-3.477666 14.879282 1.086428
-3.468150 14.863229 1.449786
-3.367960 14.437139 1.767382
-6.839624 29.723080 4.334634
-8.490932 37.045403 6.303531
-7.562902 32.988762 6.442615
-0.127698 0.221488 -0.357641
-0.129999 0.232668 -0.345865
-0.140493 0.279734 -0.353550
-0.158890 0.362389 -0.376980
-0.208091 0.582181 -0.462587
-0.390520 1.394492 -0.806087
-0.455252 1.685895 -0.881491
-0.962753 3.954470 -1.731502
-1.029911 4.258414 -1.727792
-1.100663 4.583089 -1.716900
-1.187044 4.978880 -1.712530
-1.280446 5.402794 -1.698813
-1.392393 5.915911 -1.689066
-1.522638 6.507521 -1.672980
-1.675125 7.206643 -1.653566
-1.861658 8.061855 -1.631316
-2.132847 9.099370 -1.599242
-2.432904 10.437298 -1.561378
-2.828791 12.212861 -1.510230
0.001120 -0.347400 -0.012030
-3.253914 14.137526 -1.044273
-3.258653 14.183540 -0.700608
-3.334176 14.545720 -0.360337
-3.409477 14.895699 -0.005861
-3.406873 14.910254 0.357110
-3.411939 14.959359 0.725515
-3.383106 14.843760 1.082447
-3.373267 14.825831 1.444323
-3.379204 14.878870 1.818142
-6.461564 28.789494 4.194394
-7.321777 32.725246 5.566891
-7.330380 32.821766 6.402030
-0.123680 0.219265 -0.355591
-0.128530 0.242336 -0.350748
-0.138790 0.289555 -0.358230
-0.154038 0.360207 -0.375175
-0.200404 0.573187 -0.457447
-0.383687 1.413260 -0.813396
-0.446291 1.701517 -0.886877
-0.937951 3.960362 -1.731507
-1.002156 4.263022 -1.727116
-1.073068 4.593444 -1.718188
-1.156366 4.986018 -1.712541
-1.248348 5.420085 -1.701579
-1.355896 5.922335 -1.688575
-1.483164 6.522555 -1.674380
-1.629449 7.213032 -1.652758
-1.810893 8.069324 -1.630603
-2.079683 9.117682 -1.600242
-2.370132 10.457767 -1.562248
-2.756405 12.229356 -1.510274
0.001108 -0.347004 -0.012016
-2.996268 13.371467 -0.988419
-2.978921 13.304595 -0.658165
-2.931624 13.111581 -0.326435
-3.495400 15.727099 -0.005597
-3.456098 15.561125 0.372299
0.001108 -0.347004 -0.012016
-3.318657 14.982936 1.090945
-3.311797 14.978341 1.456950
-6.572290 30.089632 3.641659
-6.477193 29.702826 4.320429
-6.969316 32.043137 5.444543
-7.169809 33.006054 6.429348
-0.120312 0.220407 -0.355579
-0.123204 0.234978 -0.345841
-0.135739 0.294245 -0.360096
-0.150587 0.365016 -0.376958
-0.195101 0.574739 -0.457437
-0.374302 1.419427 -0.815015
-0.432215 1.695510 -0.883022
-0.912750 3.964269 -1.730787
-0.976369 4.272801 -1.728490
-1.044587 4.599959 -1.718197
-1.126026 4.994866 -1.713146
-1.214727 5.425695 -1.701042
-1.320162 5.932345 -1.689096
-1.443176 6.529487 -1.673938
-1.588416 7.228159 -1.654024
-1.763059 8.075865 -1.629888
-2.023888 9.132204 -1.600597
-2.309528 10.479385 -1.563394
-2.678827 12.232306 -1.508702
-2.930110 13.436476 -1.321162
-3.499805 16.130926 -1.183401
-3.453705 15.943284 -0.782118
-2.853233 13.124747 -0.326392
-3.459863 16.017424 -0.005551
-3.469855 16.094322 0.384601
-3.579268 16.628765 0.803743
-7.529585 35.423019 2.558227
-6.141091 28.855785 2.783640
-6.411159 30.195467 3.649688
-7.722511 36.508678 5.294945
-6.785478 32.068481 5.442136
-7.886161 37.394852 7.267799
-0.116091 0.216430 -0.352509
-0.120663 0.239486 -0.347788
-0.133479 0.302349 -0.363837
-0.146965 0.368018 -0.377843
-0.192720 0.590428 -0.464267
-0.365237 1.427331 -0.817448
-0.421192 1.701992 -0.884558
-0.889783 3.978990 -1.734426
-0.950514 4.282428 -1.729864
-1.015228 4.606467 -1.718206
-1.093167 4.996244 -1.711373
-1.181063 5.431134 -1.700504
-1.281719 5.934789 -1.687595
-1.401970 6.536421 -1.673496
-1.540936 7.232387 -1.652801
-1.713060 8.086576 -1.629914
-1.971739 9.147616 -1.601272
-2.246341 10.489034 -1.562876
-2.609349 12.251362 -1.509207
-2.849446 13.435498 -1.319545
-3.432692 16.286036 -1.193038
-2.811044 13.300171 -0.656418
-2.771572 13.121784 -0.325985
-3.496014 16.672209 -0.005366
-3.526963 16.854834 0.402374
0.001106 -0.346190 -0.011987
-7.450986 36.089733 2.602821
-6.017097 29.134066 2.806645
-6.256017 30.361841 3.664937
-7.515137 36.610565 5.302876
-6.629161 32.286541 5.471892
-6.901983 33.693275 6.545569
-0.112996 0.219225 -0.353517
-0.117439 0.242324 -0.348755
-0.127546 0.293144 -0.358197
-0.142247 0.367564 -0.376936
-0.182178 0.567149 -0.452288
-0.354711 1.429873 -0.817442
-0.414089 1.730215 -0.895335
-0.863749 3.982763 -1.733706
-0.921929 4.282865 -1.727822
-0.986695 4.612632 -1.718215
-1.062386 5.002854 -1.711384
-1.146407 5.436542 -1.699967
-1.244777 5.938672 -1.686598
-1.361186 6.539050 -1.672133
-1.499368 7.245100 -1.653652
-1.664856 8.098629 -1.630309
-1.914495 9.163757 -1.601952
-2.180045 10.492881 -1.561525
-2.535878 12.284998 -1.511336
-2.765611 13.455000 -1.319784
-3.131768 15.297057 -1.121503
-3.120852 15.272211 -0.748698
-2.692792 13.144279 -0.326172
-7.076043 35.161793 0.001654
-7.096168 35.331001 0.846256
0.001116 -0.345772 -0.011973
-6.736243 33.621017 2.422563
-5.841021 29.137407 2.803537
-6.067491 30.339346 3.657816
-7.168701 35.977543 5.205595
-6.789689 34.092304 5.768462
-6.662938 33.515022 6.503497
-0.109832 0.220267 -0.353505
-0.113823 0.241667 -0.347765
-0.125672 0.302925 -0.362877
-0.138948 0.372266 -0.378718
-0.177259 0.570374 -0.453132
-0.345494 1.435819 -0.819061
-0.402492 1.732902 -0.895330
-0.840567 3.997231 -1.737346
-0.895711 4.286501 -1.727145
-0.958487 4.620494 -1.718864
-1.031562 5.009293 -1.711394
-1.113003 5.437600 -1.698327
-1.207835 5.942341 -1.685602
-1.323447 6.550777 -1.673071
-1.456364 7.257859 -1.654503
-1.615461 8.104620 -1.629595
-1.860592 9.170842 -1.601334
-2.118742 10.501386 -1.561005
-2.466072 12.303262 -1.511842
-2.685836 13.456953 -1.318537
-3.701377 18.693098 -1.360937
-4.968887 25.260878 -1.218633
-2.613909 13.154096 -0.326084
-2.741195 13.825727 -0.006590
-12.777080 65.817245 1.577586
-3.256390 16.554546 0.797066
-6.556269 33.709457 2.426070
-5.944705 30.594589 2.939202
-6.819685 35.218109 4.236320
-7.173309 37.100842 5.360892
-7.544495 39.116600 6.604143
-6.314571 32.750206 6.349004
-0.106573 0.221302 -0.353493
-0.111727 0.249593 -0.351669
-0.120284 0.295382 -0.358174
-0.135818 0.378729 -0.381398
-0.171316 0.568234 -0.451412
-0.334571 1.436462 -0.818243
-0.392579 1.746466 -0.899947
-0.814182 3.995066 -1.734445
-0.867519 4.288446 -1.725787
-0.928814 4.620763 -1.716954
-1.000011 5.011793 -1.710215
-1.079010 5.446411 -1.698891
-1.171252 5.947695 -1.685111
-1.282139 6.557012 -1.672629
-1.410492 7.262944 -1.653695
-1.565993 8.118345 -1.630360
-1.805391 9.179866 -1.601040
-2.052874 10.506386 -1.559932
-2.394287 12.323523 -1.512580
-2.595238 13.413880 -1.313036
-3.582816 18.685713 -1.358933
-4.824677 25.307133 -1.219570
-2.690717 13.992725 -0.345275
-8.111884 42.955540 0.004233
-12.346177 65.624825 1.570926
-12.511349 66.643257 3.191067
-6.371991 33.844296 2.432793
-6.183467 32.900677 3.155423
-6.241341 33.247627 3.996382
-7.203414 38.504288 5.555797
-6.409894 34.296356 5.789287
-6.094205 32.626072 6.318069
-0.103532 0.224021 -0.354501
-0.106955 0.243778 -0.347742
-0.116807 0.298228 -0.359101
-0.129908 0.371147 -0.376903
-0.168669 0.583833 -0.458243
-0.323010 1.431563 -0.814986
-0.379158 1.743734 -0.897632
-0.788830 3.998269 -1.733724
-0.842173 4.301160 -1.728527
-0.900890 4.630154 -1.718242
-0.970170 5.023501 -1.712011
-1.045649 5.452926 -1.698904
-1.134307 5.950934 -1.684114
-1.241337 6.558939 -1.671265
-1.366616 7.263390 -1.652055
-1.518710 8.127361 -1.630384
-1.749917 9.196638 -1.602043
-1.989980 10.516498 -1.559691
-2.318013 12.332042 -1.511933
-2.553236 13.646915 -1.333629
0.001102 -0.344562 -0.011930
0.001102 -0.344562 -0.011930
0.001102 -0.344562 -0.011930
-7.862369 43.001965 0.004045
-11.933157 65.579292 1.567794
0.001102 -0.344562 -0.011930
-6.284822 34.489491 2.476120
-6.435747 35.365135 3.386552
-6.354417 34.988213 4.199432
-6.573337 36.282455 5.231639
-6.374457 35.213924 5.936673
-5.905254 32.666874 6.319043
-0.102469 0.236860 -0.361627
-0.103966 0.246504 -0.348709
-0.112298 0.294057 -0.356275
-0.124670 0.365223 -0.373305
-0.775329 4.044472 -2.119524
-0.311819 1.428410 -0.812541
-0.371347 1.768030 -0.906870
-0.766066 4.015992 -1.738817
-0.815077 4.304490 -1.727851
-0.871895 4.633802 -1.717611
-0.937592 5.020004 -1.709046
-1.010254 5.447900 -1.695613
-1.098040 5.957761 -1.684130
-1.200556 6.560630 -1.669902
-1.321781 7.273703 -1.652492
-1.468761 8.138556 -1.630780
-1.696961 9.208602 -1.602395
-1.926358 10.522337 -1.558894
-2.248910 12.354984 -1.513132
0.001112 -0.344144 -0.011916
0.001112 -0.344144 -0.011916
0.001112 -0.344144 -0.011916
0.001112 -0.344144 -0.011916
0.001112 -0.344144 -0.011916
0.001112 -0.344144 -0.011916
-7.236147 41.037403 1.962221
-6.075178 34.474442 2.472327
-6.237413 35.481594 3.393855
-6.633837 37.801643 4.529924
-6.470322 36.942593 5.320500
-5.739736 32.805393 5.527736
-5.701988 32.625244 6.304434
-0.097276 0.227689 -0.355498
-0.098984 0.238929 -0.343802
-0.109991 0.303840 -0.360955
-0.121367 0.371646 -0.375985
-0.751089 4.060106 -2.124660
-0.302519 1.435999 -0.814974
-0.358809 1.770606 -0.906865
-0.738329 4.009826 -1.734463
-0.787029 4.302107 -1.725125
-0.841716 4.635552 -1.716342
-0.906696 5.031532 -1.710843
-0.978169 5.461603 -1.697828
-1.059658 5.958854 -1.682628
-1.160125 6.563999 -1.668999
-1.277572 7.279658 -1.652099
-1.419241 8.143399 -1.630066
-1.639913 9.216968 -1.602103
-1.864093 10.535598 -1.559209
-2.173511 12.368522 -1.513178
-2.397948 13.711544 -1.337062
-2.381666 13.632326 -0.998260
-2.380418 13.655932 -0.669106
-2.358463 13.557740 -0.334281
-2.388149 13.749167 -0.006849
0.001100 -0.343748 -0.011901
-6.996130 41.113518 1.963632
0.001100 -0.343748 -0.011901
-5.563918 32.740688 3.130012
-5.592021 32.982487 3.951912
-6.187366 36.573425 5.262300
-5.574451 32.992096 5.553266
-5.760184 34.180660 6.595521
-0.095100 0.235454 -0.359564
-0.097626 0.251944 -0.350644
-0.107719 0.313572 -0.365635
-0.116067 0.365703 -0.372386
-0.725147 4.061174 -2.122957
-0.291669 1.434518 -0.813342
-0.347833 1.780324 -0.909942
-0.712627 4.010749 -1.733015
-0.762389 4.319951 -1.729916
-0.813013 4.640737 -1.716350
-0.874802 5.031419 -1.709068
-0.943491 5.459949 -1.695638
-1.023347 5.965255 -1.682643
-1.120963 6.574799 -1.669938
-1.234259 7.291172 -1.652950
-1.371275 8.157663 -1.631200
-1.584501 9.224714 -1.601810
-1.800426 10.540709 -1.558412
-2.099631 12.377300 -1.512761
-2.304670 13.650851 -1.330080
-2.309885 13.699376 -1.002058
-2.304918 13.701380 -0.670636
-2.293883 13.666213 -0.336526
-2.313097 13.800590 -0.006887
-10.876509 66.291924 1.579213
-6.701379 40.810448 1.947122
-5.641394 34.344059 2.457870
-5.377433 32.798172 3.132296
-5.404762 33.043983 3.955267
-5.455846 33.400650 4.804246
-5.338365 32.751339 5.507636
-5.419470 33.332798 6.426947
-0.090135 0.226207 -0.353435
-0.093914 0.251194 -0.349653
-0.102252 0.304140 -0.359994
-0.112832 0.372063 -0.375066
-0.699767 4.065686 -2.122963
-0.280866 1.432956 -0.811710
-0.336172 1.786350 -0.911478
-0.688138 4.018853 -1.734475
-0.734354 4.317239 -1.727190
-0.784900 4.649472 -1.717639
-0.843833 5.036776 -1.709079
-0.910048 5.465700 -1.695651
-0.986396 5.967632 -1.681646
-1.080199 6.575780 -1.668575
-1.190582 7.300484 -1.653386
-1.321388 8.160002 -1.630117
-1.529678 9.236043 -1.602163
-1.738961 10.559131 -1.559559
-2.026652 12.391548 -1.513037
-2.419938 14.897452 -1.446187
-3.019959 18.698292 -1.353336
0.001098 -0.342934 -0.011873
-2.229678 13.784294 -0.339000
0.001098 -0.342934 -0.011873
