# This PCD file was generated using the MATLAB® pcwrite function
# from Computer Vision Toolbox®.
# .PCD v.7 - Point Cloud Data file format
VERSION .7
FIELDS x y z
SIZE 4 4 4
TYPE F F F
COUNT 1 1 1
WIDTH 1631
HEIGHT 1
VIEWPOINT 0 0 0 1 0 0 0
POINTS 1631
DATA ascii
-13.670255 2.489837 -1.006994
-18.333967 3.490510 -0.908774
-18.326607 3.495151 -0.469640
-18.315750 3.495697 -0.034562
-18.284552 3.495237 0.399564
-18.272711 3.498883 0.836883
-18.039120 3.451563 1.255678
-17.998325 3.448895 1.682990
-17.992172 3.453660 2.117609
-17.971270 3.451963 2.548879
-17.955235 3.454584 2.982911
-17.970823 3.464054 3.428923
-0.442691 -0.327942 -0.283109
-0.458872 -0.324256 -0.278391
-3.331820 0.305101 -1.831935
-3.522236 0.347987 -1.829070
-3.736876 0.396313 -1.829838
-3.978429 0.449999 -1.832740
-4.212837 0.502953 -1.821218
-4.518137 0.571698 -1.826396
-4.851358 0.645918 -1.828333
-5.203357 0.725353 -1.821118
-5.622948 0.819988 -1.817996
-5.620805 0.820401 -1.671728
-5.930249 0.890939 -1.611445
-6.249774 0.962807 -1.538483
-6.805295 1.088434 -1.504019
-7.640370 1.276700 -1.497858
-8.596881 1.451729 -1.469800
-9.774502 1.710300 -1.431487
-11.239385 2.034061 -1.370336
-11.532755 2.102151 -1.128716
-0.002639 -0.424109 -0.015361
-13.413504 2.520914 -0.669680
-18.252968 3.589845 -0.468242
-18.060434 3.550340 -0.034182
-18.035177 3.550916 0.394553
-18.015688 3.552752 0.826085
-18.000917 3.552311 1.254714
-17.985432 3.555009 1.684045
-17.985046 3.561025 2.119588
-17.964102 3.559196 2.551226
-17.955696 3.563433 2.986914
-17.951956 3.568696 3.429795
-0.443812 -0.324631 -0.284114
-0.463395 -0.320082 -0.281318
-3.327562 0.324688 -1.831898
-3.519470 0.369064 -1.829931
-3.733848 0.418630 -1.830656
-3.969767 0.472498 -1.831067
-4.205649 0.527180 -1.820402
-4.503257 0.596041 -1.822704
-4.837802 0.672571 -1.825542
-5.187428 0.753599 -1.817857
-5.611969 0.851912 -1.816748
-5.626672 0.856133 -1.675548
-5.903722 0.921173 -1.606306
-6.235995 0.997881 -1.537037
-6.836525 1.137139 -1.512732
-7.615119 1.317577 -1.494813
-8.570545 1.498143 -1.467117
-9.688643 1.750460 -1.420753
-11.219233 2.097838 -1.369543
-11.506350 2.166312 -1.127496
-0.002648 -0.423715 -0.015347
-13.731524 2.674121 -0.685948
-16.525036 3.310100 -0.425763
-18.048935 3.657331 -0.034057
-18.023687 3.657742 0.394957
-18.008076 3.660347 0.826951
-18.001064 3.661581 1.256501
-17.981638 3.663303 1.686019
-17.985031 3.670198 2.122488
-17.964014 3.668244 2.554679
-17.949726 3.671103 2.989951
-17.957394 3.678946 3.435457
-0.441559 -0.322073 -0.283074
-0.457682 -0.318186 -0.278356
-3.328370 0.345426 -1.834683
-3.518336 0.390524 -1.831691
-3.728955 0.440507 -1.830616
-3.967946 0.497264 -1.832656
-4.196505 0.550962 -1.818813
-4.502760 0.623623 -1.824847
-4.825719 0.700389 -1.823436
-5.178712 0.783437 -1.817165
-5.604535 0.884612 -1.816695
-5.635846 0.893818 -1.680473
-5.909079 0.958624 -1.609810
-6.231258 1.036129 -1.537905
-6.863329 1.186563 -1.520607
-7.614225 1.365375 -1.496607
-8.538177 1.543005 -1.463455
-9.609964 1.793179 -1.411139
-11.202600 2.162351 -1.369219
-11.848216 2.315448 -1.161956
-0.002635 -0.423299 -0.015332
-13.674521 2.744533 -0.683936
-0.002635 -0.423299 -0.015332
-18.049732 3.770619 -0.033942
-18.019354 3.766389 0.395538
-18.003704 3.768905 0.828000
-17.993986 3.772778 1.257880
-17.968700 3.773014 1.687263
-17.980486 3.778601 2.124928
-17.956758 3.779199 2.557306
-17.938562 3.781039 2.992347
-17.948755 3.786257 3.438541
-0.435917 -0.320239 -0.279991
-0.450274 -0.316697 -0.274413
-3.316881 0.363939 -1.830882
-3.504768 0.409716 -1.827156
-3.720248 0.462189 -1.828860
-3.959038 0.519649 -1.830983
-4.185283 0.574953 -1.816451
-4.485615 0.648120 -1.820425
-4.822842 0.729423 -1.824760
-5.167789 0.813657 -1.815830
-5.598556 0.918672 -1.817238
-5.637511 0.928901 -1.683186
-5.895130 0.992714 -1.608229
-6.220860 1.071940 -1.537384
-6.853943 1.226467 -1.520546
-7.615272 1.412351 -1.498774
-8.543665 1.598102 -1.466317
-9.718445 1.877630 -1.428720
-11.181273 2.227796 -1.368424
-11.612835 2.334124 -1.140640
-0.002644 -0.422905 -0.015318
-16.135349 3.416130 -0.805251
-16.215748 3.440794 -0.418921
-16.247135 3.450862 -0.031980
-18.013611 3.878274 0.396124
-18.003765 3.882084 0.829327
-17.986967 3.880905 1.259256
-17.969391 3.882847 1.689790
-17.962938 3.887455 2.125992
-17.951508 3.887538 2.560208
-17.935131 3.889742 2.996031
-17.944473 3.898098 3.442734
-0.425295 -0.319775 -0.273842
-0.458118 -0.311652 -0.279302
-3.315749 0.384247 -1.832726
-3.505130 0.431555 -1.829814
-3.711749 0.482490 -1.827106
-3.953555 0.542830 -1.830942
-4.179474 0.599441 -1.816408
-4.477764 0.673109 -1.819651
-4.810657 0.756240 -1.822655
-5.160806 0.842902 -1.815781
-5.585411 0.948963 -1.815393
-5.640850 0.964487 -1.686452
-5.887134 1.026017 -1.608174
-6.221597 1.110470 -1.539642
-6.823751 1.259955 -1.515890
-7.622073 1.459494 -1.502058
-8.518472 1.644406 -1.463960
-9.697356 1.932075 -1.427517
-11.158089 2.290680 -1.367396
-11.531000 2.385322 -1.134162
-12.651694 2.660281 -0.938679
-13.747179 2.931982 -0.689140
-0.002631 -0.422489 -0.015303
-16.100235 3.514327 -0.031727
-0.002631 -0.422489 -0.015303
-17.998838 3.987695 0.830374
-17.983187 3.990033 1.260907
-17.964403 3.988249 1.691763
-17.963669 3.994230 2.129120
-17.934069 3.993110 2.561452
-17.931849 3.995379 2.999710
-17.956308 4.007553 3.449867
-0.426398 -0.316611 -0.274847
-0.464258 -0.307021 -0.283210
-3.306049 0.401884 -1.829867
-3.502055 0.451941 -1.830676
-3.704717 0.503827 -1.826208
-3.942619 0.564657 -1.828454
-4.180866 0.624960 -1.819456
-4.474993 0.700191 -1.821064
-4.798325 0.782957 -1.820549
-5.146091 0.871157 -1.813162
-5.573725 0.980576 -1.814145
-5.647668 1.001125 -1.690823
-5.880587 1.060758 -1.608628
-6.223993 1.149530 -1.542362
-6.807954 1.299385 -1.514573
-7.637455 1.511833 -1.507201
-8.518279 1.695212 -1.465846
-9.670192 1.984928 -1.425474
-11.136994 2.351899 -1.366605
-11.565378 2.462596 -1.138951
-0.002640 -0.422095 -0.015289
-13.563501 2.967904 -0.680947
-0.002640 -0.422095 -0.015289
-16.011339 3.590834 -0.031534
-16.237562 3.650144 0.356834
-17.988653 4.095540 0.831243
-17.982626 4.100231 1.262834
-17.963007 4.101467 1.694295
-17.962961 4.104300 2.132254
-17.942888 4.105420 2.566566
-17.922520 4.106423 3.002753
-17.947611 4.115613 3.453322
-0.440754 -0.309862 -0.284026
-0.458500 -0.305171 -0.280248
-3.306253 0.423184 -1.832651
-3.486424 0.470453 -1.825241
-3.702671 0.527086 -1.827882
-3.935116 0.587286 -1.827597
-4.174591 0.650145 -1.819412
-4.466465 0.726655 -1.820288
-4.789498 0.810498 -1.819815
-5.134679 0.901110 -1.811827
-5.565311 1.014024 -1.814090
-5.646847 1.035930 -1.692982
-5.884809 1.099405 -1.612130
-6.250638 1.195001 -1.551102
-6.824435 1.345834 -1.520360
-7.641424 1.560119 -1.510111
-8.465418 1.735878 -1.458921
-9.623547 2.032663 -1.420627
-11.114565 2.416859 -1.365809
-11.513331 2.522690 -1.135475
-13.030881 2.912940 -0.968890
-13.336088 2.995642 -0.670657
-18.044500 4.208618 -0.465950
-18.023893 4.206204 -0.033463
-0.002649 -0.421701 -0.015274
-17.982794 4.208071 0.832389
-17.975595 4.209072 1.264349
-17.957857 4.210693 1.696457
-17.947311 4.214159 2.133779
-17.933767 4.213507 2.569193
-17.915228 4.214885 3.006115
-17.927963 4.224358 3.454938
-0.438437 -0.307366 -0.282986
-0.451080 -0.303907 -0.276305
-3.311577 0.445302 -1.838258
-3.489874 0.493186 -1.829698
-3.693663 0.547871 -1.826127
-3.929065 0.611021 -1.827554
-4.168342 0.674584 -1.819368
-4.450786 0.750382 -1.816596
-4.783926 0.839776 -1.820452
-5.141627 0.934934 -1.816913
-5.555115 1.045961 -1.813439
-5.665969 1.077190 -1.701224
-5.860992 1.129716 -1.608007
-6.240944 1.232458 -1.551043
-6.832751 1.391700 -1.524473
-7.593440 1.596246 -1.502969
-8.458599 1.786475 -1.459826
-9.536015 2.071088 -1.409893
-11.096126 2.480705 -1.365484
-11.555905 2.604976 -1.141199
-13.335062 3.075625 -0.992546
-0.002637 -0.421285 -0.015259
-18.034931 4.317435 -0.466245
-18.015463 4.318537 -0.033339
-0.002637 -0.421285 -0.015259
-17.977085 4.317537 0.833533
-17.965164 4.320607 1.265731
-17.949308 4.322616 1.698438
-17.947189 4.324931 2.137144
-17.909779 4.321203 2.569889
-17.902647 4.325516 3.008837
-14.629060 3.459717 2.820691
-0.436088 -0.304817 -0.281947
-0.458802 -0.298597 -0.281194
-3.299562 0.463511 -1.834457
-3.479220 0.512886 -1.826961
-3.684541 0.568587 -1.824372
-3.923063 0.634032 -1.827512
-4.156441 0.698248 -1.817005
-4.438575 0.774944 -1.814362
-4.767512 0.865269 -1.816975
-5.126436 0.962935 -1.814294
-5.542910 1.077319 -1.812191
-5.660967 1.111195 -1.702276
-5.868781 1.168386 -1.612527
-6.203144 1.261141 -1.544039
-6.822529 1.430224 -1.524412
-7.589639 1.641086 -1.504392
-8.428200 1.832434 -1.456815
-9.496636 2.119710 -1.406169
-11.074885 2.545857 -1.364922
-11.555058 2.678531 -1.142791
-12.100838 2.826896 -0.903332
-18.050842 4.430418 -0.904845
-18.024729 4.426273 -0.466539
-18.014898 4.429880 -0.033225
-17.999231 4.431902 0.399538
-17.974567 4.428132 0.834859
-17.956818 4.429565 1.267247
-17.945595 4.429395 1.700782
-17.940653 4.434280 2.139819
-17.905090 4.430859 2.573346
-0.002645 -0.420891 -0.015245
-14.350330 3.474746 2.771073
-0.435432 -0.301992 -0.281929
-0.453067 -0.297024 -0.278232
-3.291175 0.481391 -1.832538
-3.467077 0.530801 -1.823326
-3.675304 0.589233 -1.822616
-3.917116 0.656326 -1.827471
-4.146583 0.720857 -1.815417
-4.438802 0.802868 -1.817234
-4.758456 0.891769 -1.816242
-5.114734 0.991830 -1.812959
-5.536021 1.110140 -1.812735
-5.667146 1.147289 -1.706648
-5.866988 1.204630 -1.614504
-6.193663 1.296152 -1.543982
-6.807986 1.468841 -1.523514
-7.556822 1.679366 -1.500230
-8.440229 1.886634 -1.460983
-9.514790 2.181972 -1.410854
-11.061968 2.609117 -1.365299
-11.560623 2.749720 -1.144950
-0.002633 -0.420475 -0.015230
-18.046589 4.537890 -0.905848
-18.062054 4.548429 -0.468041
-18.072365 4.554162 -0.033171
-18.052803 4.555047 0.401545
-18.036867 4.556920 0.839289
-0.002633 -0.420475 -0.015230
-17.997980 4.555326 1.708646
-17.927687 4.542147 2.141803
-0.002633 -0.420475 -0.015230
-14.418231 3.577847 2.427907
-13.973458 3.459321 2.702292
-0.431431 -0.300021 -0.279868
-0.450661 -0.294487 -0.277233
-3.291045 0.502148 -1.835323
-3.463254 0.551650 -1.824186
-3.665954 0.609809 -1.820861
-3.905585 0.677782 -1.824983
-4.138178 0.744613 -1.814601
-4.428094 0.827812 -1.815729
-4.750822 0.919558 -1.816193
-5.101046 1.020127 -1.810982
-5.530807 1.143423 -1.813876
-5.669115 1.183452 -1.709911
-5.859392 1.239323 -1.614956
-6.209889 1.339620 -1.550405
-6.787595 1.505741 -1.521363
-7.552178 1.725389 -1.501650
-8.339386 1.911164 -1.445907
-9.413827 2.213118 -1.398161
-11.040522 2.672094 -1.364739
-11.549851 2.818787 -1.145604
-11.967185 2.937783 -0.896065
-18.086969 4.661593 -0.909128
-18.079342 4.665738 -0.469059
-18.076157 4.667743 -0.033061
-18.039248 4.663648 0.402044
-18.029032 4.667076 0.840436
-18.015827 4.666245 1.275783
-17.999676 4.667940 1.711730
-17.927490 4.653782 2.145401
-14.525089 3.693032 2.091466
-14.138600 3.588478 2.384503
-13.763647 3.486955 2.665931
-0.427415 -0.298021 -0.277806
-0.443209 -0.293340 -0.273289
-3.275333 0.519159 -1.829640
-3.464322 0.574545 -1.827743
-3.659798 0.631940 -1.820819
-3.900768 0.701848 -1.825755
-4.125866 0.768043 -1.812238
-4.415261 0.852916 -1.813494
-4.735579 0.946047 -1.813401
-5.094254 1.051287 -1.811572
-5.519611 1.176088 -1.813223
-5.661364 1.217994 -1.710408
-5.855034 1.276072 -1.616424
-6.247943 1.390917 -1.562382
-6.785436 1.549125 -1.523386
-7.533667 1.768917 -1.500464
-8.382341 1.977277 -1.455615
-9.476105 2.291670 -1.409567
-11.021988 2.737952 -1.364643
-11.589756 2.904699 -1.151323
-0.002633 -0.419661 -0.015201
-13.331357 3.411160 -0.675057
-18.068052 4.778862 -0.469395
-18.066772 4.781406 -0.032935
-18.045267 4.781509 0.403037
-18.021574 4.780987 0.841678
-18.014080 4.781738 1.277995
-17.995935 4.782786 1.714452
-0.002633 -0.419661 -0.015201
-14.199818 3.692444 2.047903
-13.826389 3.589128 2.335619
-0.002633 -0.419661 -0.015201
-0.436604 -0.292269 -0.283920
-0.444148 -0.289910 -0.274253
-3.263101 0.536425 -1.825840
-3.451685 0.592873 -1.824107
-3.651947 0.652898 -1.819921
-3.892492 0.724187 -1.824897
-4.113673 0.790605 -1.809876
-4.406089 0.878188 -1.812719
-4.727658 0.973682 -1.813352
-5.076620 1.078323 -1.808311
-5.503011 1.206090 -1.810779
-5.664744 1.254789 -1.714225
-5.845181 1.310158 -1.616367
-6.246748 1.430028 -1.564637
-6.809639 1.599114 -1.531259
-7.536010 1.817144 -1.503372
-8.366513 2.025352 -1.455214
-9.386226 2.324904 -1.398557
-10.999821 2.800646 -1.364083
-11.545597 2.964488 -1.148786
-12.488020 3.242787 -0.937288
-0.002620 -0.419245 -0.015186
-18.058908 4.889429 -0.469782
-18.057627 4.891962 -0.032812
-18.026503 4.889134 0.403448
-18.020058 4.893551 0.843191
-18.006786 4.892543 1.279789
-14.739759 3.933849 1.403952
-14.367216 3.828822 1.722363
-13.864371 3.682372 2.002674
-0.002620 -0.419245 -0.015186
-13.688733 3.639971 2.660632
-0.427631 -0.291830 -0.278793
-0.446727 -0.285957 -0.276198
-3.255874 0.555082 -1.824861
-3.447522 0.613643 -1.824967
-3.649176 0.675356 -1.821595
-3.885866 0.746970 -1.824855
-4.115463 0.817346 -1.813695
-4.394984 0.902868 -1.811214
-4.717752 1.000759 -1.812618
-5.075174 1.110120 -1.810828
-5.484424 1.235405 -1.807738
-5.658705 1.288886 -1.715276
-5.831425 1.343076 -1.615294
-6.265791 1.475391 -1.571985
-6.809124 1.642113 -1.533701
-7.507970 1.856341 -1.500327
-8.350410 2.073328 -1.454814
-9.360768 2.376493 -1.397074
-10.971581 2.861498 -1.362820
-11.674711 3.075864 -1.163325
-12.562288 3.343657 -0.944253
-18.062519 4.997727 -0.912020
-18.051018 5.000632 -0.470218
-18.051657 5.003719 -0.032692
-18.024364 5.001870 0.404260
-18.014034 5.005104 0.844521
-14.871462 4.061152 1.056235
-0.002629 -0.418851 -0.015172
-14.026793 3.816531 1.684225
-0.002629 -0.418851 -0.015172
-0.002629 -0.418851 -0.015172
-13.689557 3.726530 2.665535
-0.418660 -0.291477 -0.273666
-0.445952 -0.282993 -0.276180
-3.262034 0.577828 -1.831407
-3.426147 0.629181 -1.816836
-3.642831 0.696744 -1.821555
-3.882581 0.770807 -1.826443
-4.099477 0.838709 -1.809788
-4.389076 0.929116 -1.811897
-4.707714 1.027749 -1.811884
-5.064481 1.139166 -1.810135
-5.476651 1.267912 -1.808281
-5.665306 1.326949 -1.720198
-5.808246 1.373040 -1.611680
-6.245503 1.508959 -1.569611
-6.761649 1.670710 -1.525703
-7.485350 1.897048 -1.498397
-8.328358 2.119491 -1.453435
-9.346427 2.431318 -1.397272
-10.948723 2.923854 -1.362259
-11.677231 3.150436 -1.165477
-12.553761 3.420427 -0.945137
-18.067326 5.113159 -0.913681
-18.063477 5.118366 -0.471184
-18.048796 5.116786 -0.032575
-18.023426 5.115359 0.405117
-18.028315 5.123237 0.846857
-14.530740 4.050313 1.033641
-14.066257 3.912410 1.344041
-13.789528 3.832060 1.658527
-0.002617 -0.418435 -0.015157
-13.692801 3.809288 2.325320
-13.687990 3.812625 2.670070
-0.427781 -0.285620 -0.279780
-0.438523 -0.282124 -0.272237
-3.256236 0.597013 -1.831369
-3.430295 0.652492 -1.822191
-3.634629 0.717569 -1.820656
-3.875685 0.793537 -1.826400
-4.090409 0.862154 -1.808971
-4.372380 0.951969 -1.808205
-4.697522 1.054674 -1.811149
-5.037355 1.163039 -1.803664
-5.474133 1.302120 -1.810617
-5.680847 1.368009 -1.727885
-5.832899 1.417893 -1.621280
-6.239864 1.547056 -1.570939
-6.740189 1.707069 -1.523551
-7.453166 1.934589 -1.494608
-8.292897 2.161347 -1.449774
-9.303384 2.477264 -1.393268
-10.925504 2.986068 -1.361698
-11.770554 3.253588 -1.176635
-12.116315 3.363440 -0.914219
-13.415009 3.773614 -0.683356
-0.002625 -0.418041 -0.015143
-18.033789 5.226407 -0.032447
-18.008417 5.224839 0.405664
-14.606719 4.163938 0.684602
-14.217291 4.044081 1.012970
-13.811174 3.921489 1.321898
-0.002625 -0.418041 -0.015143
-13.689397 3.890276 1.988084
-13.685152 3.893789 2.328336
-13.680255 3.897076 2.673501
-0.430272 -0.281709 -0.281805
-0.436061 -0.279727 -0.271238
-3.243629 0.613995 -1.827569
-3.422373 0.672093 -1.821252
-3.629753 0.739437 -1.821473
-3.865158 0.815140 -1.824727
-4.084729 0.886656 -1.809700
-4.364411 0.977542 -1.808159
-4.685390 1.080958 -1.809729
-5.015546 1.188379 -1.799119
-5.458702 1.332257 -1.808770
-5.675957 1.402864 -1.729488
-5.825921 1.453034 -1.622240
-6.221048 1.580969 -1.569028
-6.729709 1.746846 -1.523905
-7.450732 1.981476 -1.496771
-8.264740 2.205286 -1.447417
-9.284670 2.530596 -1.392906
-10.903824 3.048734 -1.361370
-11.696074 3.304816 -1.171282
-12.470715 3.553430 -0.942100
-13.525792 3.894276 -0.689988
-0.002613 -0.417625 -0.015128
-18.035288 5.341498 -0.032334
-14.732220 4.291824 0.329847
-14.290857 4.155788 0.670837
-13.898722 4.032551 0.991882
-0.002613 -0.417625 -0.015128
-0.002613 -0.417625 -0.015128
-13.683198 3.975481 1.990963
-13.688268 3.981964 2.333287
-13.671984 3.981599 2.676931
-0.429484 -0.278844 -0.281788
-0.431948 -0.277907 -0.269258
-3.237632 0.633068 -1.827530
-3.412662 0.691069 -1.819415
-3.616178 0.758471 -1.818003
-3.852573 0.836757 -1.822238
-4.077177 0.910539 -1.809656
-4.356325 1.003041 -1.808113
-4.669299 1.106782 -1.806937
-4.997222 1.214693 -1.795859
-5.446728 1.363470 -1.808118
-5.683324 1.442895 -1.734961
-5.822399 1.489374 -1.624215
-6.209085 1.618246 -1.568967
-6.700038 1.781636 -1.520082
-7.438226 2.026669 -1.497073
-8.245763 2.252007 -1.446690
-6.087211 1.555224 -0.919952
-10.878021 3.110026 -1.360575
-11.672558 3.371886 -1.170995
-12.484876 3.640089 -0.944818
-0.002622 -0.417231 -0.015114
-0.002622 -0.417231 -0.015114
-14.849934 4.421848 -0.029196
-14.412095 4.281518 0.323097
-13.964194 4.140431 0.656520
-0.002622 -0.417231 -0.015114
-0.002622 -0.417231 -0.015114
-13.704567 4.067697 1.657719
-13.700170 4.071157 1.997442
-13.688152 4.072103 2.337919
-13.668834 4.067976 2.681468
-0.428668 -0.275920 -0.281770
-0.429455 -0.275499 -0.268259
-3.236389 0.654314 -1.830313
-3.400941 0.710017 -1.816678
-3.607427 0.779742 -1.817103
-3.843557 0.858752 -1.821380
-4.067484 0.934525 -1.808838
-4.344291 1.028091 -1.806607
-4.656879 1.132868 -1.805516
-4.978482 1.241711 -1.792597
-5.441491 1.397985 -1.809855
-5.683481 1.479629 -1.738223
-5.798148 1.519996 -1.620599
-6.173281 1.646344 -1.562890
-6.692821 1.822459 -1.521271
-7.392363 2.059244 -1.490679
-8.190423 2.288301 -1.439767
-6.087049 1.594355 -0.921574
-10.868220 3.178649 -1.361881
-11.587500 3.420811 -1.164703
-12.073108 3.583639 -0.915746
-13.762672 4.148528 -0.704192
-14.928288 4.540621 -0.394327
-14.472589 4.391633 -0.028743
-14.091784 4.270128 0.316347
-13.787148 4.173724 0.649421
-0.002609 -0.416815 -0.015099
-13.706870 4.154157 1.319670
-13.717267 4.162535 1.662678
-13.692883 4.156618 2.000322
-13.677037 4.156237 2.340614
-13.658740 4.154988 2.684903
-0.424586 -0.274157 -0.279709
-0.430290 -0.272085 -0.269223
-3.236861 0.675596 -1.834037
-3.397794 0.731122 -1.818436
-3.595352 0.799157 -1.814491
-3.834428 0.880678 -1.820522
-4.056132 0.957160 -1.807248
-4.332386 1.052282 -1.805102
-4.647893 1.160053 -1.805468
-4.970645 1.271369 -1.793187
-5.425550 1.427834 -1.808008
-5.696124 1.520779 -1.745355
-5.807056 1.560603 -1.626133
-6.141041 1.675360 -1.557738
-6.694640 1.866405 -1.524548
-7.398442 2.109161 -1.494702
-8.161634 2.331403 -1.437410
-6.086625 1.633570 -0.923196
-10.830399 3.235865 -1.359683
-11.659551 3.519712 -1.173981
-12.771873 3.897415 -0.969614
-18.033916 5.681557 -0.919689
-0.002617 -0.416421 -0.015085
-14.187022 4.388039 -0.028380
-13.824059 4.270056 0.310795
-0.002617 -0.416421 -0.015085
-13.715016 4.240273 0.984658
-13.704815 4.241740 1.322178
-13.696294 4.243759 1.663485
-13.670037 4.237070 2.000991
-13.671023 4.242294 2.344276
-13.656354 4.242197 2.689810
-0.430259 -0.269083 -0.283778
-0.444282 -0.264116 -0.278036
-3.210493 0.687734 -1.822712
-3.397890 0.753402 -1.821992
-3.588283 0.820260 -1.814449
-3.826907 0.903135 -1.820479
-4.044675 0.979691 -1.805658
-4.323863 1.077609 -1.805055
-4.638740 1.187200 -1.805419
-4.969797 1.303468 -1.796345
-5.414845 1.459452 -1.807953
-5.684873 1.553959 -1.745298
-5.793760 1.593771 -1.625567
-6.163812 1.723226 -1.566472
-6.681385 1.905323 -1.524484
-7.378215 2.150185 -1.493517
-8.123274 2.371080 -1.433424
-6.087825 1.673492 -0.925097
-10.818578 3.301806 -1.360757
-11.612214 3.578770 -1.171442
-12.946769 4.040131 -0.984479
-0.002605 -0.416005 -0.015070
-0.002605 -0.416005 -0.015070
-13.879323 4.373468 -0.028000
-0.002605 -0.416005 -0.015070
-13.720125 4.328422 0.649014
-13.716249 4.329346 0.986840
-13.698459 4.328133 1.324318
-13.706772 4.335939 1.668212
-13.669199 4.325181 2.004980
-13.668181 4.329751 2.348585
-13.655276 4.330174 2.695085
-0.427784 -0.266786 -0.282739
-0.464784 -0.253679 -0.290774
-3.195768 0.703680 -1.817972
-3.380990 0.769805 -1.816559
-3.582824 0.841895 -1.815266
-3.812376 0.923116 -1.817176
-4.036590 1.003349 -1.805614
-4.315178 1.102904 -1.805008
-4.622351 1.211789 -1.802627
-4.947312 1.328055 -1.791801
-5.394959 1.487831 -1.804911
-0.002614 -0.415611 -0.015055
-5.758372 1.619138 -1.618903
-6.138561 1.754540 -1.563172
-6.647636 1.936975 -1.519827
-7.350368 2.188422 -1.490843
-8.131320 2.426668 -1.437587
-6.086915 1.712829 -0.926718
-10.793242 3.363134 -1.360195
-11.671704 3.674953 -1.179593
-12.849358 4.089922 -0.979001
-13.072900 4.173051 -0.673187
-13.540757 4.342185 -0.360765
-0.002614 -0.415611 -0.015055
-13.725778 4.414473 0.310002
-13.726489 4.419691 0.650776
-13.713161 4.417252 0.988747
-13.691570 4.414602 1.326459
-13.699770 4.422458 1.670865
-13.667809 4.413433 2.008968
-13.662945 4.416655 2.352571
-13.651795 4.417633 2.699993
-0.428543 -0.263360 -0.283743
-0.002601 -0.415196 -0.015041
-3.184293 0.720683 -1.815112
-3.370761 0.788443 -1.814721
-3.584046 0.865942 -1.819510
-3.814913 0.949158 -1.822023
-4.014462 1.021997 -1.799390
-4.302868 1.126868 -1.803504
-4.605832 1.236249 -1.799835
-4.940771 1.358189 -1.793033
-5.387497 1.520571 -1.806051
-5.696178 1.632470 -1.755690
-5.730190 1.646764 -1.614272
-6.169913 1.806068 -1.574219
-6.646851 1.980273 -1.522685
-7.301981 2.219103 -1.484078
-8.109240 2.471867 -1.436534
-6.087614 1.752899 -0.928618
-10.769443 3.424953 -1.359866
-0.002601 -0.415196 -0.015041
-12.832608 4.167581 -0.979597
-12.694488 4.122879 -0.655329
-13.797370 4.522233 -0.367921
-0.002601 -0.415196 -0.015041
-13.724087 4.503265 0.310744
-13.711578 4.503764 0.651533
-13.701990 4.502600 0.990104
-13.689751 4.503184 1.329153
-13.688504 4.507695 1.673057
-13.664000 4.501149 2.012681
-13.660875 4.504996 2.357203
-13.642212 4.503211 2.703796
-0.438943 -0.256308 -0.290876
-3.039262 0.689217 -1.834132
-3.180824 0.741172 -1.816954
-3.365234 0.809455 -1.815579
-3.571515 0.885123 -1.816897
-3.794758 0.967788 -1.816274
-4.016261 1.050006 -1.803979
-4.292187 1.151380 -1.802728
-4.595952 1.263966 -1.799785
-4.939383 1.390270 -1.796191
-5.372693 1.550652 -1.804801
-5.700196 1.672573 -1.760608
-5.734584 1.686116 -1.618787
-6.160265 1.844404 -1.575081
-6.653165 2.026318 -1.527213
-7.262707 2.252717 -1.479172
-8.064147 2.510244 -1.431567
-6.100708 1.798843 -0.932477
-10.748341 3.489869 -1.360002
-11.748462 3.857543 -1.191949
-12.874554 4.269293 -0.984709
-13.055900 4.340058 -0.674857
-0.002614 -0.414797 -0.015026
-13.735382 4.594866 -0.027590
-13.720945 4.594613 0.311491
-13.711163 4.593327 0.653022
-13.700676 4.594478 0.992292
-13.679893 4.589172 1.331111
-13.682297 4.595035 1.675942
-13.651310 4.588660 2.015291
-13.656390 4.592804 2.361514
-13.639473 4.591565 2.709074
-0.431610 -0.255862 -0.286772
-3.015080 0.699919 -1.823303
-3.177624 0.760555 -1.818797
-3.349978 0.825524 -1.811046
-3.558901 0.904179 -1.814284
-3.793820 0.991914 -1.819492
-4.014942 1.075381 -1.807024
-4.277856 1.174537 -1.800493
-4.588277 1.290656 -1.800422
-4.932458 1.420412 -1.797423
-5.345188 1.575972 -1.799370
-5.704649 1.710833 -1.765527
-5.727834 1.721534 -1.620254
-6.151225 1.880510 -1.575948
-6.637160 2.064317 -1.526730
-7.261968 2.300390 -1.482079
-8.088422 2.570660 -1.438664
-6.095694 1.836007 -0.933538
-10.722657 3.548840 -1.359442
-11.651579 3.896545 -1.184537
-13.454374 4.565934 -1.030354
-12.838083 4.342465 -0.665070
-13.490284 4.589101 -0.361284
-13.733440 4.681623 -0.027499
-13.717134 4.680585 0.312187
-13.710189 4.683024 0.654512
-13.693052 4.678946 0.993923
-13.682564 4.680071 1.334358
-13.677403 4.683151 1.679058
-13.656555 4.677646 2.020385
-13.653196 4.681408 2.366148
-13.638028 4.680716 2.714721
-0.433898 -0.251766 -0.288797
-3.003719 0.715832 -1.820322
-3.160904 0.775501 -1.813115
-3.352828 0.848970 -1.816399
-3.549551 0.924430 -1.813385
-3.775167 1.010928 -1.814558
-3.995950 1.094965 -1.802345
-4.265171 1.198217 -1.798989
-4.569310 1.314917 -1.796944
-4.921822 1.449184 -1.797371
-5.314019 1.599671 -1.792744
-5.709930 1.751850 -1.770998
-5.724467 1.758337 -1.622736
-6.128395 1.913929 -1.573571
-6.627826 2.106140 -1.527916
-7.289803 2.360623 -1.490934
-8.054487 2.611334 -1.435656
-6.100767 1.879507 -0.936277
-10.699652 3.610932 -1.359346
-11.730925 4.003261 -1.194933
-12.855215 4.431438 -0.987168
-12.752526 4.394863 -0.662018
-13.732475 4.769498 -0.368144
-13.723551 4.771174 -0.027397
-13.713735 4.769794 0.312931
-13.704897 4.771469 0.655819
-13.690571 4.771087 0.996111
-13.676307 4.770712 1.336872
-13.670107 4.770660 1.681943
-13.648299 4.767412 2.023827
-13.646695 4.771816 2.370461
-13.632320 4.768636 2.719631
-0.440959 -0.245732 -0.293887
-3.003493 0.736516 -1.824208
-3.163693 0.798421 -1.818719
-3.343602 0.868614 -1.815459
-3.543483 0.945894 -1.814201
-3.773744 1.035647 -1.817775
-3.983498 1.117717 -1.800754
-4.252332 1.221831 -1.797483
-4.566292 1.344311 -1.799637
-4.903943 1.475178 -1.794752
-5.286318 1.624455 -1.787313
-5.700956 1.786481 -1.772046
-5.701051 1.787477 -1.619630
-6.133054 1.956586 -1.578138
-6.615486 2.144211 -1.528271
-7.270548 2.400255 -1.490122
-8.043769 2.662293 -1.436882
-6.104102 1.921373 -0.938736
-10.684873 3.678285 -1.360417
-11.711955 4.076032 -1.195576
-12.940741 4.549352 -0.995669
-12.766662 4.487311 -0.664085
-13.573609 4.799418 -0.364706
-13.727059 4.863433 -0.027308
-13.708870 4.861500 0.313679
-13.695306 4.858594 0.656944
-13.688394 4.860998 0.998297
-13.667568 4.855272 1.339013
-13.669660 4.861130 1.685752
-13.644101 4.856282 2.027818
-13.643286 4.858279 2.375093
-13.627906 4.857352 2.724910
-0.457633 -0.236013 -0.305107
-2.990538 0.751137 -1.820247
-3.158517 0.817122 -1.819621
-3.326424 0.883757 -1.810027
-3.527190 0.963389 -1.809874
-3.756818 1.054451 -1.813656
-3.978337 1.141674 -1.802256
-4.241129 1.246001 -1.796708
-4.554357 1.370288 -1.798902
-4.882409 1.499643 -1.790849
-5.283392 1.658744 -1.790245
-5.720395 1.832329 -1.781939
-5.702690 1.826331 -1.623637
-6.108449 1.987988 -1.575300
-6.618385 2.190995 -1.532378
-7.273841 2.451668 -1.494142
-8.013589 2.702567 -1.434527
-6.120084 1.968375 -0.943155
-10.663701 3.739018 -1.360557
-11.657015 4.130196 -1.192476
-13.092219 4.694542 -1.009250
-12.729801 4.555279 -0.663502
-13.712826 4.944119 -0.368963
-13.722518 4.952986 -0.027212
-13.708989 4.950016 0.314511
-13.694477 4.949419 0.658528
-13.683789 4.950321 1.000346
-13.663865 4.947566 1.341897
-13.661235 4.948855 1.688638
-13.643005 4.946742 2.032364
-13.635622 4.948911 2.379409
-13.615592 4.943325 2.728716
-0.458179 -0.232283 -0.306111
-2.981956 0.768629 -1.819228
-3.146250 0.834287 -1.816761
-3.326967 0.907182 -1.814481
-3.520643 0.985365 -1.810688
-3.755113 1.079149 -1.816873
-3.955339 1.160192 -1.796031
-4.222569 1.268088 -1.793015
-4.535283 1.393417 -1.795425
-4.874512 1.530370 -1.792079
-5.267463 1.689046 -1.788994
-5.728806 1.874181 -1.788515
-5.712666 1.869854 -1.630183
-6.108983 2.029302 -1.578940
-6.594206 2.225831 -1.530226
-7.198840 2.470536 -1.482170
-7.991311 2.748991 -1.433797
-8.914142 3.115754 -1.370066
-10.640736 3.803340 -1.360692
-11.718711 4.234911 -1.201366
-13.311060 4.868871 -1.028050
-12.805923 4.673158 -0.668792
-13.184720 4.828544 -0.356006
-13.717404 5.042658 -0.027116
-13.702931 5.042003 0.315261
-13.688393 5.041324 0.659931
-13.674920 5.038273 1.002120
-13.662344 5.038364 1.344963
-13.658696 5.041979 1.692451
-13.633974 5.034415 2.035804
-13.633832 5.039443 2.384690
-13.614590 5.036798 2.735106
-0.501787 -0.211266 -0.334697
-2.973505 0.785520 -1.818210
-3.135755 0.851460 -1.814841
-3.320973 0.927391 -1.815339
-3.509202 1.004652 -1.808933
-3.739687 1.098419 -1.813569
-3.953058 1.186119 -1.799075
-4.216274 1.294182 -1.794425
-4.524812 1.419908 -1.795375
-4.868504 1.560956 -1.793952
-5.260584 1.721900 -1.790731
-5.690618 1.897409 -1.780717
-5.717350 1.910401 -1.635205
-6.093011 2.064119 -1.578416
-6.584348 2.266367 -1.531413
-7.149371 2.498991 -1.475406
-7.963822 2.791674 -1.432092
-8.917555 3.177048 -1.373622
-10.616282 3.864948 -1.360596
-11.889334 4.382430 -1.221315
-0.002602 -0.412367 -0.014939
-13.426601 5.009829 -0.701954
-12.968965 4.829823 -0.351085
-13.648682 5.106952 -0.026963
-13.697227 5.131725 0.316008
-13.686386 5.132445 0.661516
-13.674733 5.130056 1.004584
-13.656566 5.127802 1.347660
-13.656486 5.132897 1.696262
-13.635386 5.126651 2.040905
-13.624128 5.127171 2.388681
-13.608447 5.125867 2.740387
-0.540390 -0.191687 -0.360218
-2.961715 0.801053 -1.815228
-3.125175 0.868550 -1.812922
-3.316526 0.948242 -1.817097
-3.499320 1.024550 -1.808034
-3.727288 1.119592 -1.811895
-3.945495 1.209965 -1.799802
-4.204664 1.318122 -1.793649
-4.508667 1.444965 -1.793268
-4.844809 1.584307 -1.789408
-5.244679 1.751110 -1.789481
-5.692801 1.938145 -1.785632
-5.687784 1.937049 -1.630573
-6.090794 2.105840 -1.581591
-6.588235 2.314005 -1.535937
-7.128341 2.540259 -1.474590
-7.937928 2.834906 -1.430713
-8.888774 3.227295 -1.372417
-10.593316 3.927168 -1.360733
-11.986799 4.502596 -1.233952
-0.002590 -0.411952 -0.014924
-13.101326 4.966793 -0.686765
-13.110533 4.975516 -0.355438
-13.711850 5.227813 -0.026924
-13.690947 5.221563 0.316756
-13.680085 5.222208 0.662918
-13.667410 5.222141 1.006638
-13.651041 5.220529 1.350546
-13.655539 5.224713 1.700304
-13.627907 5.218414 2.044902
-13.622015 5.221107 2.394289
-0.002590 -0.411952 -0.014924
-0.542249 -0.186771 -0.362243
-2.944830 0.814975 -1.809304
-3.122421 0.889505 -1.815704
-3.291909 0.961423 -1.808068
-3.492664 1.045776 -1.808849
-3.720099 1.142135 -1.812667
-3.923896 1.228764 -1.794350
-4.194623 1.342724 -1.793602
-4.497907 1.471300 -1.793219
-4.833233 1.612581 -1.789356
-5.226868 1.779458 -1.787634
-5.719951 1.988393 -1.798288
-5.683108 1.973890 -1.633055
-6.076210 2.141263 -1.581530
-6.569312 2.349633 -1.535038
-7.160662 2.600992 -1.484563
-7.894843 2.872490 -1.426399
-8.827453 3.262077 -1.366175
-10.567399 3.990333 -1.360634
-11.893109 4.547204 -1.227283
-12.896515 4.967870 -1.003142
-12.991749 5.012504 -0.682665
-12.944616 4.995053 -0.351816
-0.002599 -0.411557 -0.014910
-13.681266 5.313108 0.317462
-13.675041 5.312864 0.664412
-13.660499 5.311931 1.008689
-13.648754 5.309372 1.353611
-13.641154 5.311330 1.702732
-13.624453 5.309463 2.049451
-0.002599 -0.411557 -0.014910
-17.769329 7.059994 3.600510
-0.552068 -0.178663 -0.369375
-2.950779 0.837239 -1.817116
-3.106980 0.903888 -1.810963
-3.295718 0.985061 -1.814320
-3.484206 1.066281 -1.808807
-3.701012 1.159649 -1.807734
-3.912976 1.250339 -1.793533
-4.177607 1.364333 -1.790639
-4.478343 1.493903 -1.789741
-4.823263 1.641508 -1.789945
-5.231727 1.817410 -1.793551
-5.695434 2.017171 -1.794912
-5.722651 2.029762 -1.648237
-6.038157 2.166672 -1.575453
-6.554605 2.389743 -1.535388
-7.160721 2.651568 -1.488209
-7.874578 2.916148 -1.425999
-8.793400 3.307839 -1.364133
-10.539000 4.048126 -1.360072
-11.945914 4.648109 -1.235423
-12.931456 5.070474 -1.008107
-12.907916 5.062747 -0.679804
-13.327370 5.245696 -0.362503
-13.690167 5.404909 -0.026720
-13.682203 5.403888 0.318387
-13.667583 5.402857 0.665815
-13.658515 5.404172 1.011155
-13.640208 5.401567 1.356314
-13.646348 5.406525 1.707698
-17.764978 7.169442 2.683664
-17.740097 7.165544 3.138299
-15.461070 6.194718 3.138624
-0.553849 -0.173652 -0.371399
-2.932126 0.850299 -1.810210
-3.105610 0.925498 -1.814685
-3.280830 1.002155 -1.810684
-3.468759 1.084456 -1.805337
-3.700298 1.184955 -1.811765
-3.906445 1.275389 -1.795032
-4.168725 1.390220 -1.791320
-4.475936 1.523783 -1.793119
-4.807522 1.668993 -1.788609
-5.209665 1.845016 -1.790508
-5.617874 2.022814 -1.774953
-5.722274 2.070228 -1.652241
-6.025006 2.202574 -1.575854
-6.543767 2.430168 -1.536575
-7.121362 2.683734 -1.483677
-7.889138 2.978025 -1.432111
-8.777303 3.361159 -1.364889
-10.512344 4.110992 -1.359973
-11.913864 4.718510 -1.235125
-12.734781 5.074205 -0.995293
-12.900900 5.150700 -0.681012
-13.060437 5.224440 -0.356286
-13.693175 5.499889 -0.026630
-13.671321 5.495661 0.319095
-13.664018 5.497711 0.667497
-13.652265 5.494998 1.013346
-13.644892 5.497007 1.360304
-17.789412 7.298577 2.236678
-17.750082 7.284612 2.688247
-15.193853 6.181992 2.692494
-0.002595 -0.410748 -0.014880
-0.552477 -0.170077 -0.371380
-2.931216 0.870351 -1.814097
-3.094646 0.942337 -1.812766
-3.274273 1.022152 -1.811542
-3.470025 1.109164 -1.810437
-3.689389 1.205898 -1.810906
-3.893302 1.296773 -1.793442
-4.154881 1.413100 -1.789815
-4.452679 1.544646 -1.788271
-4.795467 1.697051 -1.788556
-5.189613 1.872300 -1.788064
-5.653017 2.077224 -1.790372
-5.729138 2.112902 -1.658277
-6.034773 2.248631 -1.582269
-6.521935 2.465835 -1.535256
-7.096228 2.721927 -1.482118
-7.836961 3.009571 -1.426171
-8.735486 3.403315 -1.361727
-10.478869 4.168658 -1.358942
-11.809350 4.754695 -1.227336
-13.020989 5.287031 -1.019725
-13.033355 5.297432 -0.689422
-13.619223 5.559270 -0.371667
-13.686386 5.591082 -0.026531
-13.670018 5.589161 0.320025
-13.659034 5.589540 0.669085
-13.649054 5.587570 1.015813
-17.859842 7.445111 1.789870
-17.781088 7.417265 2.241447
-17.748980 7.406221 2.695044
-15.162845 6.272940 2.693919
-17.762077 7.425574 3.626789
-0.543233 -0.169993 -0.366254
-2.917426 0.884792 -1.810135
-3.088430 0.961257 -1.813667
-3.262709 1.039944 -1.809704
-3.454634 1.126579 -1.806967
-3.676688 1.226045 -1.809233
-3.883425 1.319564 -1.793397
-4.149418 1.439686 -1.791954
-4.441368 1.570652 -1.788221
-4.776344 1.721948 -1.785937
-5.171156 1.900226 -1.786216
-5.647382 2.114067 -1.793076
-5.740993 2.158127 -1.665837
-6.015832 2.282140 -1.581281
-6.455284 2.481367 -1.523505
-7.079865 2.763960 -1.482419
-7.829754 3.060668 -1.428375
-8.724246 3.458782 -1.363323
-10.432360 4.220470 -1.356276
-11.732102 4.802002 -1.222357
-12.778319 5.269135 -1.003386
-13.087896 5.411762 -0.693851
-13.102433 5.423268 -0.358881
-13.684474 5.684855 -0.026436
-13.664458 5.681208 0.320865
-13.647953 5.679093 0.670399
-13.645254 5.680292 1.018282
-17.841566 7.560410 1.792790
-17.773783 7.536952 2.246449
-17.736197 7.523248 2.700182
-17.730795 7.527671 3.161029
-17.750708 7.543396 3.633952
-0.546543 -0.164354 -0.369299
-2.911519 0.902688 -1.811078
-3.067608 0.973623 -1.806105
-3.249439 1.056893 -1.806967
-3.440783 1.144630 -1.804354
-3.668869 1.248353 -1.810004
-3.868360 1.340023 -1.791034
-4.128531 1.459336 -1.787533
-4.433321 1.598145 -1.789542
-4.769176 1.752162 -1.787809
-5.152553 1.928008 -1.784369
-5.618767 2.140583 -1.788594
-5.752530 2.203552 -1.673396
-6.012618 2.322793 -1.584457
-6.443878 2.521319 -1.524691
-7.057899 2.803448 -1.481605
-7.867228 3.132019 -1.438722
-8.716256 3.515879 -1.365478
-10.396475 4.276785 -1.355011
-11.765424 4.898539 -1.228806
-12.834504 5.383246 -1.010181
-13.015924 5.470156 -0.691744
-13.048583 5.489956 -0.358235
-13.676479 5.776316 -0.026336
-13.658291 5.773386 0.321707
-13.643585 5.771998 0.672080
-13.642658 5.773983 1.020888
-17.838877 7.683157 1.797369
-17.765692 7.656807 2.251451
-17.735285 7.646111 2.707258
-17.724304 7.647988 3.168285
-17.733213 7.658888 3.640009
-0.546673 -0.160091 -0.370302
-2.905503 0.920563 -1.812021
-3.078855 1.000492 -1.817350
-3.236074 1.073750 -1.804231
-3.439998 1.168585 -1.808597
-3.663952 1.272783 -1.812404
-3.856562 1.361891 -1.790217
-4.116004 1.482715 -1.786756
-4.414509 1.621674 -1.786750
-4.744613 1.774443 -1.783265
-5.140742 1.958847 -1.784910
-5.614009 2.179115 -1.791850
-5.749697 2.242701 -1.676892
-5.973351 2.348205 -1.578379
-6.444133 2.568110 -1.528796
-7.019115 2.836574 -1.477443
-7.848498 3.178490 -1.438971
-8.676621 3.560498 -1.362873
-10.353052 4.329550 -1.352813
-11.703870 4.952523 -1.225513
-12.799921 5.459682 -1.010062
-13.691809 5.871141 -0.728647
-13.056176 5.584592 -0.359219
-13.670438 5.871932 -0.026235
-13.656992 5.868174 0.322683
-13.634998 5.863362 0.673577
-13.627469 5.865219 1.022670
-17.835764 7.810067 1.802136
-17.751400 7.774335 2.255762
-17.726717 7.769842 2.713509
-17.717381 7.772414 3.175868
-17.736408 7.784317 3.650491
-0.549878 -0.154300 -0.373347
-2.899148 0.938917 -1.812964
-3.059255 1.013910 -1.810728
-3.230469 1.094831 -1.805987
-3.430595 1.189357 -1.808554
-3.645943 1.290390 -1.808286
-3.844306 1.384379 -1.789398
-4.104717 1.507502 -1.786708
-4.397642 1.645077 -1.784643
-4.736728 1.805365 -1.785136
-5.116240 1.984849 -1.781271
-5.586844 2.206087 -1.787922
-5.751377 2.285386 -1.681909
-5.952088 2.380487 -1.576929
-6.425123 2.604732 -1.528313
-7.016308 2.884873 -1.480717
-7.810981 3.217903 -1.435961
-8.666191 3.616641 -1.364748
-10.339178 4.397981 -1.354581
-11.702560 5.036538 -1.228587
-13.006448 5.645698 -1.028700
-13.645249 5.948446 -0.728046
-13.573059 5.920096 -0.373714
-13.624969 5.946722 -0.026104
-13.615868 5.947804 0.322720
-13.610202 5.950462 0.674346
-13.620033 5.957487 1.025002
-17.826004 7.930740 1.806164
-17.751110 7.902625 2.262154
-17.724148 7.893171 2.720587
-17.711050 7.893954 3.183448
-17.717710 7.903975 3.656923
-0.542169 -0.153666 -0.369242
-2.889775 0.955243 -1.811945
-3.055800 1.034174 -1.813510
-3.223365 1.114588 -1.806845
-3.411525 1.204868 -1.803370
-3.632807 1.310193 -1.806612
-3.832263 1.406091 -1.788581
-4.081850 1.525914 -1.781559
-4.385750 1.670767 -1.784593
-4.722187 1.832203 -1.784442
-5.085138 2.006483 -1.775243
-5.569951 2.237807 -1.787309
-5.763735 2.332146 -1.689976
-5.960530 2.426824 -1.583343
-6.435922 2.655540 -1.534923
-6.988359 2.921397 -1.478788
-7.831015 3.282587 -1.443375
-8.646441 3.668581 -1.365224
-10.309534 4.456995 -1.354250
-11.707026 5.121244 -1.232224
-12.866755 5.671451 -1.020403
-12.979953 5.730052 -0.694982
-13.605062 6.031054 -0.375411
-13.532093 5.998947 -0.025933
-13.613359 6.042772 0.323698
-13.609454 6.046245 0.676304
-13.611985 6.049881 1.027335
-17.820829 8.054164 1.810745
-17.742392 8.023870 2.267390
-17.713600 8.013329 2.726559
-17.705700 8.016539 3.191352
-17.715675 8.028205 3.666669
-0.543800 -0.148675 -0.371266
-2.885018 0.973777 -1.813869
-3.045852 1.051391 -1.812530
-3.211339 1.131969 -1.805007
-3.405459 1.226437 -1.805042
-3.621221 1.330684 -1.805754
-3.818436 1.426929 -1.786991
-4.079047 1.553823 -1.785155
-4.373708 1.696395 -1.784543
-4.700686 1.855643 -1.781181
-5.076311 2.038617 -1.776979
-5.551174 2.268560 -1.786144
-5.765285 2.374103 -1.694993
-5.938858 2.458959 -1.581892
-6.407615 2.687841 -1.532353
-6.995613 2.974817 -1.484293
-7.806084 3.326311 -1.442645
-8.624622 3.719549 -1.365419
-10.286727 4.519254 -1.354852
-11.716272 5.208787 -1.236421
-12.658845 5.663017 -1.006749
-0.002575 -0.407898 -0.014778
-13.492071 6.073310 -0.373275
-0.002575 -0.407898 -0.014778
-13.595808 6.130974 0.324317
-13.604454 6.140498 0.678079
-13.610506 6.145867 1.030221
-14.652092 6.653295 1.490373
-17.738277 8.147843 2.273319
-17.704025 8.134525 2.732809
-17.701307 8.140190 3.199580
-17.709246 8.150990 3.675681
-0.548477 -0.142141 -0.375333
-2.866060 0.985423 -1.806964
-3.039002 1.070071 -1.813431
-3.204037 1.151616 -1.805865
-3.395997 1.246423 -1.804999
-3.602929 1.347926 -1.801635
-3.814437 1.452534 -1.790033
-4.067688 1.577682 -1.785107
-4.356464 1.719469 -1.782436
-4.685871 1.882253 -1.780486
-5.058730 2.066518 -1.775728
-5.516675 2.291600 -1.780004
-5.768280 2.417024 -1.700518
-5.937987 2.501212 -1.585991
-6.398447 2.729416 -1.534371
-6.970737 3.012843 -1.483105
-7.796885 3.377630 -1.444846
-8.602489 3.770420 -1.365613
-10.261765 4.580542 -1.355220
-11.739255 5.303559 -1.242114
-12.300803 5.579030 -0.981256
-0.002583 -0.407504 -0.014764
-13.098674 5.977799 -0.363669
-13.241691 6.049943 -0.025508
-13.583080 6.221828 0.325074
-13.584452 6.227903 0.679123
-13.604792 6.240298 1.032833
-14.405438 6.637317 1.469311
-14.555425 6.716451 1.868098
-14.649986 6.765363 2.265276
-17.696093 8.264060 3.207811
-17.710831 8.278296 3.686539
-0.550039 -0.137089 -0.377357
-2.859560 1.003077 -1.807907
-3.020943 1.083270 -1.807749
-3.190191 1.168083 -1.803127
-3.384809 1.265548 -1.804099
-3.603925 1.375336 -1.807293
-3.802020 1.474048 -1.789215
-4.051185 1.598998 -1.782872
-4.353878 1.750686 -1.786497
-4.676023 1.911270 -1.781716
-5.040970 2.094329 -1.774477
-5.485089 2.316977 -1.774969
-5.770993 2.460053 -1.706043
-5.918878 2.535936 -1.585463
-6.383234 2.769464 -1.535136
-6.929212 3.044032 -1.478570
-7.785577 3.428108 -1.446721
-8.584656 3.825291 -1.366644
-10.193675 4.620627 -1.349985
-11.756166 5.396151 -1.247244
-0.002571 -0.407088 -0.014749
-13.120914 6.077606 -0.707770
-0.002571 -0.407088 -0.014749
-13.491714 6.271656 -0.025613
-13.560794 6.308321 0.325606
-13.569290 6.317932 0.680443
-13.602638 6.339903 1.035863
-14.176091 6.630049 1.450091
-14.325560 6.706846 1.843761
-14.413821 6.756433 2.235232
-14.592383 6.851023 2.650465
-14.693450 6.903950 3.064751
-0.542272 -0.136513 -0.373252
-2.852709 1.021200 -1.808849
-3.023111 1.107095 -1.814291
-3.182394 1.188185 -1.803984
-3.370264 1.283000 -1.801486
-3.587089 1.393174 -1.803990
-3.789151 1.496146 -1.788395
-4.037912 1.621855 -1.782095
-4.324583 1.767699 -1.779592
-4.655831 1.935156 -1.779096
-5.029919 2.125415 -1.775615
-5.465890 2.347185 -1.773803
-5.776829 2.504981 -1.712582
-5.908800 2.573866 -1.587249
-6.377636 2.811618 -1.537991
-6.901063 3.078645 -1.476641
-7.750339 3.468451 -1.444360
-8.537133 3.863525 -1.362921
-10.140590 4.669848 -1.346850
-11.776726 5.493847 -1.252933
-13.002200 6.110388 -1.042047
-0.002579 -0.406695 -0.014734
-12.788372 6.010641 -0.357105
-13.494143 6.370265 -0.025519
-13.552856 6.405222 0.326547
-13.562451 6.412515 0.682222
-13.599200 6.436444 1.038753
-13.942688 6.611856 1.430125
-14.105140 6.699330 1.820576
-14.200756 6.753195 2.208504
-14.348959 6.830533 2.613471
-14.458063 6.891366 3.024308
-0.536142 -0.135418 -0.370168
-2.846253 1.038297 -1.809792
-3.005175 1.119557 -1.808610
-3.171862 1.205513 -1.803045
-3.365328 1.305229 -1.804014
-3.572104 1.411094 -1.801501
-3.778473 1.517676 -1.788350
-4.027819 1.646334 -1.782775
-4.320755 1.796479 -1.782969
-4.650707 1.966640 -1.782250
-5.018643 2.156494 -1.776752
-5.443586 2.374567 -1.771534
-5.803045 2.560607 -1.725216
-5.873019 2.597462 -1.582099
-6.362480 2.850478 -1.538757
-6.870399 3.113341 -1.474338
-7.661704 3.478154 -1.431908
-8.458408 3.883758 -1.354165
-0.002566 -0.406279 -0.014719
-11.757791 5.567140 -1.254320
-12.978070 6.189605 -1.042913
-12.733756 6.070561 -0.690971
-12.683496 6.050100 -0.355166
-13.628941 6.533968 -0.025532
-13.616157 6.532931 0.329237
-13.606596 6.533562 0.686663
-13.594536 6.529893 1.041502
-13.710465 6.594607 1.410344
-13.872945 6.683152 1.795771
-13.954204 6.727254 2.176231
-14.111980 6.813628 2.577770
-14.219823 6.874527 2.983125
-0.546824 -0.125667 -0.378321
-2.837884 1.055075 -1.809753
-2.991631 1.134820 -1.805750
-3.165707 1.225796 -1.804801
-3.348994 1.321672 -1.800543
-3.566134 1.435172 -1.803900
-3.764061 1.538109 -1.786759
-4.014295 1.669029 -1.781998
-4.302621 1.819875 -1.780861
-4.630243 1.990300 -1.779630
-5.013985 2.191015 -1.780278
-5.454293 2.421384 -1.780314
-5.808186 2.605963 -1.731755
-5.853360 2.631772 -1.581571
-6.343046 2.888576 -1.538687
-6.872076 3.166219 -1.479096
-7.662021 3.534351 -1.436063
-0.002575 -0.405885 -0.014705
-10.055872 4.771704 -1.343153
-11.806375 5.678039 -1.263004
-12.759636 6.174511 -1.028554
-12.676722 6.134100 -0.689809
-12.768683 6.186732 -0.358345
-13.635489 6.639896 -0.025437
-13.609708 6.629070 0.330221
-13.598339 6.628716 0.688443
-13.583248 6.626418 1.043982
-0.002575 -0.405885 -0.014705
-13.667848 6.678276 1.774427
-13.728775 6.715425 2.147562
-13.891954 6.805743 2.545297
-13.989239 6.858819 2.943415
-0.536006 -0.126812 -0.372173
-2.832257 1.073910 -1.811676
-2.985585 1.154568 -1.807590
-3.146474 1.239985 -1.799367
-3.346696 1.346106 -1.804784
-3.553530 1.455859 -1.803040
-3.754111 1.561657 -1.787484
-4.003566 1.694081 -1.782677
-4.289335 1.845777 -1.780809
-4.614285 2.017241 -1.778934
-4.998490 2.221126 -1.780220
-5.427227 2.448721 -1.776936
-5.785090 2.638065 -1.730166
-5.826643 2.662302 -1.579194
-6.323397 2.926549 -1.538617
-6.861192 3.212834 -1.481251
-7.673510 3.598392 -1.442494
-8.487656 4.026803 -1.366857
-9.813715 4.721292 -1.315051
-11.793022 5.760366 -1.265320
-12.702687 6.241256 -1.027020
-13.269542 6.540391 -0.723439
-13.080023 6.446490 -0.367685
-13.598777 6.723833 -0.025309
-13.608454 6.731442 0.331390
-13.595269 6.730093 0.690596
-13.580133 6.727687 1.047154
-0.002562 -0.405469 -0.014690
-0.002562 -0.405469 -0.014690
-0.002562 -0.405469 -0.014690
-13.667290 6.792746 2.511853
-13.768507 6.848581 2.905918
-0.529819 -0.125729 -0.369089
-2.820620 1.088970 -1.809675
-2.973435 1.170496 -1.805669
-3.146437 1.263499 -1.804718
-3.328590 1.361513 -1.800456
-3.546317 1.477794 -1.804625
-3.739455 1.581936 -1.785893
-3.988120 1.715768 -1.781171
-4.276708 1.870100 -1.780759
-4.606936 2.047761 -1.781446
-4.978237 2.247581 -1.778371
-5.395938 2.471262 -1.771903
-5.794782 2.686309 -1.738227
-5.821430 2.701627 -1.582367
-6.302967 2.961300 -1.538133
-6.801023 3.230190 -1.472632
-7.611946 3.622630 -1.435251
-8.510040 4.099550 -1.374324
-9.736645 4.753016 -1.308653
-11.836477 5.870574 -1.273627
-12.635412 6.296601 -1.024506
-0.002554 -0.405049 -0.014675
-12.743704 6.364506 -0.359530
-13.620542 6.832932 -0.025229
-13.605958 6.830748 0.332511
-13.587457 6.826499 0.692470
-13.584115 6.827243 1.050734
-13.566865 6.823625 1.408709
-13.561271 6.826212 1.771689
-0.002554 -0.405049 -0.014675
-0.002554 -0.405049 -0.014675
-13.589503 6.854968 2.876902
-0.526682 -0.123100 -0.368049
-2.821200 1.110530 -1.815522
-2.965881 1.188824 -1.806570
-3.124183 1.275231 -1.797487
-3.321552 1.382766 -1.802127
-3.532208 1.496853 -1.802951
-3.719837 1.599461 -1.781986
-3.979125 1.740871 -1.782580
-4.258573 1.892424 -1.778652
-4.579407 2.067449 -1.776260
-4.956175 2.272969 -1.775926
-5.369150 2.497201 -1.768527
-5.809205 2.737534 -1.747811
-5.815432 2.741979 -1.585540
-6.281767 2.997005 -1.537647
-6.790335 3.275326 -1.474789
-7.611236 3.678928 -1.439404
-8.475239 4.144199 -1.372839
-9.705032 4.808462 -1.308323
-11.822956 5.951278 -1.275945
-13.223853 6.707047 -1.074672
-13.533457 6.879149 -0.741711
-12.952704 6.571879 -0.366143
-13.423704 6.828139 -0.024980
-13.599257 6.928352 0.333543
-13.584271 6.925875 0.694620
-13.568564 6.919957 1.052937
-13.565303 6.923786 1.413081
-13.552591 6.922524 1.776208
-13.523517 6.909329 2.135212
-13.510092 6.907667 2.498226
-0.002562 -0.404655 -0.014661
-0.522040 -0.121332 -0.365987
-0.506078 -0.129838 -0.337345
-2.958211 1.207124 -1.807470
-3.111331 1.291881 -1.795649
-3.303264 1.397951 -1.797799
-3.513179 1.513197 -1.798832
-3.709865 1.622131 -1.782712
-3.960175 1.760575 -1.779616
-4.255177 1.922715 -1.782713
-4.568430 2.095995 -1.777489
-4.944027 2.303703 -1.777063
-5.350681 2.527539 -1.767914
-5.801191 2.776923 -1.750794
-5.812572 2.784242 -1.589638
-6.267222 3.036349 -1.538830
-6.796592 3.329912 -1.480662
-7.599733 3.729690 -1.441603
-8.424550 4.180080 -1.368836
-9.718462 4.888417 -1.314057
-11.808890 6.032046 -1.278262
-13.620573 7.022260 -1.109758
-12.817909 6.589848 -0.705290
-13.086028 6.741636 -0.370746
-13.097498 6.750367 -0.024633
-13.593646 7.027072 0.334621
-13.582121 7.026442 0.696863
-13.566398 7.020400 1.056246
-13.554288 7.019403 1.416532
-13.550216 7.022805 1.781651
-13.521098 7.009375 2.141714
-13.514463 7.011359 2.507075
-13.494622 7.006061 2.874949
-0.514374 -0.121256 -0.361883
-0.507537 -0.124847 -0.339288
-2.944250 1.221977 -1.804609
-3.107765 1.313638 -1.799201
-3.294419 1.418220 -1.798613
-3.501745 1.534412 -1.798787
-3.702980 1.646548 -1.784982
-3.950914 1.785545 -1.781025
-4.234732 1.944676 -1.779919
-4.555621 2.123580 -1.778077
-4.928359 2.332529 -1.777006
-5.319757 2.552166 -1.763432
-5.784472 2.811621 -1.751237
-5.819071 2.833258 -1.596508
-6.260378 3.081483 -1.542097
-6.777762 3.372479 -1.481331
-7.529154 3.748050 -1.432734
-8.411083 4.238034 -1.370985
-6.239733 3.040536 -0.851380
