# This PCD file was generated using the MATLAB® pcwrite function
# from Computer Vision Toolbox®.
# .PCD v.7 - Point Cloud Data file format
VERSION .7
FIELDS x y z
SIZE 4 4 4
TYPE F F F
COUNT 1 1 1
WIDTH 1652
HEIGHT 1
VIEWPOINT 0 0 0 1 0 0 0
POINTS 1652
DATA ascii
-3.848722 5.133803 0.140446
-3.834687 5.117472 0.296679
-3.825305 5.105732 0.451525
-3.810667 5.088431 0.605472
-3.825724 5.113759 0.766273
-3.815815 5.101224 0.921776
-5.656222 7.747193 1.608966
-5.380016 7.355877 1.757367
-0.319936 0.088848 -0.344576
-0.315182 0.082273 -0.322633
-0.330183 0.104041 -0.320136
-0.340116 0.118726 -0.311978
-0.342768 0.122916 -0.297269
-0.364007 0.153787 -0.297141
-0.389505 0.191052 -0.298505
-2.526977 3.289055 -1.750641
-2.702335 3.544356 -1.745567
-2.884500 3.811213 -1.730840
-3.113101 4.145910 -1.726090
-3.363145 4.510348 -1.714221
-3.655093 4.937846 -1.701956
-4.006628 5.450396 -1.689294
-4.423617 6.060834 -1.674308
-4.927450 6.798529 -1.654373
-5.624700 7.739783 -1.637286
-4.340433 5.889356 -1.085826
-0.002589 -0.369255 -0.013914
-3.866033 5.212495 -0.648735
-3.815814 5.141630 -0.484001
-3.812429 5.140465 -0.327763
-3.810379 5.141289 -0.170883
-3.807231 5.138402 -0.015369
-3.796502 5.126657 0.139686
-3.779196 5.105314 0.294799
-3.785781 5.116551 0.450618
-3.771252 5.099195 0.604242
-3.782813 5.119716 0.764022
-3.769644 5.102274 0.918230
-5.625032 7.802773 1.613592
-5.324288 7.370914 1.753757
-0.316333 0.089638 -0.343537
-0.312580 0.084464 -0.322614
-0.325441 0.103425 -0.318237
-0.336286 0.119595 -0.311060
-0.341963 0.128257 -0.298961
-0.359964 0.154748 -0.296308
-0.409129 0.227230 -0.315451
-2.509017 3.308565 -1.752775
-2.680812 3.561807 -1.746199
-2.862502 3.831299 -1.732066
-3.081679 4.156272 -1.723051
-3.333918 4.528436 -1.713608
-3.626645 4.962409 -1.702904
-3.973053 5.473770 -1.689223
-4.381027 6.078504 -1.672151
-4.882795 6.822294 -1.653178
-5.570110 7.761035 -1.634921
-4.311030 5.924450 -1.087424
-4.173968 5.728406 -0.878098
-3.822599 5.218605 -0.646805
-3.767129 5.139193 -0.481835
-3.767109 5.142924 -0.326572
-3.760545 5.137106 -0.170066
-3.759658 5.137503 -0.015295
-3.749015 5.125687 0.139109
-3.735229 5.109209 0.293846
-3.739520 5.117208 0.448878
-3.725113 5.099815 0.601900
-3.736598 5.120450 0.761075
-3.724703 5.104618 0.914962
-5.564554 7.815822 1.609799
-5.263059 7.377424 1.748297
-0.317539 0.097541 -0.347599
-0.309966 0.086643 -0.322594
-0.319750 0.101290 -0.315400
-0.334464 0.123395 -0.311938
-0.340104 0.132105 -0.299797
-0.357964 0.158713 -0.297101
-0.417029 0.246799 -0.323913
-2.481572 3.314069 -1.748358
-2.657089 3.576018 -1.745462
-2.834048 3.841817 -1.729449
-3.057713 4.177501 -1.724186
-3.304601 4.546348 -1.712995
-3.594810 4.981996 -1.702331
-3.931750 5.485643 -1.685922
-4.341639 6.100786 -1.671242
-4.842400 6.852324 -1.653465
-5.522089 7.791749 -1.634504
-4.261419 5.929866 -1.084004
-4.118782 5.723094 -0.873843
-3.742437 5.169958 -0.638730
-3.723058 5.143006 -0.480228
-0.002581 -0.368449 -0.013884
-3.657242 5.052954 -0.167002
-3.659702 5.058279 -0.015203
-3.668169 5.074595 0.137152
-3.664581 5.072996 0.290666
-3.675566 5.091026 0.444910
-3.674673 5.093455 0.598815
-3.689419 5.119162 0.757895
-3.679859 5.106629 0.911693
-5.565723 7.920200 1.624140
-5.200823 7.381875 1.742467
-0.313892 0.098331 -0.346559
-0.307342 0.088814 -0.322575
-0.316065 0.102045 -0.314441
-0.331632 0.125702 -0.311918
-0.335217 0.131436 -0.298065
-0.353899 0.159652 -0.296267
-2.323870 3.121076 -1.765272
-2.461367 3.330249 -1.749036
-2.633305 3.590084 -1.744725
-2.807666 3.855315 -1.728112
-3.032554 4.197021 -1.724724
-3.278355 4.568926 -1.714036
-3.562878 5.001400 -1.701759
-3.901202 5.513461 -1.687236
-4.303245 6.124448 -1.670750
-4.798552 6.877238 -1.652640
-5.477210 7.827096 -1.635061
-4.211867 5.934954 -1.080584
-3.706512 5.182029 -0.794309
-3.675131 5.138796 -0.632705
-3.592772 5.017000 -0.467710
-3.603666 5.037113 -0.318016
-3.609341 5.049352 -0.166233
-0.002591 -0.368052 -0.013869
-3.615721 5.064390 0.136344
-0.002591 -0.368052 -0.013869
-3.634117 5.097545 0.443725
-3.633233 5.099993 0.597213
-3.644565 5.120849 0.755179
-3.638409 5.113263 0.909259
-5.569135 8.029819 1.639455
-5.140893 7.389144 1.737377
-0.313096 0.103388 -0.348581
-0.303737 0.089517 -0.321575
-0.321128 0.116036 -0.321936
-0.328782 0.127992 -0.311898
-0.334317 0.136770 -0.299757
-0.361795 0.178927 -0.305199
-2.289544 3.113221 -1.754428
-2.441052 3.346320 -1.749714
-2.606691 3.601318 -1.742619
-2.782263 3.870228 -1.727417
-3.006198 4.214827 -1.724666
-3.246917 4.585457 -1.712870
-3.531897 5.022231 -1.701693
-3.866231 5.536912 -1.687164
-4.262511 6.146989 -1.669840
-4.754417 6.904325 -1.652185
-5.422323 7.847367 -1.632697
-3.768895 5.345116 -0.976825
-3.653715 5.172164 -0.789827
-3.658684 5.183549 -0.635245
-3.547579 5.018628 -0.465964
-3.562598 5.043141 -0.317109
-0.002576 -0.367639 -0.013853
-3.577329 5.073060 -0.015063
-0.002576 -0.367639 -0.013853
-3.575337 5.075544 0.288572
-3.586307 5.096030 0.441845
-3.588722 5.103504 0.595241
-3.597642 5.118870 0.751999
-3.588437 5.108642 0.904879
-5.574303 8.147322 1.656070
-5.111194 7.442019 1.742644
-0.305598 0.098423 -0.343458
-0.301970 0.093159 -0.322536
-0.314389 0.112412 -0.318158
-0.324844 0.128839 -0.310980
-0.330413 0.137567 -0.298881
-0.369572 0.198256 -0.314130
-2.261837 3.116294 -1.748981
-2.414554 3.352907 -1.746025
-2.584812 3.618245 -1.743251
-2.758847 3.888167 -1.728003
-2.976662 4.227642 -1.722820
-3.216251 4.601248 -1.711705
-3.492409 5.029870 -1.697574
-3.825842 5.549659 -1.684325
-4.226068 6.171088 -1.669766
-4.710545 6.926202 -1.650992
-5.374565 7.881447 -1.632928
-3.774835 5.426869 -0.986790
-3.734535 5.368964 -0.814152
-3.563818 5.110384 -0.624566
-3.551291 5.092890 -0.470374
-3.521726 5.051167 -0.316294
-3.527102 5.061154 -0.165259
-3.535049 5.077180 -0.014993
-3.539978 5.088616 0.135971
-3.539577 5.089726 0.288267
-3.541763 5.096880 0.440241
-3.541859 5.098783 0.592524
-3.551955 5.118194 0.749049
-3.541785 5.106304 0.901053
-5.579162 8.259901 1.672032
-5.124773 7.562509 1.763079
-0.306701 0.106310 -0.347521
-0.299384 0.095236 -0.322516
-0.309805 0.111567 -0.316261
-0.321098 0.129534 -0.310063
-0.328471 0.141376 -0.299717
-0.379126 0.220756 -0.324689
-2.239360 3.124615 -1.746621
-2.396110 3.371852 -1.748158
-2.561825 3.633459 -1.743199
-2.738371 3.910778 -1.730510
-2.951183 4.246716 -1.723358
-3.183445 4.613609 -1.709438
-3.461275 5.050291 -1.697508
-3.785419 5.562157 -1.681487
-4.185082 6.193165 -1.668856
-4.662964 6.947793 -1.649425
-3.712932 5.400618 -1.141745
-3.771390 5.495553 -0.994525
-3.680965 5.356699 -0.809439
-3.569748 5.187572 -0.630830
-3.544573 5.152257 -0.473525
-3.514072 5.106444 -0.318194
-3.519519 5.118797 -0.166223
-3.528440 5.136576 -0.014935
-3.521322 5.127201 0.136542
-3.512394 5.117136 0.288704
-3.489795 5.085648 0.437662
-3.504008 5.111683 0.591664
-3.510676 5.123871 0.747028
-3.498477 5.108625 0.898061
-5.580939 8.376421 1.688325
-5.031455 7.517690 1.746519
-0.304811 0.109960 -0.348522
-0.301319 0.104739 -0.327397
-0.319244 0.133178 -0.328451
-0.331535 0.152956 -0.322611
-0.342862 0.171183 -0.315105
-0.385498 0.238762 -0.332806
-2.217628 3.136673 -1.745802
-2.375870 3.389561 -1.749563
-2.540758 3.651721 -1.744516
-2.711938 3.925745 -1.729814
-2.919683 4.258089 -1.720915
-3.155746 4.633878 -1.709929
-3.430094 5.072782 -1.697948
-3.756419 5.592472 -1.683725
-4.144114 6.212587 -1.667532
-4.617623 6.969935 -1.648231
-3.655380 5.386283 -1.134535
-4.007162 5.942272 -1.065238
-3.667151 5.410709 -0.813783
-3.548469 5.227532 -0.632810
-0.002573 -0.366440 -0.013808
-3.496501 5.151212 -0.319436
-3.495465 5.153482 -0.166530
-3.492405 5.150434 -0.014868
-3.482252 5.138237 0.136332
-3.453132 5.096022 0.286450
-3.456205 5.102661 0.437449
-3.457498 5.108594 0.589134
-3.464248 5.123149 0.744079
-3.451039 5.103928 0.893956
-5.598843 8.517352 1.709476
-5.031691 7.622631 1.763258
-0.304803 0.116467 -0.351564
-0.303219 0.114251 -0.332277
-0.331350 0.159343 -0.343459
-0.351286 0.191606 -0.344135
-0.360826 0.207268 -0.333916
-0.002558 -0.366027 -0.013793
-2.204274 3.160730 -1.751152
-2.353219 3.401998 -1.748786
-2.510611 3.655530 -1.739673
-2.689181 3.944909 -1.731041
-2.895027 4.278464 -1.722050
-3.121816 4.644212 -1.707110
-3.397712 5.091183 -1.697377
-3.718943 5.609464 -1.682270
-4.105137 6.235073 -1.667041
-4.576355 6.998458 -1.648519
-3.611704 5.390917 -1.131222
-0.002558 -0.366027 -0.013793
-0.002558 -0.366027 -0.013793
-3.507732 5.234773 -0.631254
-3.452201 5.147828 -0.469618
-3.449823 5.147946 -0.318061
-3.448775 5.150178 -0.165809
-3.446806 5.148783 -0.014799
-3.439887 5.141640 0.135937
-3.416311 5.107742 0.286051
-3.417260 5.111004 0.436540
-3.410112 5.103442 0.586417
-3.421016 5.124845 0.741593
-3.411082 5.110658 0.891797
-5.667459 8.742537 1.746825
-5.017754 7.703597 1.774816
-0.307443 0.127384 -0.357666
-0.317860 0.144556 -0.350876
-0.341294 0.182679 -0.356588
-0.372488 0.233538 -0.367454
-0.422998 0.315879 -0.392954
-2.079259 3.002882 -1.776344
-2.180057 3.167483 -1.748021
-2.324648 3.404782 -1.743642
-2.489663 3.675558 -1.741673
-2.662340 3.957483 -1.729706
-2.868238 4.295455 -1.721992
-3.092054 4.663029 -1.707048
-3.364199 5.107769 -1.696299
-3.681396 5.628500 -1.681276
-4.063851 6.256381 -1.666131
-4.531534 7.024223 -1.648064
-3.562912 5.386846 -1.126286
-3.665384 5.556610 -0.993480
-3.757074 5.706781 -0.848484
-3.463912 5.236632 -0.629141
-3.405795 5.146536 -0.467733
-3.401233 5.140897 -0.316500
-3.405402 5.151616 -0.165230
-3.400381 5.147388 -0.014728
-3.394488 5.139601 0.135402
-3.380550 5.120893 0.285744
-3.378418 5.121378 0.435771
-3.365077 5.103606 0.584257
-3.376860 5.124518 0.738873
-3.366083 5.110927 0.888527
-5.644269 8.826845 1.756645
-4.991741 7.766243 1.782305
-0.303613 0.128121 -0.356626
-0.314820 0.146829 -0.350856
-0.335274 0.180562 -0.353750
-0.373564 0.243769 -0.371921
-0.476300 0.412931 -0.445144
-2.056020 3.008968 -1.773043
-2.163851 3.188640 -1.751828
-2.302246 3.418901 -1.743592
-2.466347 3.690233 -1.741621
-2.635658 3.971988 -1.729010
-2.835599 4.304614 -1.718954
-3.063035 4.681163 -1.706987
-3.333670 5.131345 -1.697246
-3.645815 5.648332 -1.680746
-4.023628 6.276722 -1.665224
-4.486879 7.047224 -1.647241
-3.516392 5.388052 -1.122323
-3.830413 5.904240 -1.047186
-0.002571 -0.365242 -0.013763
-3.424392 5.247274 -0.627957
-3.363624 5.149399 -0.466271
-3.356028 5.140895 -0.315312
-3.363263 5.156724 -0.164744
-3.357126 5.148483 -0.014660
-3.348260 5.137815 0.134869
-3.339633 5.127580 0.285067
-3.336400 5.124074 0.434444
-3.322168 5.104537 0.582281
-3.335969 5.131260 0.737084
-3.325256 5.115344 0.886088
-5.591212 8.859586 1.756743
-4.955596 7.816282 1.786837
-0.301664 0.131713 -0.357627
-0.312757 0.150522 -0.351816
-0.336677 0.190435 -0.358426
-0.370967 0.247834 -0.372798
-0.474729 0.420627 -0.447690
-2.033740 3.016449 -1.770556
-2.139561 3.195105 -1.748697
-2.284913 3.438490 -1.746454
-2.439110 3.698300 -1.738833
-2.608484 3.982156 -1.727035
-2.807514 4.317504 -1.717706
-3.032950 4.697457 -1.706375
-3.295988 5.138637 -1.693636
-3.609128 5.666287 -1.679754
-3.985484 6.297799 -1.664735
-4.445428 7.072553 -1.647161
-0.002556 -0.364828 -0.013747
-3.581610 5.573765 -0.989163
-3.435748 5.335874 -0.791681
-3.377626 5.243417 -0.625287
-3.318427 5.146855 -0.464388
-3.321165 5.155390 -0.314967
-3.321029 5.156971 -0.164166
-3.311934 5.145817 -0.014591
-3.306218 5.140251 0.134472
-3.294500 5.122559 0.283830
-3.292425 5.123040 0.432837
-3.280298 5.104606 0.580303
-3.291951 5.128028 0.734130
-3.281417 5.114400 0.882816
-5.525428 8.867317 1.752303
-4.917894 7.857692 1.789884
-0.300630 0.136750 -0.359648
-0.301868 0.139149 -0.342978
-0.333491 0.192736 -0.358406
-0.373007 0.259513 -0.378163
-0.470195 0.423740 -0.447667
-2.006777 3.015938 -1.764001
-2.121841 3.212538 -1.750963
-2.260140 3.447163 -1.744223
-2.417574 3.715927 -1.740149
-2.583606 3.999594 -1.727620
-2.781621 4.337772 -1.718839
-3.004720 4.716901 -1.706866
-3.266224 5.163498 -1.695090
-3.570326 5.682956 -1.678299
-3.941742 6.317355 -1.663409
-4.398217 7.094132 -1.645966
-0.002562 -0.364436 -0.013733
-3.541268 5.584482 -0.987423
-0.002562 -0.364436 -0.013733
-3.335075 5.243742 -0.623177
-3.279516 5.154239 -0.463346
-3.277092 5.154190 -0.313782
-3.273877 5.150591 -0.163402
-3.273014 5.153131 -0.014525
-3.266307 5.145820 0.134167
-3.256797 5.133792 0.283431
-3.254664 5.131993 0.432066
-3.244744 5.119211 0.579812
-3.248186 5.129026 0.731643
-3.236765 5.113682 0.879544
-3.249632 5.137319 1.035063
-4.878991 7.904035 1.793676
-0.295831 0.135988 -0.357588
-0.303185 0.148900 -0.347857
-0.333745 0.201191 -0.362142
-0.367395 0.259070 -0.376348
-0.466433 0.428454 -0.448501
-1.988537 3.031336 -1.765582
-2.097795 3.220680 -1.748602
-2.236540 3.459306 -1.743445
-2.392374 3.728979 -1.739413
-2.556538 4.011513 -1.726286
-2.755470 4.355753 -1.719379
-2.976466 4.738351 -1.707907
-3.234337 5.182617 -1.695025
-3.536421 5.705499 -1.678691
-3.902395 6.336288 -1.662504
-4.353226 7.116329 -1.645144
-3.383483 5.395270 -1.111737
-3.573071 5.720224 -1.006018
-3.356809 5.355870 -0.788761
-3.288678 5.243779 -0.620876
-3.230558 5.146465 -0.461044
-3.236205 5.160141 -0.312968
-3.233021 5.156496 -0.162963
-3.226065 5.148686 -0.014456
-3.220431 5.143052 0.133632
-3.215004 5.135584 0.282566
-3.210920 5.132643 0.430599
-3.204062 5.122720 0.578206
-3.203481 5.125715 0.728690
-3.199171 5.122348 0.877939
-3.197034 5.120502 1.028322
-4.840187 7.947651 1.797095
-0.293896 0.139509 -0.358589
-0.303815 0.157003 -0.351757
-0.328808 0.200384 -0.360244
-0.366587 0.266149 -0.379020
-0.471043 0.447089 -0.457038
-1.974115 3.050699 -1.769606
-2.079588 3.235938 -1.750098
-2.215168 3.472125 -1.743397
-2.370429 3.744295 -1.740047
-2.534912 4.031039 -1.728154
-2.725266 4.364844 -1.716939
-2.947931 4.755291 -1.707848
-3.203310 5.200997 -1.694963
-3.503443 5.727242 -1.679085
-3.863947 6.356677 -1.662015
-4.308450 7.135810 -1.643952
-0.002553 -0.363630 -0.013702
-3.538045 5.738765 -1.005672
-3.312871 5.354290 -0.785910
-3.244338 5.240050 -0.618395
-3.193755 5.154434 -0.460143
-3.192313 5.156027 -0.311692
-3.191141 5.155805 -0.162387
-3.187241 5.153132 -0.014392
-3.178629 5.142292 0.133187
-3.170258 5.129615 0.281327
-3.167216 5.128404 0.428851
-3.161439 5.120204 0.576042
-3.165817 5.131865 0.727128
-3.163543 5.131922 0.876611
-3.167335 5.140360 1.028709
-3.209373 5.217559 1.198365
-0.290980 0.141604 -0.358569
-0.297350 0.153088 -0.347818
-0.323805 0.199596 -0.358345
-0.359409 0.262439 -0.375408
-0.466203 0.450287 -0.457014
-1.951120 3.057990 -1.767119
-2.057926 3.246648 -1.749280
-2.188688 3.479133 -1.740436
-2.344166 3.755421 -1.738626
-2.506920 4.043118 -1.726818
-2.698114 4.382994 -1.717477
-2.912762 4.764743 -1.705029
-3.167378 5.215263 -1.693376
-3.465327 5.744942 -1.678092
-3.820907 6.377152 -1.661105
-4.260645 7.158958 -1.643126
-3.302276 5.406654 -1.106415
-3.623625 5.973275 -1.040141
-3.271996 5.359883 -0.783987
-3.200162 5.238291 -0.616098
-3.149090 5.152893 -0.458401
-3.146613 5.150423 -0.310320
-3.145455 5.152464 -0.161715
-3.143549 5.153238 -0.014324
-3.137957 5.145266 0.132835
-3.138595 5.150455 0.281485
-3.144440 5.164824 0.430309
-3.176080 5.224638 0.585202
-3.158658 5.195847 0.733228
-0.002542 -0.363212 -0.013687
-3.178411 5.238979 1.043682
-3.165529 5.218087 1.194360
-0.284616 0.137699 -0.354468
-0.293415 0.153722 -0.346818
-0.322178 0.204987 -0.360203
-0.355693 0.264945 -0.375388
-0.457971 0.447040 -0.453569
-1.931396 3.069563 -1.767074
-2.036463 3.259205 -1.749232
-2.171088 3.500194 -1.744025
-2.317646 3.764343 -1.736522
-2.480571 4.056237 -1.726124
-2.669787 4.397205 -1.716823
-2.881312 4.778471 -1.703866
-3.133329 5.230417 -1.692299
-3.428210 5.761786 -1.677101
-3.779395 6.391949 -1.659368
-4.214727 7.176184 -1.641565
-3.251489 5.397333 -1.100832
-3.531639 5.896088 -1.024194
-3.225312 5.357083 -0.780902
-3.151241 5.229805 -0.613057
-3.113356 5.164373 -0.457779
-3.112878 5.167627 -0.310163
-3.132254 5.203990 -0.162537
-3.152870 5.244869 -0.014268
-3.150244 5.244369 0.135026
-3.147845 5.242004 0.285454
-3.144752 5.240651 0.434971
-3.140918 5.235729 0.584522
-0.002549 -0.362820 -0.013672
-3.140642 5.243632 0.888701
-3.143212 5.250134 1.042448
-3.148664 5.264060 1.200346
-0.289340 0.153200 -0.363632
-0.292230 0.158779 -0.348758
-0.322445 0.213327 -0.363940
-0.358240 0.278264 -0.381650
-0.455055 0.453213 -0.455258
-1.911604 3.081025 -1.767029
-2.013523 3.266081 -1.746873
-2.146103 3.508141 -1.741793
-2.294774 3.779644 -1.737155
-2.453257 4.067526 -1.724789
-2.641428 4.411213 -1.716171
-2.850720 4.793706 -1.703255
-3.101990 5.250476 -1.692742
-3.390050 5.776728 -1.675648
-3.738304 6.412944 -1.658877
-4.168994 7.199717 -1.641112
-0.002533 -0.362406 -0.013656
-3.483973 5.895957 -1.020782
-3.183664 5.358037 -0.778517
-3.111260 5.232036 -0.611321
-3.120211 5.252373 -0.463303
-3.114911 5.244703 -0.313274
-3.117587 5.253807 -0.163312
-3.116652 5.256314 -0.014204
-3.115973 5.257012 0.134950
-3.122293 5.272651 0.286169
-3.127867 5.286996 0.437264
-3.133659 5.301698 0.589599
-4.451072 7.687615 1.061131
-5.704724 9.964048 1.643194
-5.102574 8.880528 1.719837
-4.677771 8.113533 1.809294
-0.283793 0.150772 -0.360551
-0.287458 0.157832 -0.346779
-0.315613 0.209440 -0.360163
-0.354432 0.280765 -0.381629
-0.453681 0.462627 -0.458659
-1.887352 3.084371 -1.762916
-1.991076 3.276745 -1.746054
-2.128457 3.531019 -1.746109
-2.270883 3.793192 -1.737104
-2.431478 4.090711 -1.727937
-2.613060 4.427201 -1.716114
-2.820063 4.808748 -1.702643
-3.061241 5.255580 -1.688624
-3.350009 5.787984 -1.673274
-3.697355 6.431324 -1.657971
-4.120675 7.215375 -1.639179
-0.002540 -0.362014 -0.013641
-3.436456 5.895461 -1.017370
-3.432380 5.892795 -0.847156
-3.068431 5.233336 -0.609396
-3.062902 5.225145 -0.459607
-3.058560 5.221418 -0.310969
-3.073665 5.253286 -0.162735
-3.218559 5.520236 -0.014162
-3.262780 5.605680 0.143714
-0.002540 -0.362014 -0.013641
-3.360980 5.792159 0.476070
-0.002540 -0.362014 -0.013641
-0.002540 -0.362014 -0.013641
-5.655571 10.016239 1.646359
-5.033210 8.880668 1.714422
-4.626464 8.139771 1.809014
-0.280000 0.151288 -0.359511
-0.282787 0.156812 -0.344800
-0.311494 0.210065 -0.359204
-0.349040 0.280024 -0.379814
-0.443762 0.456082 -0.453502
-1.866611 3.093973 -1.762057
-1.970982 3.290159 -1.746779
-2.100704 3.533772 -1.741695
-2.245141 3.803287 -1.735685
-2.398613 4.091694 -1.722760
-2.583638 4.439199 -1.714865
-2.785709 4.816817 -1.699827
-3.032516 5.280322 -1.690587
-3.313619 5.805858 -1.672745
-3.655411 6.447721 -1.656650
-4.077897 7.241117 -1.639469
-3.145862 5.443413 -1.098690
-3.390921 5.898139 -1.014516
-3.401977 5.923330 -0.848480
-3.052260 5.281079 -0.612493
-3.063870 5.304515 -0.464432
-3.062411 5.306140 -0.314451
-3.069741 5.324085 -0.164068
-3.095391 5.373590 -0.014083
-0.002524 -0.361600 -0.013626
-3.341281 5.839014 0.314300
-3.382211 5.917208 0.484501
-0.002524 -0.361600 -0.013626
-4.257873 7.556154 1.036925
-5.660388 10.169386 1.665659
-4.964032 8.880302 1.709007
-4.568113 8.149338 1.805401
-0.274618 0.148722 -0.356431
-0.284717 0.168052 -0.350659
-0.306521 0.209136 -0.357306
-0.340290 0.272955 -0.374408
-0.437362 0.455806 -0.451769
-1.846942 3.106994 -1.762825
-1.949911 3.301860 -1.746732
-2.076505 3.542901 -1.740191
-2.219514 3.815272 -1.734949
-2.374715 4.109172 -1.723988
-2.555949 4.454400 -1.714809
-2.757631 4.838756 -1.701420
-3.004504 5.306641 -1.693056
-3.276972 5.825807 -1.672675
-3.615861 6.471419 -1.656990
-4.031810 7.263828 -1.639017
-4.589676 8.227985 -1.614047
-3.344411 5.901055 -1.011661
-3.376012 5.962490 -0.850964
-3.057189 5.369237 -0.619866
-3.062095 5.382844 -0.469115
-3.064452 5.389326 -0.317839
-3.081105 5.425000 -0.166192
-3.096987 5.459341 -0.014022
-0.002531 -0.361208 -0.013611
-3.340185 5.923820 0.317810
-3.370136 5.985140 0.488335
-4.096845 7.360569 0.801263
-4.197309 7.552845 1.033294
-5.668245 10.336179 1.686913
-4.906328 8.904737 1.708131
-4.489604 8.120287 1.793643
-0.267571 0.143130 -0.351309
-0.280759 0.168578 -0.349659
-0.305598 0.216019 -0.360103
-0.343988 0.289603 -0.382464
-0.436005 0.465108 -0.455170
-1.824406 3.113108 -1.760340
-1.926453 3.310475 -1.745143
-2.056571 3.560158 -1.742325
-2.193679 3.825061 -1.733530
-2.350693 4.126528 -1.725215
-2.527281 4.467758 -1.714157
-2.728533 4.856654 -1.701912
-2.966444 5.313958 -1.689953
-3.241281 5.844984 -1.672607
-3.572234 6.481486 -1.654423
-3.987363 7.283127 -1.638198
-4.537732 8.253703 -1.613632
-3.299986 5.904838 -1.009086
-3.361550 6.026754 -0.856695
-3.060181 5.458184 -0.627236
-3.064206 5.467906 -0.474356
-3.070215 5.483847 -0.321785
-3.083015 5.510333 -0.167895
-3.099626 5.546554 -0.013961
-3.307523 5.948015 0.151371
-3.350263 6.031837 0.322532
-4.123490 7.514482 0.607457
-4.055500 7.387239 0.801713
-4.153508 7.580775 1.033840
-5.673471 10.497171 1.707331
-4.917522 9.053080 1.730588
-4.445226 8.155082 1.795581
-0.264766 0.144992 -0.351290
-0.282606 0.179821 -0.355518
-0.304803 0.222814 -0.362900
-0.339526 0.290319 -0.381546
-0.429568 0.464795 -0.453436
-1.805218 3.125574 -1.761109
-1.906767 3.323220 -1.745869
-2.035680 3.575635 -1.743732
-2.171273 3.841355 -1.734847
-2.321334 4.133661 -1.722601
-2.500311 4.484328 -1.714697
-2.695800 4.867556 -1.700199
-2.929292 5.322742 -1.687357
-3.205497 5.863941 -1.672539
-3.531574 6.502961 -1.654348
-3.935652 7.294814 -1.635523
-4.487738 8.275805 -1.612898
-3.276618 5.948745 -1.012916
-3.356925 6.105777 -0.864516
-3.872586 7.105608 -0.798556
-3.061791 5.546074 -0.479038
-3.076093 5.575819 -0.325638
-3.084995 5.597625 -0.169645
-3.104133 5.639305 -0.013900
-0.002522 -0.360402 -0.013581
-3.349135 6.120643 0.326232
-4.068925 7.520740 0.606145
-4.020400 7.432786 0.804024
-4.145008 7.677340 1.043443
-5.679749 10.663862 1.728585
-5.024105 9.398344 1.789033
-4.384407 8.158200 1.790856
-0.263322 0.150010 -0.353311
-0.272253 0.167905 -0.346680
-0.300538 0.223423 -0.361941
-0.334845 0.291119 -0.380628
-0.427960 0.474149 -0.456837
-1.785937 3.137949 -1.761878
-1.885721 3.336509 -1.746593
-2.010609 3.584718 -1.742228
-2.147877 3.855881 -1.735480
-2.293779 4.146060 -1.721906
-2.472400 4.501169 -1.715235
-2.665662 4.883382 -1.700140
-2.890257 5.330082 -1.684253
-3.168721 5.880961 -1.672011
-3.491999 6.523578 -1.654276
-3.891492 7.317763 -1.635443
-4.439126 8.307941 -1.613780
-3.269096 6.024328 -1.021757
-4.276125 7.999075 -1.110172
-3.859019 7.189143 -0.804795
-3.066743 5.640401 -0.484976
-0.002507 -0.359988 -0.013565
-0.002507 -0.359988 -0.013565
-3.080415 5.678863 -0.013835
-3.090368 5.703163 0.144140
-3.366786 6.251187 0.332075
-4.022548 7.542660 0.606087
-3.980859 7.466844 0.805219
-4.160208 7.826148 1.059784
-5.693248 10.848656 1.752625
-5.032090 9.554220 1.812471
-4.340870 8.198478 1.793907
-0.265029 0.161121 -0.359414
-0.271570 0.174514 -0.349600
-0.296374 0.223961 -0.360982
-0.330287 0.291826 -0.379710
-0.424769 0.480221 -0.458526
-1.761870 3.142356 -1.758578
-1.861099 3.341103 -1.743463
-1.987014 3.594977 -1.741452
-2.121162 3.865572 -1.734061
-2.271192 4.166368 -1.724414
-2.443516 4.514014 -1.714584
-2.633635 4.897799 -1.699528
-2.858307 5.348765 -1.684697
-3.130764 5.898315 -1.671480
-3.448459 6.539341 -1.652953
-3.843247 7.335832 -1.634251
-4.390016 8.335534 -1.614017
-3.273965 6.128885 -1.035051
-4.220774 8.009755 -1.108231
-3.138330 5.867066 -0.664213
-3.058891 5.714127 -0.489236
-3.072010 5.742443 -0.332312
-3.092334 5.787708 -0.173510
-3.253664 6.113858 -0.013782
-3.556887 6.720122 0.170120
-3.367183 6.347629 0.336149
-3.989892 7.595302 0.608402
-3.983390 7.588636 0.815517
-0.002513 -0.359596 -0.013550
-0.002513 -0.359596 -0.013550
-4.986392 9.610769 1.817435
-4.324022 8.288745 1.807693
-0.259633 0.158456 -0.356333
-0.266062 0.171827 -0.346641
-0.290551 0.221352 -0.358144
-0.327213 0.295761 -0.380587
-0.415903 0.474954 -0.454225
-1.741689 3.152833 -1.758534
-1.839103 3.352489 -1.743416
-1.963390 3.605079 -1.740676
-2.095962 3.876435 -1.733326
-2.242573 4.174677 -1.722441
-2.414559 4.526701 -1.713932
-2.604174 4.914995 -1.700020
-2.824544 5.363783 -1.684128
-3.091233 5.909659 -1.669568
-3.409885 6.558887 -1.652882
-3.795887 7.348747 -1.632322
-4.336598 8.358286 -1.613278
-4.250217 8.187623 -1.355140
-4.171923 8.036829 -1.108375
-3.828906 7.352268 -0.816901
-3.072613 5.830344 -0.496846
-3.082786 5.855807 -0.337186
-3.097700 5.888228 -0.175581
-3.282001 6.265499 -0.013717
-3.380953 6.470866 0.163193
-3.384285 6.480116 0.342086
-3.973176 7.677556 0.613086
-0.002519 -0.359204 -0.013536
-0.002519 -0.359204 -0.013536
-5.652878 11.099943 1.781789
-4.928020 9.633512 1.816558
-4.307127 8.380887 1.821850
-0.251431 0.149482 -0.349172
-0.266157 0.179958 -0.350541
-0.290399 0.229707 -0.361880
-0.320400 0.291554 -0.376977
-0.412041 0.479268 -0.455059
-1.726859 3.172757 -1.763371
-1.817536 3.361447 -1.742600
-1.937955 3.609687 -1.737719
-2.070634 3.885093 -1.731909
-2.217210 4.187541 -1.722389
-2.386418 4.538778 -1.713282
-2.572178 4.924651 -1.698309
-2.792541 5.379869 -1.684066
-3.057045 5.928960 -1.669964
-3.369501 6.574691 -1.651980
-3.753632 7.372002 -1.632615
-4.284377 8.375679 -1.611895
-0.002504 -0.358790 -0.013520
-4.133721 8.078218 -1.110613
-3.771790 7.345293 -0.813851
-3.081828 5.937409 -0.503758
-3.086626 5.952292 -0.341221
-3.104017 5.990249 -0.177700
-3.295825 6.388366 -0.013650
-3.331344 6.466681 0.162661
-3.379290 6.567547 0.345696
-4.812452 9.515162 0.754320
-12.465295 25.234497 2.641803
-12.457843 25.239935 3.315145
-5.599179 11.153084 1.785236
-4.860041 9.636414 1.812114
-4.274553 8.438771 1.828971
-0.253740 0.162157 -0.356294
-0.260790 0.177154 -0.347582
-0.287009 0.231763 -0.361860
-0.319772 0.300207 -0.380546
-0.404696 0.477221 -0.452469
-1.704291 3.180060 -1.761699
-1.797703 3.375568 -1.744096
-1.915206 3.623180 -1.738398
-2.044617 3.896007 -1.731174
-2.189397 4.199299 -1.721695
-2.355673 4.549811 -1.712034
-2.543276 4.945432 -1.699902
-2.757621 5.394989 -1.683496
-3.023876 5.956183 -1.672201
-3.327091 6.595552 -1.651904
-3.703823 7.389854 -1.631422
-4.231431 8.395284 -1.610835
-3.219066 6.305174 -1.053493
-3.221750 6.313196 -0.878550
-3.222293 6.319741 -0.705261
-3.087708 6.045856 -0.510666
-3.092683 6.058579 -0.345719
-3.107030 6.093637 -0.179813
-3.305134 6.510933 -0.013579
-3.294588 6.491541 0.162871
-0.002493 -0.358371 -0.013504
-4.744279 9.524149 0.752885
-0.002493 -0.358371 -0.013504
-0.002493 -0.358371 -0.013504
-5.682163 11.502666 1.834615
-4.785266 9.637805 1.807029
-4.224803 8.469688 1.830172
-0.250650 0.164037 -0.356275
-0.260595 0.185385 -0.351481
-0.281985 0.230655 -0.359962
-0.312024 0.294409 -0.376038
-0.408249 0.497965 -0.461860
-1.683119 3.188550 -1.760841
-1.773143 3.381572 -1.741736
-1.891537 3.634887 -1.738349
-2.020885 3.909814 -1.731807
-2.163124 4.214327 -1.722281
-2.325689 4.562384 -1.711381
-2.509408 4.953437 -1.697638
-2.721781 5.408156 -1.682419
-2.985808 5.970368 -1.671211
-3.283670 6.607903 -1.650168
-3.659968 7.413245 -1.631713
-4.176042 8.413494 -1.609449
-3.241893 6.452765 -1.073465
-0.002500 -0.357979 -0.013490
-0.002500 -0.357979 -0.013490
-3.095266 6.157642 -0.517853
-3.093937 6.160237 -0.349936
-3.109802 6.199064 -0.181972
-0.002500 -0.357979 -0.013490
-3.304338 6.617995 0.165684
-4.513989 9.181539 0.478602
-4.674486 9.524637 0.750888
-6.946989 14.343790 1.503422
-6.943917 14.349417 1.888355
-5.645022 11.601839 1.845026
-4.716671 9.642364 1.802911
-4.174847 8.500314 1.831372
-0.250545 0.172104 -0.360336
-0.253766 0.179368 -0.346563
-0.281579 0.239060 -0.363698
-0.314306 0.309548 -0.383196
-0.397191 0.487590 -0.454992
-1.661269 3.197228 -1.759983
-1.757048 3.403821 -1.747086
-1.865384 3.639343 -1.735391
-1.997912 3.927239 -1.733809
-2.136762 4.227105 -1.722229
-2.298926 4.579559 -1.712517
-2.477049 4.966882 -1.697027
-2.690991 5.429385 -1.683876
-2.941670 5.974234 -1.667455
-3.242279 6.627668 -1.650095
-3.609669 7.426301 -1.629781
-4.125449 8.437809 -1.609362
-3.215716 6.502757 -1.078125
-3.697776 7.534990 -1.031030
-3.773476 7.703329 -0.843709
-3.081898 6.230504 -0.521968
-3.088497 6.247103 -0.353408
-3.114272 6.307846 -0.184224
-3.312512 6.738385 -0.013433
-0.002506 -0.357587 -0.013475
-4.517189 9.332716 0.485125
-4.603980 9.527250 0.749033
-6.876426 14.421238 1.507277
-5.854938 12.229795 1.609945
-5.592300 11.675019 1.851265
-4.682174 9.724247 1.812738
-4.123764 8.524574 1.831460
-0.240916 0.159908 -0.351135
-0.249102 0.178099 -0.344584
-0.275083 0.234688 -0.359922
-0.309583 0.310178 -0.382278
-0.395334 0.496826 -0.458393
-1.640018 3.205468 -1.759126
-1.729316 3.402835 -1.741644
-1.841557 3.648730 -1.734616
-1.969290 3.930530 -1.730339
-2.109530 4.238019 -1.721536
-2.268871 4.589643 -1.711270
-2.447944 4.984958 -1.698072
-2.659235 5.448701 -1.684827
-2.904335 5.989715 -1.666927
-3.204031 6.647848 -1.650440
-3.567779 7.450314 -1.630445
-4.065753 8.446399 -1.606355
-3.220958 6.618670 -1.093083
-3.643414 7.540933 -1.028862
-3.687243 7.642785 -0.835081
-3.091459 6.351841 -0.529850
-0.002491 -0.357173 -0.013459
-3.112590 6.405988 -0.186196
-3.299979 6.819522 -0.013359
-3.326821 6.884062 0.171635
-4.524627 9.496954 0.492301
-4.563594 9.590263 0.751919
-0.002491 -0.357173 -0.013459
-5.865871 12.446102 1.633527
-5.536092 11.736210 1.855832
-4.692266 9.896000 1.839099
-4.077435 8.559277 1.833769
-0.241591 0.169457 -0.356216
-0.251154 0.190985 -0.351422
-0.273966 0.241423 -0.362719
-0.303655 0.307383 -0.379566
-0.390414 0.499473 -0.458371
-1.623115 3.221628 -1.762336
-1.709808 3.416205 -1.743141
-1.819235 3.661357 -1.735296
-1.945323 3.941855 -1.730290
-2.083832 4.252200 -1.722124
-2.239579 4.601269 -1.710620
-2.418074 4.998947 -1.698014
-2.627349 5.467846 -1.685778
-2.866459 6.000903 -1.665479
-3.160443 6.659432 -1.648706
-3.519540 7.463956 -1.628886
-0.002497 -0.356781 -0.013444
-3.213915 6.707265 -1.103867
-3.587742 7.536237 -1.025537
-3.635927 7.649137 -0.833517
-3.100924 6.472957 -0.537732
-3.103757 6.485009 -0.363607
-3.118138 6.522537 -0.188631
-3.310172 6.949358 -0.013286
-0.002497 -0.356781 -0.013444
-3.979875 8.443665 0.437124
-4.573676 9.761435 0.763177
-5.796462 12.478946 1.300719
-5.801831 12.501779 1.636434
-5.479039 11.790791 1.859561
-4.655024 9.971804 1.847952
-4.021956 8.574041 1.832004
-0.239956 0.174373 -0.358237
-0.245144 0.186447 -0.347484
-0.267621 0.236944 -0.358943
-0.299076 0.307897 -0.378648
-0.385474 0.502099 -0.458349
-1.601107 3.229934 -1.761478
-1.687301 3.424705 -1.742324
-1.800597 3.682396 -1.739613
-1.919781 3.953727 -1.730239
-2.056490 4.262791 -1.721432
-2.210216 4.612739 -1.709969
-2.383926 5.008319 -1.696301
-2.585915 5.465595 -1.680652
-2.830268 6.021755 -1.666333
-3.117157 6.674900 -1.647801
-3.473878 7.486891 -1.629177
-0.002482 -0.356367 -0.013429
-3.493109 7.444291 -1.214277
-3.535731 7.542665 -1.023603
-3.580836 7.650325 -0.831394
-3.105912 6.593634 -0.545471
-3.107468 6.599844 -0.368472
-3.120004 6.633896 -0.190925
-3.404313 7.278013 -0.013200
-3.432388 7.344022 0.182517
-3.922642 8.452204 0.436463
-5.235003 11.411268 0.887493
-5.716964 12.506204 1.300096
-5.747829 12.580742 1.642361
-5.410875 11.832509 1.861068
-4.540052 9.878741 1.826324
-3.974432 8.606412 1.833943
-0.240274 0.184042 -0.363319
-0.243321 0.191475 -0.349424
-0.264096 0.238909 -0.358923
-0.295850 0.311683 -0.379525
-0.383276 0.511385 -0.461749
-1.578234 3.234469 -1.758994
-1.664849 3.435040 -1.742278
-1.772882 3.684861 -1.735928
-1.895685 3.966832 -1.730873
-2.028274 4.273591 -1.720738
-2.179933 4.624415 -1.709317
-2.354526 5.025890 -1.697346
-2.552867 5.484793 -1.681601
-2.792723 6.036555 -1.665806
-3.076632 6.693118 -1.647730
-3.425502 7.499970 -1.627618
-3.425937 7.411293 -1.407700
-3.437736 7.441126 -1.210582
-3.482409 7.549342 -1.021668
-3.517230 7.635368 -0.827599
-3.112402 6.717734 -0.553488
-3.112735 6.724643 -0.373800
-3.121852 6.751552 -0.193355
-3.369142 7.318008 -0.013124
-3.377808 7.344491 0.182084
-3.859064 8.450106 0.435246
-5.160744 11.426976 0.886485
-5.693063 12.654232 1.311923
-5.692429 12.664146 1.648757
-0.002488 -0.355975 -0.013414
-4.527600 10.011809 1.845556
-3.860674 8.491496 1.805513
-0.231675 0.173190 -0.355138
-0.238793 0.190039 -0.347445
-0.262780 0.245661 -0.361721
-0.292721 0.315392 -0.380402
-0.373983 0.504000 -0.456594
-1.561249 3.254237 -1.763830
-1.641538 3.441568 -1.740692
-1.751790 3.700543 -1.738063
-1.869272 3.976667 -1.730139
-2.002342 4.287325 -1.721327
-2.151204 4.637300 -1.709262
-2.320278 5.034864 -1.695633
-2.516916 5.494447 -1.680021
-2.755521 6.055194 -1.666200
-3.034743 6.711660 -1.647657
-3.375748 7.513317 -1.626058
-0.002473 -0.355561 -0.013399
-3.387480 7.452692 -1.209112
-3.424988 7.542310 -1.018112
-3.472732 7.659539 -0.827892
-3.113162 6.835338 -0.560944
-3.114727 6.841859 -0.378755
-3.124482 6.870753 -0.195832
-3.341776 7.380486 -0.013044
-3.362720 7.432117 0.183880
-3.798797 8.450546 0.434212
-5.100212 11.479753 0.888272
-5.600784 12.653425 1.308514
-5.602439 12.662407 1.644460
-5.199148 11.735569 1.836794
-4.494014 10.104161 1.857332
-3.856938 8.624126 1.828192
-0.226509 0.170195 -0.352058
-0.234856 0.190242 -0.346446
-0.257117 0.242738 -0.358884
-0.288022 0.315874 -0.379484
-0.371149 0.511519 -0.459138
-1.534739 3.250097 -1.757279
-1.619699 3.453344 -1.741416
-1.726949 3.707536 -1.736561
-1.842824 3.984303 -1.728722
-1.974102 4.295682 -1.719995
-2.123175 4.651750 -1.709804
-2.289210 5.048525 -1.695575
-2.484683 5.512820 -1.680972
-2.717801 6.069564 -1.665673
-2.996759 6.732497 -1.648419
-3.331757 7.532443 -1.625982
-3.296938 7.362662 -1.391661
-3.334687 7.454246 -1.206252
-3.261989 7.290607 -0.983486
-3.257344 7.286490 -0.787888
-3.120142 6.967362 -0.569516
-3.115768 6.963547 -0.383893
-3.130543 7.001252 -0.198586
-0.002479 -0.355169 -0.013384
-3.364105 7.564591 0.186797
-3.738652 8.450593 0.433178
-5.031182 11.507474 0.888241
-5.517178 12.659197 1.306026
-5.514188 12.663748 1.640627
-5.169536 11.860540 1.851384
-4.447827 10.158546 1.862616
-3.818151 8.677344 1.834575
-0.229570 0.186111 -0.361220
-0.233164 0.195141 -0.348386
-0.254456 0.246182 -0.359803
-0.284954 0.319515 -0.380361
-0.368938 0.520707 -0.462539
-1.520214 3.272508 -1.763743
-1.597703 3.461020 -1.740602
-1.700669 3.710922 -1.733604
-1.820013 3.998395 -1.730042
-1.946548 4.305635 -1.719303
-2.095044 4.666055 -1.710345
-2.258264 5.059848 -1.694968
-2.450120 5.525631 -1.680405
-2.683373 6.088639 -1.666531
-2.955895 6.750036 -1.648348
-3.285530 7.550078 -1.625535
-3.246133 7.363165 -1.388346
-3.286419 7.462190 -1.204508
-3.320724 7.550886 -1.014016
-3.363248 7.659387 -0.823650
-3.121634 7.086253 -0.577112
-3.115743 7.078895 -0.388754
-3.129033 7.117302 -0.200967
-0.002464 -0.354755 -0.013368
-3.138653 7.150100 0.175936
-3.678630 8.450246 0.432143
-4.944100 11.486058 0.884576
-5.429858 12.661735 1.303169
-5.426890 12.666326 1.637026
-5.089047 11.860340 1.847036
-4.392512 10.197108 1.864984
-3.767564 8.703193 1.835402
-0.222501 0.178282 -0.355080
-0.231970 0.201717 -0.351305
-0.246276 0.236599 -0.353211
-0.277664 0.313268 -0.375854
-0.361820 0.518197 -0.459950
-1.495904 3.275088 -1.760446
-1.574294 3.467150 -1.739015
-1.677227 3.721051 -1.733557
-1.794879 4.011245 -1.730675
-1.920411 4.318909 -1.719891
-2.065377 4.676666 -1.709695
-2.224633 5.070004 -1.693807
-2.415490 5.538248 -1.679837
-2.648050 6.112046 -1.668308
-2.907033 6.751547 -1.644535
-3.234851 7.560742 -1.623605
-3.200127 7.378480 -1.387622
-3.233945 7.467292 -1.202204
-3.270586 7.559263 -1.012547
-3.307913 7.656939 -0.821344
-3.129122 7.230476 -0.586515
-3.099526 7.161750 -0.391937
-3.131602 7.246537 -0.203671
-3.339225 7.758226 -0.012793
-3.388090 7.880404 0.193932
-3.649887 8.525246 0.434932
-4.914657 11.615232 0.892227
-5.338931 12.660930 1.299942
-5.340518 12.670156 1.633656
-5.032233 11.929181 1.852998
-4.334279 10.234338 1.867031
-3.207980 7.484441 1.582851
-0.218686 0.178390 -0.354041
-0.224736 0.193773 -0.345408
-0.248746 0.253159 -0.361641
-0.276382 0.321919 -0.379423
-0.357316 0.522392 -0.460783
-1.475020 3.286005 -1.761215
-1.553664 3.481963 -1.741281
-1.654408 3.734793 -1.734964
-1.768948 4.022217 -1.730625
-1.891945 4.328861 -1.719199
-2.035497 4.689228 -1.709640
-2.193853 5.087068 -1.694851
-2.383370 5.560062 -1.681800
-2.608923 6.126227 -1.667780
-2.864836 6.769055 -1.644463
-3.185639 7.574720 -1.622416
-3.149003 7.384916 -1.385276
-3.180011 7.468404 -1.199344
-3.216855 7.562353 -1.010383
-3.253600 7.660193 -0.819594
-3.273663 7.717109 -0.621701
-3.127639 7.360009 -0.400885
-3.140475 7.398802 -0.206928
-3.352517 7.930316 -0.012702
-3.336901 7.895205 0.193874
-3.680910 8.754616 0.445469
-4.849505 11.659377 0.893456
-5.248950 12.661356 1.296901
-5.251976 12.674375 1.630289
-5.062057 12.214570 1.891822
-4.276520 10.273060 1.869401
-3.203192 7.607654 1.604044
-0.218802 0.188031 -0.359121
-0.224164 0.201932 -0.349307
-0.243934 0.251701 -0.359743
-0.271162 0.320575 -0.377607
-0.351595 0.523152 -0.459906
-1.453339 3.291182 -1.759546
-1.528839 3.484380 -1.738154
-1.628099 3.737721 -1.732008
-1.741696 4.025463 -1.727841
-1.865648 4.341847 -1.719787
-2.004313 4.695949 -1.707798
-2.164868 5.103203 -1.695897
-2.347851 5.570500 -1.680726
-2.574127 6.144724 -1.668638
-2.823573 6.781716 -1.643563
-3.141319 7.592791 -1.622342
-3.266321 7.808317 -1.456825
-3.214958 7.683206 -1.229037
-3.163104 7.560861 -1.007756
-3.202214 7.666265 -0.818217
-3.238903 7.761593 -0.623576
-3.129005 7.493363 -0.406577
-3.143829 7.537918 -0.209859
-3.299546 7.932579 -0.012625
-3.334405 8.028006 0.196794
-3.650514 8.831756 0.448355
-4.758773 11.627329 0.889092
-5.166624 12.666800 1.294597
-5.169538 12.686316 1.628080
-5.025326 12.327736 1.904742
-4.224370 10.315500 1.872740
-3.204248 7.745158 1.628201
-0.214414 0.186475 -0.357062
-0.221604 0.205220 -0.350267
-0.235279 0.240338 -0.352213
-0.265319 0.317520 -0.374896
-0.345877 0.523872 -0.459028
-1.433651 3.303303 -1.761129
-1.506706 3.493528 -1.738109
-1.609265 3.759572 -1.737053
-1.717146 4.037560 -1.728476
-1.837902 4.351138 -1.719096
-1.975897 4.709586 -1.708340
-2.132007 5.112403 -1.694737
-2.313002 5.582514 -1.680159
-2.534547 6.154399 -1.667190
-2.782438 6.798257 -1.643493
-3.094795 7.609317 -1.621895
-3.216388 7.820033 -1.455451
-3.167167 7.698303 -1.228403
-3.161034 7.690291 -1.021587
-3.150897 7.671977 -0.816841
-3.187743 7.769360 -0.622662
-3.132595 7.636270 -0.412732
-3.147889 7.682887 -0.212928
-3.283828 8.033788 -0.012539
-3.332655 8.166648 0.199856
-3.641881 8.966530 0.454134
-4.673741 11.614017 0.886126
-5.079253 12.665172 1.291550
-5.082815 12.686630 1.624476
-4.970160 12.402986 1.911818
-4.164274 10.343710 1.873486
-3.208102 7.893915 1.654583
-0.212550 0.191291 -0.359083
-0.214607 0.197125 -0.344370
-0.238857 0.260185 -0.362520
-0.263382 0.324428 -0.377567
-0.342127 0.529606 -0.460717
-1.408636 3.301667 -1.756206
-1.485199 3.504258 -1.738835
-1.585552 3.769175 -1.737006
-1.691164 4.046019 -1.727744
-1.809412 4.358519 -1.717764
-1.946707 4.721285 -1.708286
-2.101181 5.126791 -1.695231
-2.280175 5.599741 -1.681112
-2.497033 6.169285 -1.667125
-2.741905 6.816392 -1.643838
-3.046092 7.620056 -1.620339
-3.167138 7.833290 -1.454401
-3.147171 7.785151 -1.238619
-3.151170 7.803249 -1.033331
-3.159082 7.831597 -0.830870
-3.164585 7.849420 -0.627183
-3.136798 7.785069 -0.419165
-3.152537 7.833763 -0.216135
-3.388406 8.450542 -0.012421
-3.347368 8.352188 0.204084
-4.070015 10.242944 0.517047
-4.626903 11.698855 0.890563
-4.994911 12.670425 1.289248
-4.990578 12.671536 1.619011
-4.910764 12.468766 1.917501
-4.104706 10.373420 1.874556
-3.215261 8.055833 1.683559
-0.209405 0.192903 -0.359063
-0.213296 0.203627 -0.347290
-0.235307 0.261955 -0.362500
-0.261998 0.333020 -0.381135
-0.332555 0.520121 -0.454707
-1.391449 3.322329 -1.761855
-1.463619 3.514872 -1.739561
-1.561788 3.778641 -1.736959
-1.666358 4.059897 -1.729062
-1.782252 4.369262 -1.717713
-1.917464 4.732803 -1.708233
-2.067964 5.137755 -1.694622
-2.244498 5.609550 -1.680039
-2.456913 6.180754 -1.666137
-2.700010 6.834766 -1.644183
-2.997367 7.634696 -1.619522
-3.152188 7.936659 -1.469229
-0.002442 -0.352333 -0.013277
-0.002442 -0.352333 -0.013277
-3.168385 7.998995 -0.845640
-3.183700 8.047560 -0.640477
-3.137977 7.930444 -0.425410
-3.160499 7.998054 -0.219662
-3.329745 8.454045 -0.012338
-0.002442 -0.352333 -0.013277
-4.001153 10.246043 0.516116
-4.642561 11.957976 0.907997
-4.909832 12.679707 1.287319
-4.910584 12.687423 1.617498
-4.849235 12.536980 1.923466
-4.034727 10.381343 1.871736
-3.224127 8.227293 1.714390
-0.206174 0.194515 -0.359044
-0.210599 0.206907 -0.348250
-0.231667 0.263720 -0.362480
-0.259801 0.339972 -0.383807
-0.335082 0.542747 -0.464951
-1.374089 3.340953 -1.766692
-1.440010 3.522156 -1.738745
-1.535393 3.780969 -1.734004
-1.639616 4.066298 -1.727645
-1.755702 4.381613 -1.718303
-1.887484 4.742374 -1.707583
-2.036983 5.151775 -1.695117
-2.208124 5.617326 -1.678460
-2.419273 6.195172 -1.666073
-2.657818 6.844610 -1.642869
-2.956105 7.660944 -1.621298
-3.142985 8.062848 -1.487944
-3.242863 8.334352 -1.315229
-0.002448 -0.351941 -0.013262
-0.002448 -0.351941 -0.013262
-3.176335 8.176463 -0.648618
-0.002448 -0.351941 -0.013262
-3.162517 8.151438 -0.222911
-3.311673 8.561599 -0.012246
-3.635406 9.443204 0.230412
-3.933111 10.250552 0.515277
-4.704613 12.344119 0.934934
-4.825211 12.675560 1.284268
-4.826440 12.691643 1.614589
-4.794135 12.617083 1.931379
-3.920017 10.255980 1.845873
-3.227710 8.389925 1.743370
-0.200160 0.187969 -0.353925
-0.210474 0.216649 -0.353128
-0.228209 0.265408 -0.362460
-0.254100 0.336756 -0.381095
-0.328683 0.541657 -0.463218
-1.354073 3.352620 -1.768276
-1.418999 3.532260 -1.739473
-1.513473 3.795404 -1.736139
-1.615437 4.079595 -1.728965
-1.728408 4.392053 -1.718252
-1.857480 4.751750 -1.706934
-2.005914 5.165621 -1.695611
-2.175027 5.633986 -1.679412
-2.382193 6.211227 -1.666470
-2.621738 6.879044 -1.646953
-2.906520 7.673181 -1.620111
-3.145568 8.215922 -1.511521
-3.196883 8.364429 -1.316818
-0.002454 -0.351549 -0.013247
-3.197216 8.377960 -0.879440
-3.188824 8.363651 -0.661074
-3.160993 8.291455 -0.441333
-3.166961 8.316415 -0.226435
-3.397344 8.956695 -0.012118
-3.619012 9.568920 0.233110
-3.915720 10.393571 0.521350
-4.738521 12.665726 0.956983
-4.741698 12.687497 1.282710
-4.743767 12.699066 1.612144
-4.682204 12.542450 1.916169
-0.002454 -0.351549 -0.013247
-3.231529 8.558430 1.773465
-0.197538 0.191153 -0.354926
-0.202951 0.206807 -0.346252
-0.223955 0.265470 -0.361502
-0.247575 0.331932 -0.377485
-0.323976 0.545694 -0.464051
-0.615173 1.358615 -0.821606
-1.394069 3.535795 -1.737116
-1.488221 3.802952 -1.735365
-1.590528 4.090994 -1.729600
-1.699615 4.400823 -1.717561
-1.827811 4.764880 -1.707475
-1.971527 5.170238 -1.693351
-2.138180 5.643539 -1.678339
-2.343698 6.223414 -1.665944
-2.580046 6.894433 -1.646884
-2.862239 7.695739 -1.621146
-0.002439 -0.351135 -0.013232
-3.171457 8.452044 -1.327027
-3.185568 8.500122 -1.110415
-3.170964 8.468371 -0.886409
-3.235680 8.652658 -0.681049
-3.167686 8.472156 -0.449243
-3.172822 8.495420 -0.230279
-3.206766 8.594275 -0.012083
-3.198993 8.581561 0.208190
-3.923185 10.616400 0.531349
-4.662123 12.689427 0.956816
-4.659150 12.694345 1.280776
-4.657557 12.703046 1.609237
-4.635775 12.647943 1.927982
-3.837404 10.418963 1.866507
-3.256990 8.798164 1.817643
-0.194972 0.194306 -0.355926
-0.199738 0.208352 -0.346233
-0.218628 0.262150 -0.358666
-0.244844 0.337088 -0.379260
-0.318812 0.547927 -0.464030
-0.598650 1.343558 -0.812632
-1.371664 3.544159 -1.737072
-1.461823 3.804806 -1.732410
-1.564306 4.098700 -1.728868
-1.670966 4.407359 -1.716230
-1.797687 4.773922 -1.706827
-1.940340 5.183709 -1.693846
-2.104273 5.657969 -1.678785
-2.304532 6.233510 -1.664959
-2.535058 6.900331 -1.644737
-2.808073 7.690228 -1.616630
-3.205738 8.706918 -1.590414
-3.657368 9.988697 -1.553039
-4.268325 11.729320 -1.507475
-3.225461 8.785470 -0.915828
-3.179786 8.660251 -0.680131
-3.168588 8.637626 -0.456409
-0.002445 -0.350743 -0.013217
-0.002445 -0.350743 -0.013217
-3.702255 10.179152 0.247341
-4.583153 12.699574 0.633559
-4.580991 12.699501 0.955671
-4.571423 12.685633 1.277354
-4.571128 12.698162 1.605396
-4.551007 12.646768 1.923915
-3.247116 8.930421 1.603434
-7.637879 21.512291 4.353107
-0.192956 0.199060 -0.357947
-0.200523 0.221402 -0.353070
-0.213950 0.260439 -0.356769
-0.240857 0.338896 -0.379239
-0.315403 0.555264 -0.466574
-0.585603 1.338839 -0.808538
-1.348606 3.550655 -1.736257
-1.439082 3.817080 -1.733819
-1.537892 4.108293 -1.728819
-1.644769 4.420890 -1.717459
-1.768777 4.786386 -1.707369
-1.909971 5.202796 -1.695992
-2.068995 5.668571 -1.678219
-2.264794 6.245627 -1.664433
-2.490731 6.911937 -1.643836
-2.760323 7.707139 -1.616554
-3.153541 8.725613 -1.590332
-3.592052 9.999400 -1.551276
-4.194118 11.740975 -1.505748
-3.265972 9.073385 -0.942274
-3.205843 8.909385 -0.697035
-0.002430 -0.350329 -0.013202
-3.187560 8.870457 -0.238378
-3.338114 9.316333 -0.011819
-0.002430 -0.350329 -0.013202
-4.495545 12.690251 0.631895
-4.489837 12.687215 0.952850
-4.487525 12.694060 1.275607
-4.489437 12.705864 1.603181
-4.466087 12.651429 1.920685
-3.247674 9.112314 1.631753
-0.002430 -0.350329 -0.013202
-0.191365 0.205459 -0.360988
-0.195441 0.218020 -0.350112
-0.209746 0.260422 -0.355810
-0.237928 0.344071 -0.381014
-0.308286 0.552369 -0.463986
-0.572355 1.332185 -0.803631
-1.325435 3.558992 -1.736212
-1.414922 3.827718 -1.734499
-1.511585 4.115700 -1.728088
-1.616444 4.430954 -1.717408
-1.738865 4.799016 -1.707910
-1.875503 5.206817 -1.693732
-2.035121 5.686622 -1.679677
-2.225525 6.255277 -1.663447
-2.449507 6.928400 -1.644183
-2.715130 7.727026 -1.617220
-3.095172 8.731495 -1.587980
-3.529846 10.012806 -1.550073
-4.122952 11.767919 -1.505872
-3.256756 9.230637 -0.955729
-3.176845 8.999869 -0.702243
-3.167233 8.981338 -0.471291
-3.377244 9.611106 -0.255871
-0.002436 -0.349937 -0.013187
-3.495585 9.976269 0.241458
-4.415544 12.709491 0.631635
-4.410850 12.701889 0.952122
-4.404672 12.697433 1.273485
-4.401745 12.702515 1.599574
-4.386074 12.662290 1.918567
-3.254811 9.314531 1.663641
-7.334095 21.459238 4.325300
-0.184894 0.197150 -0.354849
-0.192713 0.221184 -0.351072
-0.206228 0.262008 -0.355791
-0.235053 0.349213 -0.382788
-0.300216 0.545957 -0.459687
-0.564380 1.341056 -0.806043
-1.302339 3.565193 -1.735398
-1.390255 3.834429 -1.733726
-1.484668 4.121157 -1.726672
-1.587686 4.436996 -1.716078
-1.707389 4.803903 -1.706071
-1.844098 5.219730 -1.694228
-1.998506 5.693130 -1.678100
-2.188066 6.270228 -1.663844
-2.405711 6.937215 -1.642868
-2.669808 7.746657 -1.617886
-3.040947 8.743954 -1.586927
-3.470111 10.033361 -1.549981
-4.053733 11.793738 -1.506000
-3.168785 9.151392 -0.945998
-3.150692 9.101686 -0.708285
-0.002421 -0.349523 -0.013172
-0.002421 -0.349523 -0.013172
-3.411318 9.911016 -0.011560
-3.440475 10.009888 0.241875
-4.332085 12.710437 0.630530
-0.002421 -0.349523 -0.013172
-4.321319 12.698386 1.271177
-4.319615 12.707299 1.597126
-4.304836 12.668906 1.915890
-3.264654 9.532152 1.698128
-7.087089 21.133781 4.252466
-0.182266 0.200241 -0.355850
-0.186173 0.212726 -0.345176
-0.207641 0.278681 -0.364219
-0.230466 0.349248 -0.381870
-0.299539 0.561811 -0.466509
-0.553498 1.341201 -0.804389
-1.280915 3.576540 -1.736895
-1.366157 3.842749 -1.733681
-1.458909 4.130024 -1.726625
-1.560098 4.446459 -1.716028
-1.676527 4.810398 -1.704828
-1.811393 5.228840 -1.693621
-1.963072 5.703105 -1.677534
-2.147514 6.275711 -1.661938
-2.365508 6.956941 -1.644046
-2.623743 7.764171 -1.618182
-2.989159 8.763577 -1.587169
-3.407182 10.044157 -1.548501
-3.116922 9.168384 -1.180895
-3.135062 9.234226 -0.952220
-3.126570 9.212998 -0.715022
-3.135785 9.251592 -0.482546
-3.415990 10.121565 -0.267131
-3.429618 10.168583 -0.011431
-3.467402 10.296085 0.248508
-4.241959 12.689965 0.628397
-4.236151 12.678607 0.946890
-4.236884 12.695016 1.268495
-4.236395 12.707754 1.594212
-4.222443 12.671260 1.912657
-3.276371 9.763330 1.734890
-7.007381 21.311108 4.279693
-0.181208 0.208225 -0.359910
-0.183985 0.217521 -0.347115
-0.202396 0.275227 -0.361383
-0.222080 0.337343 -0.374673
-0.292093 0.557024 -0.463065
-0.544866 1.348244 -0.805988
-1.257165 3.580746 -1.735310
-1.342556 3.852737 -1.734362
-1.433098 4.138754 -1.726577
-1.530741 4.450347 -1.714058
-1.646778 4.820386 -1.704775
-1.777499 5.234087 -1.691912
