# This PCD file was generated using the MATLAB® pcwrite function
# from Computer Vision Toolbox®.
# .PCD v.7 - Point Cloud Data file format
VERSION .7
FIELDS x y z
SIZE 4 4 4
TYPE F F F
COUNT 1 1 1
WIDTH 1617
HEIGHT 1
VIEWPOINT 0 0 0 1 0 0 0
POINTS 1617
DATA ascii
2.805696 -3.094578 -1.930836
3.008906 -3.309313 -1.948528
3.198669 -3.510247 -1.944208
3.436836 -3.760927 -1.953427
3.703153 -4.042688 -1.962790
4.002117 -4.357569 -1.969888
4.365677 -4.742084 -1.985381
4.780307 -5.180713 -1.998754
5.290155 -5.718137 -2.020123
5.883792 -6.346164 -2.034813
0.000161 -0.161373 -0.006427
6.824294 -7.342576 -1.879467
10.007427 -10.608131 -2.392670
13.432400 -14.188657 -2.748563
15.633726 -16.499197 -2.661434
21.375914 -22.516050 -2.911955
27.446440 -28.875088 -2.809493
36.945248 -38.840252 -2.535037
0.000161 -0.161373 -0.006427
25.169325 -26.540234 -0.029719
25.069324 -26.454233 0.813795
22.378569 -23.640774 1.485410
22.022411 -23.283619 2.205930
24.671043 -26.074072 3.308496
20.233431 -21.428299 3.407292
0.000161 -0.161373 -0.006427
0.000161 -0.161373 -0.006427
14.116949 -15.026073 3.842364
0.401186 -0.584054 -0.352626
0.408892 -0.592489 -0.340861
0.441953 -0.627569 -0.348597
0.484004 -0.672352 -0.360433
2.793724 -3.115536 -1.934249
2.993232 -3.328845 -1.950143
3.179908 -3.527665 -1.944194
3.416031 -3.780275 -1.953413
3.682024 -4.064918 -1.963461
3.980466 -4.382920 -1.971158
4.343162 -4.770905 -1.987157
4.763167 -5.220366 -2.003713
5.262043 -5.752335 -2.021632
5.866730 -6.399396 -2.041272
6.504741 -7.082786 -2.031727
6.764067 -7.363925 -1.874624
9.947576 -10.662018 -2.392332
13.158076 -14.061155 -2.708848
15.599569 -16.646458 -2.671218
21.315022 -22.702690 -2.920738
27.372408 -29.129442 -2.818920
36.592861 -38.901783 -2.525681
0.000154 -0.160979 -0.006411
24.848206 -26.505383 -0.029555
24.277407 -25.909668 0.792585
22.027903 -23.540541 1.470991
22.542658 -24.104025 2.272015
21.402821 -22.909672 2.887448
0.000154 -0.160979 -0.006411
0.000154 -0.160979 -0.006411
15.648206 -16.823093 3.733999
14.052646 -15.129644 3.848279
0.399838 -0.587287 -0.353632
0.409887 -0.598334 -0.343788
0.437965 -0.628499 -0.347642
0.483403 -0.677422 -0.362215
2.773653 -3.129041 -1.932521
2.972440 -3.342964 -1.948499
3.169947 -3.556860 -1.950355
3.398308 -3.804164 -1.955585
3.663325 -4.089778 -1.965502
3.956629 -4.407454 -1.971785
4.319626 -4.800391 -1.988935
4.736559 -5.250135 -2.004804
5.234036 -5.788730 -2.023649
5.832032 -6.434100 -2.041721
6.510025 -7.168462 -2.045894
6.731826 -7.412444 -1.877212
9.870239 -10.704625 -2.388740
13.042613 -14.098714 -2.701567
15.546251 -16.786200 -2.678905
21.242065 -22.893841 -2.929148
27.323597 -29.413046 -2.831162
36.181042 -38.923592 -2.513120
25.614437 -27.622555 -0.902292
24.498302 -26.435553 -0.029362
24.639425 -26.605850 0.809655
21.997698 -23.787422 1.478348
21.717936 -23.495495 2.202213
21.320292 -23.084635 2.894100
0.000147 -0.160586 -0.006396
0.000147 -0.160586 -0.006396
0.000147 -0.160586 -0.006396
13.958241 -15.206595 3.846812
0.391541 -0.582862 -0.348510
0.407374 -0.600271 -0.343772
0.440057 -0.635796 -0.351387
0.488910 -0.688979 -0.368489
2.761419 -3.149868 -1.935933
2.962732 -3.369025 -1.954187
3.147812 -3.571966 -1.948797
3.382311 -3.828756 -1.958485
3.644454 -4.114553 -1.967543
3.938520 -4.436736 -1.974978
4.292825 -4.824797 -1.988920
4.709766 -5.279762 -2.005895
5.202837 -5.819809 -2.024143
0.000161 -0.160170 -0.006380
6.506597 -7.245781 -2.057558
6.705891 -7.468070 -1.881657
9.794605 -10.744964 -2.385147
12.980947 -14.193552 -2.705470
15.474512 -16.901310 -2.683092
21.209419 -23.122181 -2.942794
21.647699 -23.605286 -2.258287
21.667585 -23.643639 -1.516918
21.696190 -23.691505 -0.769963
21.752275 -23.760986 -0.026905
21.742367 -23.767166 0.718205
21.416153 -23.429653 1.448127
22.024950 -24.099903 2.247427
21.326750 -23.357639 2.913114
0.000161 -0.160170 -0.006380
0.000161 -0.160170 -0.006380
0.000161 -0.160170 -0.006380
13.848798 -15.261679 3.840551
0.394913 -0.591044 -0.353601
0.404825 -0.602214 -0.343757
0.443268 -0.644433 -0.356071
0.483433 -0.688758 -0.366677
2.747794 -3.169341 -1.938489
2.946096 -3.388850 -1.955802
3.129355 -3.590998 -1.949554
3.359861 -3.846406 -1.957742
3.617110 -4.131558 -1.965473
3.912544 -4.457549 -1.974321
4.269724 -4.853295 -1.990697
4.671538 -5.298689 -2.002566
5.177942 -5.857886 -2.027175
5.772665 -6.516906 -2.046778
6.490707 -7.312853 -2.065886
6.655812 -7.500048 -1.879785
9.724145 -10.790615 -2.382855
12.906785 -14.280175 -2.707416
15.427391 -17.044035 -2.691710
21.158709 -23.333260 -2.954193
27.325268 -30.108488 -2.867329
35.053650 -38.593033 -2.465506
38.666477 -42.584618 -1.375794
37.194424 -40.998753 -0.041699
21.542784 -23.822098 0.716095
21.433722 -23.719191 1.458521
21.097376 -23.366100 2.166569
21.411043 -23.728046 2.943752
0.000154 -0.159777 -0.006365
17.310799 -19.235344 3.597035
0.000154 -0.159777 -0.006365
13.756344 -15.334931 3.839088
0.393498 -0.594255 -0.354607
0.401031 -0.602907 -0.342761
0.435649 -0.641414 -0.352296
0.476700 -0.687231 -0.363966
2.729198 -3.183380 -1.937618
2.923772 -3.401301 -1.953343
3.106455 -3.606377 -1.947996
3.343561 -3.870826 -1.960641
3.595426 -4.153325 -1.966143
3.890251 -4.482436 -1.975590
4.242623 -4.877404 -1.990682
4.649571 -5.333686 -2.005866
5.142458 -5.884327 -2.026145
5.745040 -6.559795 -2.050000
6.491152 -7.393721 -2.078800
6.616021 -7.538171 -1.880141
9.651644 -10.837466 -2.380563
12.833205 -14.362696 -2.709080
15.385509 -17.199739 -2.701959
21.108864 -23.555578 -2.966529
27.384804 -30.522760 -2.891815
21.375458 -23.876781 -1.515764
0.000147 -0.159383 -0.006350
30.861994 -34.439899 -0.035860
23.973618 -26.807592 0.802914
21.204176 -23.737841 1.452101
20.907368 -23.424488 2.160774
21.695650 -24.310547 3.001518
21.312969 -23.901571 3.703985
0.000147 -0.159383 -0.006350
0.000147 -0.159383 -0.006350
13.679217 -15.425211 3.842054
0.381877 -0.585805 -0.346422
0.399708 -0.606039 -0.343726
0.427064 -0.636862 -0.347580
0.482067 -0.698821 -0.370240
2.714148 -3.201335 -1.939315
2.911130 -3.424500 -1.957401
3.089603 -3.626032 -1.949524
3.319631 -3.886858 -1.959169
3.574871 -4.176363 -1.967499
3.869065 -4.508615 -1.977499
4.217902 -4.904226 -1.991861
4.624782 -5.365743 -2.008061
5.114525 -5.919247 -2.028161
5.711947 -6.596752 -2.051373
6.468864 -7.455136 -2.085459
6.568198 -7.572496 -1.879012
9.582636 -10.880517 -2.378269
12.728763 -14.410860 -2.704312
15.377404 -17.382799 -2.717337
21.044165 -23.746983 -2.975866
27.364811 -30.853813 -2.908275
21.232058 -23.983442 -1.514993
38.390686 -43.268242 -1.383500
21.309185 -24.104406 -0.026844
21.385777 -24.199305 0.720093
21.868443 -24.759558 1.507524
20.677637 -23.436699 2.150835
20.799755 -23.590988 2.896544
21.690128 -24.603031 3.794100
0.000161 -0.158968 -0.006334
0.000161 -0.158968 -0.006334
13.587191 -15.498899 3.840961
0.388446 -0.597972 -0.354577
0.392417 -0.602791 -0.339788
0.427734 -0.642948 -0.350385
0.483585 -0.706628 -0.373819
2.698431 -3.219703 -1.941014
2.892261 -3.440823 -1.957385
3.071408 -3.646677 -1.951053
3.297452 -3.906088 -1.959154
3.557864 -4.203549 -1.970909
3.843184 -4.531096 -1.977484
4.193455 -4.933065 -1.993637
4.593451 -5.390443 -2.007493
5.086621 -5.956375 -2.030685
5.687610 -6.643765 -2.055981
6.415147 -7.478614 -2.081690
6.513728 -7.596504 -1.875653
9.508393 -10.924961 -2.375651
12.676606 -14.517687 -2.710729
15.314358 -17.518023 -2.724320
21.010468 -23.992041 -2.991006
27.326082 -31.167650 -2.923043
35.466835 -40.434635 -2.543390
0.000154 -0.158574 -0.006318
21.156401 -24.209814 -0.026815
21.729870 -24.879528 0.736763
21.818361 -24.998043 1.514244
20.898689 -23.959795 2.188173
20.983646 -24.073725 2.941395
21.573536 -24.763746 3.799195
0.000154 -0.158574 -0.006318
0.000154 -0.158574 -0.006318
13.479118 -15.559603 3.836178
0.370071 -0.581669 -0.340263
0.389857 -0.604637 -0.339772
0.424943 -0.644995 -0.350369
0.471037 -0.698217 -0.366614
2.680749 -3.234797 -1.940999
2.873311 -3.457022 -1.957370
3.048857 -3.661112 -1.949493
3.275817 -3.924612 -1.959138
3.534499 -4.223581 -1.970894
3.817922 -4.552772 -1.977468
4.164625 -4.955303 -1.993024
4.564503 -5.417862 -2.008030
5.056956 -5.989547 -2.032192
5.646334 -6.671608 -2.054578
6.358775 -7.498794 -2.077087
6.488786 -7.654297 -1.880839
9.434547 -10.965765 -2.372706
12.613241 -14.612422 -2.714907
15.232397 -17.626499 -2.727570
21.032452 -24.295408 -3.013811
27.233526 -31.423403 -2.932320
35.340546 -40.759876 -2.551024
37.714741 -43.518761 -1.377321
37.756916 -43.583256 -0.043124
30.765657 -35.567902 1.052727
21.822948 -25.293362 1.524644
21.491037 -24.920153 2.265325
20.837753 -24.184736 2.940303
19.150709 -22.255424 3.394217
16.825384 -19.579449 3.588227
14.910682 -17.381727 3.721496
13.410793 -15.660343 3.842098
0.386734 -0.605514 -0.357609
0.388423 -0.607787 -0.340737
0.426738 -0.652385 -0.354114
0.460907 -0.692411 -0.361208
2.661789 -3.248431 -1.940127
2.852480 -3.472240 -1.956540
3.032224 -3.682424 -1.951794
3.258907 -3.948684 -1.962037
3.510309 -4.244085 -1.970879
3.797492 -4.580027 -1.980018
4.140656 -4.983154 -1.994799
4.541959 -5.454679 -2.011882
5.027063 -6.022580 -2.033700
5.606315 -6.703122 -2.054101
6.302384 -7.521136 -2.072901
6.481247 -7.735564 -1.891599
9.359251 -11.004581 -2.369435
12.488431 -14.641639 -2.706504
15.179508 -17.769220 -2.736184
21.017839 -24.560575 -3.031752
27.195883 -31.756430 -2.948355
35.270283 -41.153160 -2.562907
37.481331 -43.754566 -1.377923
37.512943 -43.822792 -0.043123
36.095039 -42.187855 1.244508
29.978901 -35.091179 2.110907
21.124241 -24.790863 2.241978
21.086170 -24.764242 2.996040
17.890985 -21.043287 3.191852
16.725309 -19.696594 3.591567
0.000162 -0.157765 -0.006287
13.311076 -15.724965 3.839162
0.371797 -0.593005 -0.346359
0.386861 -0.611024 -0.341703
0.416913 -0.646458 -0.348458
0.455418 -0.692006 -0.359395
2.647467 -3.267427 -1.942681
2.835693 -3.491011 -1.958154
3.012453 -3.701355 -1.952550
3.239433 -3.969825 -1.963479
3.487919 -4.265279 -1.971548
3.773173 -4.602878 -1.980644
4.114030 -5.007975 -1.995380
4.510129 -5.478884 -2.011313
4.994449 -6.052513 -2.034191
5.576048 -6.743831 -2.056859
6.263678 -7.558816 -2.073718
6.475616 -7.814766 -1.902357
9.290880 -11.055020 -2.368443
12.389398 -14.694830 -2.703131
15.106927 -17.896391 -2.741998
21.036552 -24.877056 -3.055492
27.089714 -32.001797 -2.956643
0.000154 -0.157371 -0.006272
42.512066 -50.185696 -1.572522
42.551624 -50.268436 -0.048333
35.865726 -42.425270 1.245247
41.898190 -49.552784 2.972746
21.325191 -25.316568 2.278767
19.952007 -23.705170 2.853250
17.744755 -21.115234 3.187249
16.625311 -19.807304 3.594355
14.715166 -17.556015 3.722499
13.205999 -15.782932 3.834751
0.366032 -0.590730 -0.343280
0.373085 -0.599452 -0.331880
0.418725 -0.653778 -0.352203
0.447806 -0.688688 -0.355786
2.638189 -3.291455 -1.948663
2.808797 -3.496614 -1.952435
2.998534 -3.724797 -1.956394
3.218079 -3.987466 -1.963463
3.467337 -4.287172 -1.972902
3.749492 -4.624943 -1.981269
4.086872 -5.030478 -1.995363
4.482813 -5.506530 -2.012402
4.962666 -6.081419 -2.034683
5.542920 -6.778947 -2.058229
6.217239 -7.587263 -2.072032
6.470559 -7.895646 -1.913487
9.212064 -11.085219 -2.363868
12.309278 -14.764923 -2.703393
15.060084 -18.042376 -2.751541
21.005865 -25.121729 -3.071184
27.122053 -32.402576 -2.979710
0.000147 -0.156978 -0.006257
42.255161 -50.449486 -1.573354
42.264683 -50.497227 -0.048300
35.668976 -42.671982 1.246672
41.644806 -49.813129 2.974427
18.368776 -22.075176 1.975083
41.651951 -49.875942 6.003031
17.733282 -21.340038 3.206444
0.000147 -0.156978 -0.006257
14.626639 -17.648119 3.724779
13.155090 -15.899773 3.845472
0.375623 -0.606966 -0.354499
0.380590 -0.613217 -0.340690
0.412470 -0.651698 -0.349367
0.449325 -0.696324 -0.359364
0.487752 -0.742945 -0.367818
2.799430 -3.525460 -1.959750
2.976750 -3.740185 -1.955606
3.196485 -4.007514 -1.964175
3.445167 -4.310156 -1.974256
3.725337 -4.649614 -1.982535
4.063945 -5.061607 -1.998332
4.455877 -5.538564 -2.014595
4.932362 -6.116309 -2.036696
5.504772 -6.812806 -2.058674
6.174219 -7.627716 -2.072850
6.484478 -8.008870 -1.931677
9.152758 -11.142233 -2.364826
12.212255 -14.825109 -2.701137
14.980964 -18.157421 -2.755952
21.042526 -25.459297 -3.097724
27.108757 -32.777340 -2.999399
35.023968 -42.317623 -2.597407
41.981556 -50.729679 -1.574284
42.011234 -50.802105 -0.048321
35.482250 -42.947075 1.248775
31.181021 -37.787178 2.241453
18.272772 -22.224850 1.978835
20.393908 -24.804445 2.957722
17.583252 -21.415359 3.202076
0.000157 -0.156558 -0.006240
14.506977 -17.721493 3.721567
13.028943 -15.937700 3.835896
0.374047 -0.610102 -0.355504
0.378961 -0.616431 -0.341656
0.410642 -0.655102 -0.350291
0.441562 -0.693072 -0.355754
0.484268 -0.745423 -0.367802
2.781135 -3.542543 -1.960549
2.953102 -3.754521 -1.954045
3.175923 -4.028909 -1.965616
3.419997 -4.328073 -1.973554
3.697405 -4.669777 -1.981877
4.033555 -5.083759 -1.997719
4.424792 -5.563750 -2.014579
4.905467 -6.155568 -2.040234
5.472497 -6.851536 -2.060969
6.134797 -7.667297 -2.074083
0.000150 -0.156164 -0.006225
9.069836 -11.174636 -2.360253
12.125042 -14.891754 -2.700560
14.907945 -18.287025 -2.762231
21.046230 -25.771013 -3.120525
27.049587 -33.089779 -3.013736
35.011467 -42.814610 -2.615139
41.708633 -51.011494 -1.575309
41.755646 -51.087650 -0.048330
30.734482 -37.671791 1.088720
30.802818 -37.782505 2.230265
20.846964 -25.630568 2.274407
20.331039 -25.018217 2.969367
17.293392 -21.318930 3.172060
0.000150 -0.156164 -0.006225
14.405591 -17.804333 3.721587
12.945015 -16.026520 3.838866
0.369249 -0.609186 -0.353446
0.368613 -0.608732 -0.334775
0.404432 -0.652937 -0.347455
0.439589 -0.696591 -0.356637
0.480861 -0.747805 -0.367786
2.758132 -3.553847 -1.958088
2.935798 -3.775383 -1.956345
3.155925 -4.049615 -1.967056
3.401815 -4.354609 -1.976964
3.674922 -4.695014 -1.983785
4.008711 -5.110957 -1.999493
4.395993 -5.591731 -2.015666
4.868401 -6.180309 -2.039201
5.433843 -6.882543 -2.060951
6.092649 -7.703640 -2.074483
6.451580 -8.154137 -1.949105
8.993777 -11.210975 -2.356979
12.049959 -14.973239 -2.702777
14.802013 -18.370651 -2.761977
21.054014 -26.083071 -3.143698
27.053104 -33.483150 -3.035393
35.151566 -43.491467 -2.644106
41.447792 -51.290848 -1.576519
30.279751 -37.526382 -0.036949
30.539326 -37.874172 1.089514
29.966084 -37.193153 2.184990
0.000143 -0.155770 -0.006210
17.398594 -21.683569 2.558301
17.163755 -21.408480 3.170696
0.000143 -0.155770 -0.006210
14.303739 -17.886581 3.721608
12.854658 -16.101910 3.839256
0.366639 -0.610897 -0.353430
0.371448 -0.617247 -0.339663
0.402667 -0.656233 -0.348380
0.436474 -0.698704 -0.356621
0.475185 -0.747341 -0.366057
2.743081 -3.574980 -1.961330
2.913733 -3.790405 -1.955556
3.131109 -4.064424 -1.965582
3.378739 -4.375208 -1.977633
3.648713 -4.715706 -1.983768
3.976530 -5.129088 -1.997684
4.370623 -5.624053 -2.018411
4.844480 -6.221458 -2.043754
5.401065 -6.920945 -2.063246
6.052743 -7.742784 -2.075716
6.450724 -8.247624 -1.962835
8.917596 -11.246805 -2.353705
11.955747 -15.031174 -2.700799
14.985435 -18.814491 -2.816063
21.081306 -26.424026 -3.170236
27.049208 -33.873005 -3.056626
30.011904 -37.593407 -2.274522
29.859795 -37.430801 -1.145575
30.192799 -37.860531 -0.037053
30.045521 -37.703983 1.079565
17.989185 -22.653238 1.318678
17.762999 -22.378599 1.964939
17.219641 -21.714542 2.550205
18.121716 -22.860518 3.372178
0.000158 -0.155355 -0.006194
0.000158 -0.155355 -0.006194
12.796914 -16.218319 3.849610
0.353310 -0.599136 -0.343202
0.366612 -0.616249 -0.337686
0.397562 -0.655395 -0.346484
0.432221 -0.699413 -0.355707
0.485225 -0.766675 -0.376323
2.718792 -3.584603 -1.958055
2.899624 -3.815400 -1.960172
3.109678 -4.083472 -1.966295
3.355556 -4.395658 -1.978300
3.625906 -4.740707 -1.985675
3.950179 -5.154507 -1.998861
4.340231 -5.650255 -2.018946
4.813062 -6.253407 -2.045259
5.363229 -6.953051 -2.063689
6.000460 -7.766369 -2.072778
6.438057 -8.327467 -1.973220
8.844965 -11.286774 -2.351407
11.873555 -15.104053 -2.701618
0.000150 -0.154961 -0.006179
20.994015 -26.625725 -3.179937
27.133438 -34.379574 -3.088275
35.236877 -44.633339 -2.688716
0.000150 -0.154961 -0.006179
29.548210 -37.493881 -0.036584
35.284527 -44.775284 1.278186
17.891537 -22.796806 1.321091
20.285057 -25.835384 2.261208
17.007610 -21.701948 2.537129
17.914387 -22.867392 3.357878
0.000150 -0.154961 -0.006179
14.109593 -18.063278 3.724558
12.655590 -16.229542 3.834871
0.358170 -0.610239 -0.350335
0.367182 -0.622060 -0.340613
0.395767 -0.658660 -0.347408
0.430175 -0.702904 -0.356590
0.482805 -0.770484 -0.377165
2.704028 -3.607458 -1.962111
2.876220 -3.828731 -1.958610
3.088149 -4.102380 -1.967006
3.332633 -4.418067 -1.979654
3.598249 -4.759639 -1.985016
3.923654 -5.179796 -2.000038
4.307537 -5.675521 -2.018929
4.779041 -6.282158 -2.045749
5.327570 -6.990500 -2.065521
5.973211 -7.824594 -2.079016
6.452199 -8.445782 -1.992522
8.766073 -11.318514 -2.347481
11.795633 -15.187874 -2.704113
14.921507 -19.178886 -2.844938
20.898937 -26.819462 -3.188703
27.233723 -34.927532 -3.123022
0.000144 -0.154568 -0.006164
40.634575 -52.095703 -1.579373
29.311369 -37.649227 -0.036540
29.798204 -38.286209 1.086488
0.000144 -0.154568 -0.006164
17.268755 -22.285076 1.938721
19.114279 -24.668211 2.873886
17.368067 -22.437023 3.279352
19.100191 -24.677252 4.342070
14.039479 -18.192980 3.734270
12.612306 -16.365353 3.850024
0.357577 -0.614664 -0.352362
0.360130 -0.618318 -0.336674
0.390605 -0.657808 -0.345513
0.423639 -0.700799 -0.353879
0.485786 -0.781503 -0.382289
2.682981 -3.621128 -1.961279
2.857745 -3.849719 -1.960909
3.066947 -4.123181 -1.968446
3.305729 -4.433810 -1.978266
3.570867 -4.780500 -1.984999
3.894940 -5.204092 -2.000617
4.278020 -5.702876 -2.020016
4.746134 -6.314608 -2.047254
5.291662 -7.025308 -2.066890
5.932512 -7.863122 -2.080248
6.436695 -8.524454 -2.002535
8.696052 -11.365250 -2.346485
11.688234 -15.228544 -2.699338
14.827830 -19.291805 -2.848646
20.807381 -27.029211 -3.198965
27.195410 -35.293232 -3.141715
40.241005 -52.187717 -3.115712
40.269424 -52.262714 -1.577143
29.019142 -37.718884 -0.036429
29.245207 -38.039349 1.074464
28.903246 -37.623886 2.170406
17.776991 -23.208542 2.010908
16.533316 -21.611403 2.503596
17.108303 -22.374001 3.255118
18.874088 -24.676561 4.322701
0.000158 -0.154152 -0.006148
12.503934 -16.423901 3.846355
0.354912 -0.616320 -0.352346
0.360625 -0.624140 -0.339601
0.389840 -0.662455 -0.347377
0.421560 -0.704257 -0.354762
0.485457 -0.788196 -0.384844
2.665163 -3.639047 -1.962892
2.837534 -3.867181 -1.961664
3.044027 -4.140387 -1.968429
3.282160 -4.453876 -1.978933
3.545297 -4.802109 -1.985623
3.877343 -5.241240 -2.006569
4.251812 -5.734669 -2.022760
4.714087 -6.346061 -2.048758
5.257884 -7.063019 -2.069183
5.891557 -7.901441 -2.081480
6.419286 -8.601675 -2.012176
8.618113 -11.397538 -2.342884
11.560270 -15.241761 -2.689808
14.745129 -19.412771 -2.853986
20.711554 -27.225679 -3.208102
27.112566 -35.605759 -3.155619
0.000151 -0.153759 -0.006132
0.000151 -0.153759 -0.006132
0.000151 -0.153759 -0.006132
28.677294 -37.748882 1.061497
18.393589 -24.284937 1.389444
19.699612 -26.008085 2.245944
16.251432 -21.498293 2.479451
17.579102 -23.259102 3.370199
16.850096 -22.309225 3.887709
0.000151 -0.153759 -0.006132
12.389822 -16.468628 3.840105
0.349121 -0.613848 -0.349267
0.354759 -0.621633 -0.336642
0.381586 -0.657243 -0.342661
0.414064 -0.700580 -0.351152
0.482883 -0.792024 -0.385685
2.641749 -3.649557 -1.960431
2.816096 -3.883062 -1.961647
3.023264 -4.160420 -1.969868
3.260714 -4.476827 -1.980972
3.520756 -4.825065 -1.986887
3.841096 -5.253926 -2.002969
4.221892 -5.761753 -2.023847
4.678332 -6.372718 -2.048740
5.215674 -7.089663 -2.068238
5.852699 -7.942675 -2.083546
6.415360 -8.697824 -2.026275
8.544874 -11.435572 -2.340584
11.426550 -15.246124 -2.678880
14.402660 -19.191248 -2.808949
20.608116 -27.414019 -3.216302
27.167744 -36.104729 -3.185995
0.000144 -0.153365 -0.006117
0.000144 -0.153365 -0.006117
0.000144 -0.153365 -0.006117
29.129467 -38.800777 1.086634
17.935802 -23.967146 1.365120
19.488003 -26.037807 2.238784
16.044455 -21.479712 2.466562
17.363403 -23.249964 3.354287
16.937622 -22.692076 3.937889
0.000144 -0.153365 -0.006117
12.295693 -16.539274 3.840130
0.348534 -0.618193 -0.351293
0.356223 -0.628860 -0.340550
0.379731 -0.660448 -0.343585
0.411975 -0.703985 -0.352035
0.480288 -0.795831 -0.386526
2.625309 -3.670644 -1.963672
2.797869 -3.903264 -1.963945
3.000129 -4.177370 -1.969850
3.232755 -4.492685 -1.979583
3.493783 -4.844871 -1.986869
3.812780 -5.277111 -2.003547
4.189694 -5.787838 -2.024380
4.642440 -6.399154 -2.048720
5.177884 -7.124796 -2.069607
5.816872 -7.990997 -2.087280
6.416042 -8.804804 -2.042603
0.000158 -0.152950 -0.006101
11.319004 -15.289471 -2.674663
14.171469 -19.111200 -2.785134
20.516331 -27.619583 -3.226559
27.276144 -36.696560 -3.223971
0.000158 -0.152950 -0.006101
0.000158 -0.152950 -0.006101
41.217186 -55.477226 -0.050026
29.120182 -39.254555 1.094754
17.234198 -23.311520 1.321684
20.434198 -27.631939 2.366550
15.830927 -21.457447 2.453119
17.340286 -23.497471 3.375803
16.754028 -22.724958 3.926279
13.619449 -18.515484 3.735015
12.183561 -16.585732 3.834619
0.347811 -0.622618 -0.353320
0.349258 -0.624947 -0.336611
0.381953 -0.669394 -0.348270
0.406571 -0.703149 -0.350222
0.472280 -0.792373 -0.383083
2.603914 -3.683840 -1.962840
2.777743 -3.922379 -1.965472
2.979104 -4.197186 -1.971290
3.208819 -4.512345 -1.980250
3.470065 -4.869096 -1.988775
3.785465 -5.301659 -2.004722
4.157153 -5.811492 -2.024362
4.607536 -6.426942 -2.049209
5.141092 -7.158812 -2.070974
5.779951 -8.032421 -2.089761
0.000151 -0.152556 -0.006086
6.892256 -9.477271 -1.918698
11.196333 -15.306231 -2.666250
14.157842 -19.328779 -2.804698
20.498377 -27.937538 -3.249535
27.491493 -37.430691 -3.274615
0.000151 -0.152556 -0.006086
0.000151 -0.152556 -0.006086
40.963131 -55.801842 -0.050045
28.887671 -39.426239 1.094791
16.596376 -22.724285 1.282566
20.081865 -27.485071 2.343910
15.743545 -21.588446 2.458131
18.667747 -25.588919 3.663242
16.600351 -22.788712 3.920767
13.492209 -18.557402 3.728261
12.084106 -16.648853 3.833169
0.342128 -0.619995 -0.350241
0.346611 -0.626492 -0.336595
0.374890 -0.665422 -0.344494
0.405599 -0.707893 -0.352003
0.452722 -0.772701 -0.370215
2.591684 -3.708258 -1.968524
2.752308 -3.931461 -1.962365
2.955355 -4.211870 -1.970543
3.185529 -4.531312 -1.980917
3.444765 -4.889553 -1.989398
3.758898 -5.325402 -2.005897
4.128867 -5.838891 -2.026000
4.574677 -6.455326 -2.050204
5.103029 -7.188585 -2.071415
5.745037 -8.076846 -2.093076
0.000144 -0.152163 -0.006071
6.847058 -9.524776 -1.920628
11.046111 -15.278572 -2.650566
0.000144 -0.152163 -0.006071
20.491875 -28.255524 -3.273256
27.473261 -37.844418 -3.297379
0.000144 -0.152163 -0.006071
0.000144 -0.152163 -0.006071
40.723480 -56.127987 -0.050068
38.261856 -52.783627 1.463264
16.296253 -22.577003 1.268997
19.918385 -27.581846 2.342701
0.000144 -0.152163 -0.006071
18.351631 -25.452744 3.628851
16.630608 -23.097166 3.958206
13.384586 -18.625668 3.726997
11.986040 -16.707706 3.831351
0.339338 -0.621613 -0.350225
0.346854 -0.632365 -0.339521
0.369776 -0.664359 -0.342597
0.402304 -0.709870 -0.351986
0.448926 -0.775042 -0.370199
2.575865 -3.730582 -1.972579
2.731973 -3.950325 -1.963891
2.933759 -4.233978 -1.972711
3.162758 -4.554324 -1.982954
3.416861 -4.911641 -1.990021
3.733878 -5.357188 -2.009460
4.099523 -5.869136 -2.028190
4.539464 -6.487465 -2.051708
5.067986 -7.227821 -2.074168
0.000154 -0.151743 -0.006055
6.403908 -9.106584 -2.087497
0.000154 -0.151743 -0.006055
10.937634 -15.317735 -2.646066
0.000154 -0.151743 -0.006055
0.000154 -0.151743 -0.006055
0.000154 -0.151743 -0.006055
0.000154 -0.151743 -0.006055
0.000154 -0.151743 -0.006055
27.255068 -38.085804 -0.035717
17.669058 -24.762194 0.678083
16.720308 -23.458170 1.313322
17.506523 -24.563368 2.075370
15.821291 -22.229958 2.510595
38.120167 -53.387657 7.608763
16.524166 -23.236883 3.965442
13.280708 -18.719490 3.729609
11.899567 -16.800980 3.836175
0.333627 -0.618962 -0.347145
0.340025 -0.628285 -0.335582
0.365789 -0.664645 -0.341642
0.397000 -0.708875 -0.350174
0.441136 -0.771327 -0.366755
0.491269 -0.842076 -0.384028
2.710050 -3.965595 -1.963873
2.911269 -4.251933 -1.973421
3.139523 -4.575131 -1.984306
3.392691 -4.935462 -1.991925
3.704943 -5.379759 -2.010037
4.066525 -5.892251 -2.028170
4.508495 -6.520990 -2.054226
5.027128 -7.256511 -2.074148
5.666380 -8.166030 -2.098873
6.398724 -9.208718 -2.102708
0.000147 -0.151349 -0.006039
10.837461 -15.362345 -2.642964
13.363600 -18.922056 -2.711325
11.537129 -16.368717 -1.875571
11.552782 -16.396906 -1.412695
0.000147 -0.151349 -0.006039
0.000147 -0.151349 -0.006039
17.139736 -24.298910 -0.024826
16.815638 -23.860125 0.650348
27.329487 -38.712921 2.168016
19.430223 -27.577606 2.322864
15.591491 -22.175623 2.494205
37.845112 -53.651283 7.615288
19.180134 -27.275696 4.641294
0.000147 -0.151349 -0.006039
11.792169 -16.852751 3.832513
0.332921 -0.623274 -0.349172
0.334273 -0.625547 -0.332624
0.364867 -0.669222 -0.343506
0.389677 -0.704898 -0.346564
0.437559 -0.773454 -0.366739
0.499866 -0.862444 -0.393788
2.692275 -3.986782 -1.966942
2.888681 -4.269747 -1.974131
3.113983 -4.592747 -1.984287
3.363971 -4.952992 -1.991265
3.673667 -5.399053 -2.009421
4.037800 -5.921476 -2.030360
4.471720 -6.546463 -2.054206
4.991694 -7.292922 -2.076439
5.629079 -8.210966 -2.102188
6.389185 -9.306263 -2.116804
6.919868 -9.978868 -1.988589
10.728012 -15.393342 -2.637625
0.000161 -0.150934 -0.006023
11.523667 -16.548548 -1.888636
0.000161 -0.150934 -0.006023
17.027674 -24.408102 -1.406934
17.046995 -24.453979 -0.714059
16.946430 -24.319838 -0.024732
26.662868 -38.206196 1.043314
26.927063 -38.612324 2.153632
15.929212 -22.912111 1.918941
15.487214 -22.297297 2.497927
16.830975 -24.237041 3.411312
16.833401 -24.249737 4.106270
13.086329 -18.899527 3.735483
11.703673 -16.931261 3.835125
0.333132 -0.629026 -0.352220
0.337492 -0.635661 -0.338493
0.362871 -0.672374 -0.344430
0.389540 -0.711132 -0.349243
0.426745 -0.765180 -0.360726
0.494732 -0.863394 -0.392957
2.668025 -3.998800 -1.965380
2.864900 -4.285925 -1.974112
3.089425 -4.611746 -1.984953
3.340571 -4.978117 -1.993812
3.646641 -5.424429 -2.011192
4.004492 -5.944241 -2.030340
4.433708 -6.570122 -2.053677
4.959320 -7.333964 -2.080117
5.589217 -8.252524 -2.104668
6.403257 -9.439602 -2.139074
6.841735 -9.987386 -1.982381
10.599345 -15.395944 -2.627531
11.404598 -16.566605 -2.352818
20.474506 -29.644512 -3.378601
0.000154 -0.150540 -0.006008
0.000154 -0.150540 -0.006008
0.000154 -0.150540 -0.006008
16.892351 -24.539959 -0.024793
16.523270 -24.025099 0.649695
15.973138 -23.247723 1.285760
0.000154 -0.150540 -0.006008
15.034599 -21.915430 2.445004
16.328619 -23.806700 3.336951
16.640366 -24.267607 4.093005
17.244400 -25.162046 4.965461
11.619112 -17.015787 3.839213
0.321607 -0.617778 -0.343012
0.329751 -0.630019 -0.333573
0.358863 -0.672596 -0.343474
0.386289 -0.712981 -0.349228
0.428302 -0.774683 -0.364994
0.490482 -0.865928 -0.392941
2.647897 -4.016751 -1.966905
2.844178 -4.306580 -1.976279
3.066068 -4.634262 -1.986989
3.311641 -4.995311 -1.993150
3.612969 -5.440220 -2.009381
3.970039 -5.967503 -2.030320
4.399932 -6.599945 -2.055179
4.927564 -7.378946 -2.084719
5.547652 -8.294845 -2.107148
6.369029 -9.507906 -2.146111
6.782725 -10.022979 -1.981707
10.476205 -15.410810 -2.619395
14.343256 -21.052107 -2.982224
20.513744 -30.067011 -3.413351
0.000147 -0.150146 -0.005993
0.000147 -0.150146 -0.005993
0.000147 -0.150146 -0.005993
25.819796 -37.905838 -0.034922
16.314400 -24.015480 0.646885
16.602779 -24.455790 1.348014
17.967855 -26.474266 2.202422
14.962419 -22.087761 2.454447
16.109316 -23.778463 3.319890
16.433424 -24.272198 4.077245
17.217880 -25.442986 5.001026
11.504121 -17.055998 3.833338
0.324622 -0.627812 -0.349124
0.326915 -0.631548 -0.333557
0.358727 -0.678699 -0.346278
0.380941 -0.711899 -0.347414
0.423580 -0.775311 -0.364121
0.487386 -0.869841 -0.393739
2.626960 -4.035062 -1.968431
2.819458 -4.322988 -1.976260
3.035987 -4.645215 -1.984229
3.286011 -5.019186 -1.995055
3.586847 -5.469081 -2.012346
3.941842 -5.997838 -2.033062
4.363734 -6.628756 -2.056174
4.885859 -7.406795 -2.084696
5.505006 -8.332762 -2.108794
6.351211 -9.597848 -2.158348
6.726250 -10.065908 -1.982334
10.368120 -15.441003 -2.614334
0.000161 -0.149731 -0.005977
20.480993 -30.402151 -3.437625
0.000161 -0.149731 -0.005977
0.000161 -0.149731 -0.005977
0.000161 -0.149731 -0.005977
0.000161 -0.149731 -0.005977
25.999214 -38.671104 1.043636
15.503158 -23.137249 1.269472
17.847198 -26.623213 2.206333
14.823609 -22.154982 2.452452
15.974388 -23.881462 3.321080
16.222363 -24.259212 4.059271
17.124811 -25.619926 5.016568
11.429928 -17.162701 3.842226
0.321855 -0.629281 -0.349108
0.322183 -0.630136 -0.331580
0.355673 -0.680356 -0.346262
0.375707 -0.710715 -0.345602
0.420084 -0.777261 -0.364105
0.488301 -0.879832 -0.397797
2.603512 -4.048196 -1.967639
2.798186 -4.341354 -1.977697
3.013162 -4.666925 -1.986265
3.259799 -5.038653 -1.995677
3.554957 -5.485461 -2.011132
3.914468 -6.029661 -2.036356
4.329620 -6.655851 -2.057168
4.842894 -7.432804 -2.084212
5.464638 -8.371121 -2.110856
6.297255 -9.631138 -2.157952
6.677795 -10.117213 -1.984913
10.223675 -15.416154 -2.600045
13.450516 -20.250208 -2.845497
20.427055 -30.699648 -3.457970
0.000154 -0.149337 -0.005962
0.000154 -0.149337 -0.005962
0.000154 -0.149337 -0.005962
38.618587 -58.040470 -0.049872
25.908903 -39.017788 1.049061
16.171074 -24.418482 1.335590
15.016309 -22.702738 1.871523
15.646091 -23.657804 2.610628
0.000154 -0.149337 -0.005962
17.314369 -26.204401 4.370488
16.940847 -25.652252 5.004334
11.334751 -17.225855 3.842258
0.315365 -0.624941 -0.345008
0.324299 -0.638798 -0.336468
0.346853 -0.673105 -0.340606
0.372582 -0.712387 -0.345585
0.416445 -0.779284 -0.364089
0.485088 -0.883758 -0.398595
2.579664 -4.059194 -1.966076
2.775001 -4.358575 -1.978407
2.989145 -4.686957 -1.987616
3.233665 -5.060113 -1.996939
3.526261 -5.508638 -2.012305
3.878424 -6.048495 -2.035230
4.293135 -6.681898 -2.057654
4.804065 -7.465056 -2.085576
5.422187 -8.412820 -2.113335
6.247331 -9.677813 -2.160157
6.619859 -10.150646 -1.984236
10.061307 -15.362044 -2.581002
13.324918 -20.304712 -2.842662
0.000147 -0.148944 -0.005946
0.000147 -0.148944 -0.005946
0.000147 -0.148944 -0.005946
0.000147 -0.148944 -0.005946
38.425407 -58.475281 -0.049963
25.657366 -39.109684 1.047716
16.237513 -24.824568 1.352908
14.988119 -22.943485 1.884417
15.507436 -23.751482 2.610850
16.755497 -25.661037 3.543889
15.788238 -24.206814 4.019723
16.778402 -25.735415 5.001143
11.215772 -17.259192 3.835279
0.318182 -0.635036 -0.351119
0.321395 -0.640303 -0.336452
0.343741 -0.674747 -0.340590
0.371183 -0.717181 -0.347366
0.406780 -0.772254 -0.358932
0.478852 -0.883079 -0.396950
2.562457 -4.083306 -1.970689
2.752007 -4.377685 -1.979845
2.963983 -4.705271 -1.988281
3.203437 -5.077223 -1.996277
3.495436 -5.530666 -2.012881
3.847512 -6.075180 -2.036866
4.257454 -6.711722 -2.059155
4.767137 -7.500372 -2.087865
5.378751 -8.450082 -2.114980
6.194493 -9.716522 -2.160874
6.566863 -10.199269 -1.986165
9.985423 -15.437592 -2.584048
13.296259 -20.522766 -2.862217
0.000140 -0.148550 -0.005931
0.000140 -0.148550 -0.005931
0.000140 -0.148550 -0.005931
0.000140 -0.148550 -0.005931
38.180462 -58.836037 -0.049996
35.966061 -55.475071 1.484585
15.433478 -23.908102 1.297433
14.449151 -22.401484 1.832609
36.046009 -55.705898 6.130615
15.981360 -24.799435 3.410844
15.668836 -24.326843 4.024751
50.316921 -77.852547 15.143322
11.114065 -17.325026 3.835310
0.310711 -0.629237 -0.345997
0.316670 -0.638812 -0.334474
0.342611 -0.679290 -0.342454
0.365954 -0.715916 -0.345553
0.405130 -0.777232 -0.360630
0.470538 -0.879355 -0.393675
2.535738 -4.091413 -1.967582
2.730622 -4.397767 -1.982011
2.938914 -4.725549 -1.989632
3.176020 -5.096784 -1.996898
3.464367 -5.550320 -2.012860
3.814360 -6.100731 -2.037949
4.220614 -6.737374 -2.059640
4.727624 -7.534685 -2.089692
5.336782 -8.492977 -2.117875
6.142899 -9.760992 -2.162707
6.511004 -10.239843 -1.986790
9.870919 -15.459554 -2.577866
13.293823 -20.777271 -2.887134
0.000155 -0.148135 -0.005915
0.000155 -0.148135 -0.005915
0.000155 -0.148135 -0.005915
0.000155 -0.148135 -0.005915
38.425961 -59.986725 -0.050613
35.252613 -55.066696 1.468172
15.034278 -23.587540 1.275138
14.294269 -22.451130 1.829744
16.228174 -25.488331 2.782358
15.777020 -24.793606 3.397484
15.583797 -24.510759 4.040030
0.000155 -0.148135 -0.005915
11.029778 -17.411533 3.840510
0.304152 -0.624871 -0.341896
0.309054 -0.632949 -0.329555
0.341358 -0.683882 -0.344318
0.361625 -0.716163 -0.344638
0.400547 -0.777611 -0.359757
0.457492 -0.867788 -0.386327
2.516264 -4.112205 -1.970649
2.708091 -4.416174 -1.983448
2.914520 -4.745164 -1.990982
3.152521 -5.122608 -2.000085
3.438294 -5.577854 -2.015824
3.785153 -6.130322 -2.040689
4.184658 -6.764446 -2.060633
4.689158 -7.567972 -2.091518
5.294266 -8.528873 -2.119519
6.101691 -9.814704 -2.167140
6.458422 -10.289557 -1.989043
9.758097 -15.477343 -2.571405
13.302299 -21.061550 -2.915781
0.000147 -0.147741 -0.005900
0.000147 -0.147741 -0.005900
0.000147 -0.147741 -0.005900
0.000147 -0.147741 -0.005900
0.000147 -0.147741 -0.005900
35.502922 -56.184891 1.492588
15.122472 -24.026075 1.294389
14.193336 -22.576509 1.833377
15.513653 -24.672691 2.683123
34.590717 -54.874023 7.523918
15.153462 -24.140812 3.964146
16.515158 -26.307259 5.056826
10.932296 -17.477669 3.841282
0.306076 -0.633424 -0.346986
0.309123 -0.638692 -0.332481
0.341181 -0.689858 -0.347122
0.361284 -0.722323 -0.347318
0.397018 -0.779442 -0.359740
0.450558 -0.865281 -0.383867
2.494060 -4.125819 -1.970630
2.682235 -4.427671 -1.981970
2.891781 -4.765755 -1.993017
3.123683 -5.138130 -1.999422
3.408927 -5.598189 -2.016399
3.753699 -6.154248 -2.041773
4.147640 -6.787313 -2.060610
4.648673 -7.595295 -2.091956
5.256676 -8.572865 -2.123247
6.055924 -9.861570 -2.170085
6.415335 -10.346786 -1.993247
9.645988 -15.489278 -2.564382
13.316325 -21.343674 -2.944658
0.000140 -0.147348 -0.005885
0.000140 -0.147348 -0.005885
0.000140 -0.147348 -0.005885
0.000140 -0.147348 -0.005885
36.296810 -58.105915 -0.048741
35.287022 -56.537792 1.496823
14.715532 -23.672756 1.270717
14.072085 -22.661797 1.833971
16.311375 -26.254923 2.846665
15.846807 -25.531311 3.474511
14.943761 -24.103657 3.944237
0.000140 -0.147348 -0.005885
10.838486 -17.543032 3.842425
0.294189 -0.620169 -0.336757
0.308124 -0.643018 -0.334426
0.330599 -0.679409 -0.339585
0.352315 -0.714874 -0.341911
0.390397 -0.776776 -0.357154
0.442441 -0.861322 -0.380592
2.474029 -4.144403 -1.972925
2.654821 -4.439942 -1.980492
2.864330 -4.782420 -1.992995
3.095011 -5.157778 -2.000042
3.377513 -5.619547 -2.016974
3.722016 -6.182558 -2.043960
4.114242 -6.821293 -2.063633
4.612537 -7.635615 -2.095631
5.211276 -8.614388 -2.125724
6.006760 -9.914719 -2.173774
6.366887 -10.399929 -1.996474
9.533890 -15.512192 -2.558757
13.312334 -21.610355 -2.970969
19.122301 -31.002243 -3.415415
0.000150 -0.146928 -0.005869
0.000150 -0.146928 -0.005869
0.000150 -0.146928 -0.005869
37.810188 -61.326065 -0.050870
0.000150 -0.146928 -0.005869
14.724723 -24.000639 1.283813
13.994828 -22.836168 1.841480
14.634483 -23.891991 2.578762
15.706333 -25.641397 3.476866
14.791001 -24.174599 3.941510
0.000150 -0.146928 -0.005869
10.735082 -17.606621 3.842461
0.300354 -0.636175 -0.346954
0.305175 -0.644436 -0.334410
0.330205 -0.685471 -0.342389
0.351749 -0.721113 -0.344590
0.388539 -0.781762 -0.358851
0.437365 -0.861900 -0.379761
2.460828 -4.175946 -1.981397
2.632198 -4.460000 -1.982658
2.844413 -4.809687 -1.997771
3.065204 -5.175673 -2.000021
3.344986 -5.639086 -2.016952
3.689201 -6.206769 -2.045042
4.074570 -6.845181 -2.063610
4.571352 -7.664983 -2.096531
5.169528 -8.655568 -2.128618
5.956514 -9.958838 -2.175977
6.324507 -10.467402 -2.002306
9.426618 -15.536051 -2.553692
13.317470 -21.905434 -3.000778
0.000143 -0.146534 -0.005853
0.000143 -0.146534 -0.005853
0.000143 -0.146534 -0.005853
0.000143 -0.146534 -0.005853
37.634312 -61.832630 -0.050996
34.874031 -57.353741 1.507781
14.500820 -23.952393 1.276594
16.333487 -26.971928 2.170594
15.890711 -26.265482 2.827194
14.235970 -23.564245 3.181617
14.781986 -24.472252 3.976469
0.000143 -0.146534 -0.005853
10.614990 -17.642715 3.836591
0.300201 -0.641908 -0.350001
0.301402 -0.644290 -0.333413
0.327990 -0.688491 -0.343314
0.349356 -0.724259 -0.345472
0.380203 -0.775853 -0.354551
0.427582 -0.854616 -0.374857
0.484958 -0.950418 -0.398784
2.607308 -4.474691 -1.982638
2.820423 -4.830413 -1.999806
3.035215 -5.191215 -1.999358
3.315249 -5.661144 -2.018124
3.657204 -6.232461 -2.046677
4.037905 -6.871464 -2.064602
4.527975 -7.690784 -2.096507
5.126452 -8.694883 -2.131095
5.896866 -9.987532 -2.174834
6.316019 -10.587689 -2.018551
9.317341 -15.555786 -2.548066
13.321337 -22.195610 -3.030120
0.000158 -0.146119 -0.005837
0.000158 -0.146119 -0.005837
0.000158 -0.146119 -0.005837
0.000158 -0.146119 -0.005837
0.000158 -0.146119 -0.005837
34.674938 -57.770817 1.513602
0.000158 -0.146119 -0.005837
14.963884 -25.043770 2.007209
15.698015 -26.286140 2.819675
14.203090 -23.815788 3.204766
0.000158 -0.146119 -0.005837
0.000158 -0.146119 -0.005837
10.512047 -17.699772 3.835889
0.291164 -0.632896 -0.342837
0.298532 -0.645613 -0.333397
0.322158 -0.685411 -0.340477
0.342348 -0.719734 -0.341862
0.379350 -0.782284 -0.357105
0.424285 -0.858329 -0.375656
0.477498 -0.948029 -0.396451
2.583271 -4.490851 -1.983346
2.789696 -4.841823 -1.997729
3.010942 -5.216356 -2.002543
3.288309 -5.687946 -2.021086
3.620033 -6.252010 -2.046102
4.000082 -6.895881 -2.065086
4.484113 -7.718799 -2.096945
5.077631 -8.728114 -2.131903
5.847365 -10.037174 -2.178151
0.000151 -0.145725 -0.005822
9.197330 -15.562784 -2.540204
13.325367 -22.491646 -3.060159
18.644119 -31.436115 -3.426854
0.000151 -0.145725 -0.005822
0.000151 -0.145725 -0.005822
0.000151 -0.145725 -0.005822
0.000151 -0.145725 -0.005822
0.000151 -0.145725 -0.005822
0.000151 -0.145725 -0.005822
16.584553 -28.114441 2.247568
14.441245 -24.519459 2.619493
14.126280 -23.997629 3.218444
0.000151 -0.145725 -0.005822
0.000151 -0.145725 -0.005822
10.421795 -17.778219 3.839986
0.283911 -0.626798 -0.337714
0.295565 -0.646970 -0.333381
0.322539 -0.692989 -0.344221
0.340757 -0.724424 -0.343643
0.376585 -0.785622 -0.357946
0.419253 -0.858779 -0.374824
0.477403 -0.958399 -0.400295
2.562916 -4.513288 -1.986968
2.759752 -4.852548 -1.995652
2.981691 -5.233212 -2.002521
3.256330 -5.706396 -2.021064
3.584808 -6.272354 -2.046078
3.969933 -6.933429 -2.069631
4.444360 -7.750809 -2.098768
5.036516 -8.767772 -2.134796
5.790045 -10.065888 -2.177380
6.296633 -10.835175 -2.052018
9.093311 -15.589504 -2.535975
13.329515 -22.802763 -3.091830
0.000143 -0.145331 -0.005807
27.166592 -46.379444 -3.789101
0.000143 -0.145331 -0.005807
0.000143 -0.145331 -0.005807
37.199608 -63.582928 -0.051519
34.293976 -58.675236 1.526967
0.000143 -0.145331 -0.005807
14.918666 -25.638098 2.041178
14.352167 -24.680111 2.628213
13.698982 -23.582499 3.151711
34.447067 -59.127937 9.550485
0.000143 -0.145331 -0.005807
10.291368 -17.788296 3.829320
0.284672 -0.633924 -0.341783
0.288380 -0.640674 -0.328461
0.315913 -0.688289 -0.340445
0.336612 -0.724380 -0.342728
0.370172 -0.782688 -0.355359
0.416047 -0.862367 -0.375623
0.472840 -0.960666 -0.400279
2.535847 -4.524354 -1.985489
2.737279 -4.876115 -1.999057
2.954230 -5.253182 -2.003782
3.224249 -5.724657 -2.021041
3.553300 -6.299161 -2.048265
3.930761 -6.955791 -2.069607
4.404346 -7.782646 -2.100593
4.994059 -8.812352 -2.138522
5.740896 -10.116687 -2.181067
0.000158 -0.144916 -0.005791
8.980325 -15.600129 -2.529230
13.282573 -23.013880 -3.110440
0.000158 -0.144916 -0.005791
26.901867 -46.538197 -3.789308
0.000158 -0.144916 -0.005791
0.000158 -0.144916 -0.005791
0.000158 -0.144916 -0.005791
0.000158 -0.144916 -0.005791
34.668449 -60.127628 3.181962
14.731708 -25.654062 2.035696
14.586555 -25.423342 2.698757
13.523102 -23.590031 3.142283
0.000158 -0.144916 -0.005791
50.013844 -86.996666 16.396301
10.197469 -17.860462 3.832312
0.274063 -0.621779 -0.332576
0.288892 -0.648033 -0.332368
0.315309 -0.694357 -0.343249
0.334067 -0.727504 -0.343610
0.366380 -0.784473 -0.355343
0.409189 -0.859591 -0.373162
0.469838 -0.966242 -0.401805
2.510746 -4.540534 -1.986197
2.710922 -4.893027 -1.999720
2.922904 -5.268600 -2.003119
3.189178 -5.739987 -2.019825
3.518743 -6.320798 -2.048794
3.894104 -6.985321 -2.071614
4.362216 -7.810861 -2.101491
4.945015 -8.842279 -2.138913
5.688206 -10.157745 -2.182896
0.000151 -0.144522 -0.005776
8.869499 -15.613398 -2.523044
13.018274 -22.867830 -3.080081
0.000151 -0.144522 -0.005776
26.665934 -46.747383 -3.793735
0.000151 -0.144522 -0.005776
0.000151 -0.144522 -0.005776
36.575562 -64.197426 -0.051459
33.337166 -58.574036 1.514365
33.258171 -58.483395 3.084151
14.687293 -25.918364 2.050126
14.152034 -24.999445 2.644733
13.299291 -23.520935 3.122458
0.000151 -0.144522 -0.005776
49.382229 -87.052841 16.353148
10.094128 -17.923664 3.833089
0.280635 -0.639404 -0.343793
0.284268 -0.646255 -0.330390
0.309549 -0.691133 -0.340412
0.329809 -0.727477 -0.342696
0.362681 -0.786178 -0.355326
0.402368 -0.856765 -0.370702
0.462372 -0.963719 -0.399473
2.484458 -4.552912 -1.985447
2.683530 -4.908159 -1.999698
2.898933 -5.294839 -2.006945
3.160633 -5.764525 -2.022190
3.484043 -6.342250 -2.049323
3.856529 -7.010614 -2.072604
4.319899 -7.838848 -2.102391
4.904415 -8.887270 -2.143055
5.638134 -10.203650 -2.185839
6.251932 -11.190192 -2.099122
8.755878 -15.620735 -2.516019
12.926287 -23.011204 -3.089362
17.974554 -31.968044 -3.438412
26.455950 -47.004017 -3.802103
0.000144 -0.144129 -0.005760
0.000144 -0.144129 -0.005760
0.000144 -0.144129 -0.005760
33.844654 -60.264828 1.553362
34.633739 -61.717384 3.244940
14.599256 -26.109941 2.058749
14.087687 -25.220753 2.659730
13.180976 -23.626186 3.126432
13.495308 -24.196205 3.852876
49.018990 -87.581535 16.399471
10.001195 -17.998234 3.836819
0.270221 -0.627108 -0.334586
0.284775 -0.653565 -0.334297
0.305513 -0.690984 -0.339456
0.324717 -0.725832 -0.340882
0.355468 -0.781531 -0.351883
0.403592 -0.868242 -0.375573
0.455844 -0.962748 -0.397913
2.459017 -4.566755 -1.985426
2.659674 -4.929729 -2.002418
2.867363 -5.307755 -2.005640
3.126365 -5.778889 -2.020973
3.448288 -6.361812 -2.049299
3.819728 -7.037392 -2.074104
4.280210 -7.871724 -2.104677
4.863435 -8.932098 -2.147200
5.582956 -10.240714 -2.186925
6.244976 -11.327267 -2.118295
8.646331 -15.634190 -2.510113
12.717939 -22.947821 -3.070898
0.000158 -0.143714 -0.005744
26.285637 -47.334724 -3.816527
0.000158 -0.143714 -0.005744
0.000158 -0.143714 -0.005744
0.000158 -0.143714 -0.005744
0.000158 -0.143714 -0.005744
0.000158 -0.143714 -0.005744
15.184055 -27.517450 2.163752
13.789538 -25.024117 2.630432
13.476688 -24.479891 3.229997
13.310536 -24.189934 3.839619
0.000158 -0.143714 -0.005744
9.861122 -17.988043 3.822461
0.259958 -0.614705 -0.325379
0.279315 -0.650212 -0.331338
0.302361 -0.692328 -0.339440
0.323075 -0.730428 -0.342663
0.351787 -0.783168 -0.351866
0.392375 -0.857347 -0.369040
0.448466 -0.960097 -0.395580
2.434396 -4.582078 -1.986133
2.630265 -4.941266 -2.001026
2.839401 -5.327098 -2.006901
3.096586 -5.801446 -2.022742
3.416111 -6.387911 -2.051486
3.782756 -7.063957 -2.075602
4.238433 -7.900965 -2.106039
4.816486 -8.966433 -2.148841
5.526593 -10.275752 -2.187640
6.233786 -11.459435 -2.136491
8.537852 -15.648653 -2.504488
12.618947 -23.079466 -3.078783
0.000151 -0.143320 -0.005729
26.052799 -47.556622 -3.822224
0.000151 -0.143320 -0.005729
0.000151 -0.143320 -0.005729
0.000151 -0.143320 -0.005729
33.599575 -61.470520 1.574689
0.000151 -0.143320 -0.005729
14.480249 -26.606358 2.084980
13.723429 -25.244234 2.645428
13.368716 -24.615957 3.237900
0.000151 -0.143320 -0.005729
0.000151 -0.143320 -0.005729
0.000151 -0.143320 -0.005729
0.258059 -0.617305 -0.326384
0.276377 -0.651425 -0.331322
0.298346 -0.692114 -0.338484
0.317982 -0.728739 -0.340850
0.348944 -0.786384 -0.352707
0.392610 -0.867221 -0.373096
0.437589 -0.950925 -0.390160
2.411457 -4.600531 -1.988298
2.604362 -4.959253 -2.002375
2.814891 -5.352975 -2.010727
3.069402 -5.828849 -2.026300
3.385566 -6.417232 -2.054777
3.746485 -7.092062 -2.077609
4.196444 -7.929994 -2.107400
4.768366 -8.998799 -2.150066
5.474659 -10.319131 -2.190212
6.214669 -11.579719 -2.152408
8.428575 -15.660611 -2.498582
12.364412 -22.926155 -3.048659
0.000144 -0.142927 -0.005713
25.840153 -47.817734 -3.831156
0.000144 -0.142927 -0.005713
0.000144 -0.142927 -0.005713
0.000144 -0.142927 -0.005713
32.840874 -60.913231 1.555530
0.000144 -0.142927 -0.005713
14.362669 -26.753880 2.090145
14.185493 -26.447779 2.763961
13.159712 -24.566219 3.221309
0.000144 -0.142927 -0.005713
0.000144 -0.142927 -0.005713
0.000144 -0.142927 -0.005713
0.252081 -0.612311 -0.322282
0.275090 -0.655680 -0.333268
0.296014 -0.694975 -0.339407
0.313764 -0.728579 -0.339935
0.343546 -0.784777 -0.350976
0.384983 -0.862631 -0.369822
0.431187 -0.949778 -0.388599
2.384863 -4.612306 -1.987548
2.574823 -4.970445 -2.000982
2.783935 -5.367040 -2.010064
3.033909 -5.840982 -2.024486
3.348447 -6.434552 -2.054201
3.705507 -7.111400 -2.077076
4.157912 -7.965669 -2.110611
4.720951 -9.032628 -2.151707
5.425155 -10.367470 -2.193899
6.207417 -11.724504 -2.172882
8.305377 -15.645675 -2.488482
12.191766 -22.919516 -3.038353
0.000159 -0.142512 -0.005697
25.720335 -48.255680 -3.854301
0.000159 -0.142512 -0.005697
0.000159 -0.142512 -0.005697
0.000159 -0.142512 -0.005697
33.445885 -62.893681 1.601542
0.000159 -0.142512 -0.005697
13.911069 -26.275658 2.046220
14.012276 -26.488176 2.759767
12.975034 -24.558737 3.210495
0.000159 -0.142512 -0.005697
0.000159 -0.142512 -0.005697
0.000159 -0.142512 -0.005697
0.253308 -0.620989 -0.327372
0.271223 -0.655355 -0.332270
0.291904 -0.694753 -0.338451
0.307769 -0.725290 -0.337223
0.338044 -0.783196 -0.349246
0.378161 -0.859632 -0.367361
0.422966 -0.945367 -0.385494
2.360020 -4.629278 -1.988983
2.547876 -4.988557 -2.002330
2.756419 -5.389755 -2.012606
3.000028 -5.858489 -2.024463
3.310171 -6.452187 -2.053624
3.667673 -7.139718 -2.079082
4.110524 -7.988061 -2.110122
4.673568 -9.070463 -2.154181
5.372579 -10.414747 -2.197213
6.188360 -11.854946 -2.190424
8.196600 -15.662750 -2.483413
12.003549 -22.890926 -3.025017
17.100878 -32.579052 -3.449351
25.691101 -48.894176 -3.893063
0.000148 -0.142114 -0.005682
0.000148 -0.142114 -0.005682
27.270958 -52.003071 -0.041579
0.000148 -0.142114 -0.005682
0.000148 -0.142114 -0.005682
13.718680 -26.286663 2.040739
33.584930 -64.202225 6.697666
13.099121 -25.148726 3.278021
0.000148 -0.142114 -0.005682
0.000148 -0.142114 -0.005682
0.000148 -0.142114 -0.005682
0.240991 -0.603757 -0.315101
0.270683 -0.661140 -0.335196
0.288719 -0.696021 -0.338434
0.306871 -0.731415 -0.339902
0.335999 -0.787952 -0.350943
0.372336 -0.858158 -0.365715
0.414932 -0.940840 -0.382389
2.336706 -4.647359 -1.991148
2.523367 -5.009437 -2.005049
2.729616 -5.411890 -2.015149
2.967059 -5.875268 -2.024439
3.274641 -6.472470 -2.054152
3.627303 -7.160332 -2.079057
4.069714 -8.019868 -2.112407
4.625650 -9.103792 -2.155821
5.320539 -10.459085 -2.200155
0.000141 -0.141720 -0.005666
8.088781 -15.674170 -2.477786
11.824658 -22.867649 -3.012845
0.000141 -0.141720 -0.005666
25.534086 -49.279926 -3.911981
0.000141 -0.141720 -0.005666
26.940290 -52.075420 -1.399780
27.031677 -52.274273 -0.041572
27.445147 -53.117336 1.343024
0.000141 -0.141720 -0.005666
0.000141 -0.141720 -0.005666
32.203102 -62.435799 6.493454
13.725270 -26.714808 3.473339
0.000141 -0.141720 -0.005666
0.000141 -0.141720 -0.005666
0.000141 -0.141720 -0.005666
0.231252 -0.590970 -0.305894
0.262120 -0.651428 -0.328314
0.287135 -0.700414 -0.340298
0.305113 -0.735939 -0.341682
0.331457 -0.787858 -0.350070
0.367359 -0.858275 -0.364884
0.411155 -0.944466 -0.383145
2.308155 -4.655385 -1.988940
2.493567 -5.020154 -2.003656
2.697498 -5.423745 -2.013843
2.938319 -5.900369 -2.027400
3.239863 -6.494259 -2.055233
3.588562 -7.184167 -2.080047
4.024282 -8.042768 -2.112381
4.580148 -9.142105 -2.158712
5.266357 -10.499685 -2.202354
6.172965 -12.158098 -2.233645
6.803347 -13.391133 -2.108178
11.651860 -22.853689 -3.002073
16.843290 -33.001675 -3.473355
25.297972 -49.518097 -3.919216
