# This PCD file was generated using the MATLAB® pcwrite function
# from Computer Vision Toolbox®.
# .PCD v.7 - Point Cloud Data file format
VERSION .7
FIELDS x y z
SIZE 4 4 4
TYPE F F F
COUNT 1 1 1
WIDTH 1578
HEIGHT 1
VIEWPOINT 0 0 0 1 0 0 0
POINTS 1578
DATA ascii
0.000225 -0.099980 -0.004741
0.000225 -0.099980 -0.004741
0.000225 -0.099980 -0.004741
0.000221 -0.099590 -0.004722
0.000221 -0.099590 -0.004722
-0.046466 -0.545748 -0.243091
0.000221 -0.099590 -0.004722
-0.073524 -0.800814 -0.338238
-0.083578 -0.893714 -0.359992
-0.088957 -0.942036 -0.358309
-0.096645 -1.013024 -0.363118
-0.096806 -1.011657 -0.338283
-0.642945 -6.134866 -2.053735
-0.703332 -6.679958 -2.067783
-0.775526 -7.331563 -2.088208
-0.862960 -8.133652 -2.117671
-0.976753 -9.163281 -2.162111
-1.118026 -10.457273 -2.216136
-1.299315 -12.097698 -2.275092
-1.483417 -14.331266 -2.351568
-1.812644 -17.460333 -2.453028
-2.333957 -22.378172 -2.614135
0.000221 -0.099590 -0.004722
0.000221 -0.099590 -0.004722
-7.289617 -69.103073 -3.221569
-7.297244 -69.062325 -1.595840
-6.452875 -60.882000 0.011959
-6.687052 -62.881027 1.478366
-6.112626 -57.395073 2.698126
-5.983517 -56.001877 3.942104
-5.991901 -55.989746 5.254935
0.000221 -0.099590 -0.004722
0.000221 -0.099590 -0.004722
0.000221 -0.099590 -0.004722
0.000221 -0.099590 -0.004722
0.000218 -0.099199 -0.004704
0.000218 -0.099199 -0.004704
-0.050698 -0.560885 -0.251519
-0.049504 -0.548703 -0.231620
-0.077560 -0.799983 -0.338219
-0.087934 -0.890996 -0.359160
-0.094499 -0.948489 -0.361372
-0.104805 -1.037983 -0.373277
-0.110659 -1.087280 -0.366290
-0.676220 -6.117503 -2.049240
-0.741853 -6.681094 -2.069552
-0.817808 -7.332317 -2.089844
-0.909873 -8.133934 -2.119173
-1.029808 -9.164848 -2.163937
-1.180349 -10.457843 -2.217781
-1.371373 -12.097197 -2.276556
-1.562448 -14.318457 -2.350907
-1.914536 -17.466923 -2.455514
-2.451571 -22.303188 -2.606948
0.000218 -0.099199 -0.004704
0.000218 -0.099199 -0.004704
-6.258759 -56.337204 -2.628046
-6.283501 -56.382599 -1.304109
-6.283264 -56.204441 0.010690
-6.453605 -57.636398 1.355315
-6.584556 -58.621155 2.757730
0.000218 -0.099199 -0.004704
-6.423117 -56.833328 5.337855
0.000218 -0.099199 -0.004704
0.000218 -0.099199 -0.004704
0.000218 -0.099199 -0.004704
0.000218 -0.099199 -0.004704
0.000236 -0.098787 -0.004684
0.000236 -0.098787 -0.004684
0.000236 -0.098787 -0.004684
-0.052592 -0.551565 -0.233395
-0.081096 -0.793739 -0.335636
-0.091869 -0.884652 -0.356703
-0.101037 -0.960343 -0.366746
-0.111023 -1.042496 -0.375440
-0.658896 -5.681823 -2.049118
-0.711235 -6.107335 -2.047303
-0.780904 -6.676198 -2.069535
-0.859670 -7.329000 -2.090378
-0.956818 -8.122213 -2.117638
-1.081755 -9.156429 -2.163460
-1.240209 -10.452417 -2.218180
-1.439984 -12.084815 -2.275801
-1.647006 -14.310497 -2.351215
-2.015434 -17.463087 -2.456611
-2.578433 -22.246410 -2.602075
0.000236 -0.098787 -0.004684
-3.475542 -29.817739 -2.088814
0.000236 -0.098787 -0.004684
0.000236 -0.098787 -0.004684
-7.245890 -61.595375 0.012182
-7.469541 -63.305389 1.490347
0.000236 -0.098787 -0.004684
-6.765041 -57.091415 4.024325
-6.699358 -56.371838 5.297986
0.000236 -0.098787 -0.004684
0.000236 -0.098787 -0.004684
0.000236 -0.098787 -0.004684
0.000236 -0.098787 -0.004684
0.000233 -0.098397 -0.004666
0.000233 -0.098397 -0.004666
0.000233 -0.098397 -0.004666
-0.055201 -0.550862 -0.233377
-0.085966 -0.800032 -0.339038
-0.096744 -0.885503 -0.357498
-0.105763 -0.957513 -0.365957
-0.116451 -1.041443 -0.375421
-0.688756 -5.651297 -2.039531
-0.745112 -6.097094 -2.045367
-0.819700 -6.678765 -2.071899
-0.902090 -7.319576 -2.089260
-1.003246 -8.118098 -2.118128
-1.136446 -9.157185 -2.165286
-1.301121 -10.440596 -2.217334
-1.511076 -12.075669 -2.275786
-1.729535 -14.306261 -2.352171
-2.119145 -17.456329 -2.457431
-2.701349 -22.193331 -2.597666
-3.753205 -30.708010 -2.873328
0.000233 -0.098397 -0.004666
0.000233 -0.098397 -0.004666
0.000233 -0.098397 -0.004666
-7.610644 -61.550907 0.012185
-7.735725 -62.473194 1.471702
0.000233 -0.098397 -0.004666
0.000233 -0.098397 -0.004666
-7.054399 -56.500633 5.314013
0.000233 -0.098397 -0.004666
0.000233 -0.098397 -0.004666
0.000233 -0.098397 -0.004666
0.000233 -0.098397 -0.004666
0.000230 -0.098006 -0.004647
0.000230 -0.098006 -0.004647
0.000230 -0.098006 -0.004647
-0.059472 -0.562536 -0.239636
-0.089558 -0.795559 -0.337309
-0.101290 -0.884553 -0.357480
-0.110391 -0.952821 -0.364398
-0.120447 -1.029279 -0.371041
-0.719514 -5.637529 -2.036097
-0.780871 -6.101713 -2.048549
-0.858330 -6.679233 -2.073668
-0.943890 -7.315760 -2.089794
-1.049416 -8.111800 -2.118112
-1.188088 -9.146240 -2.164350
-1.359105 -10.434712 -2.217734
-1.578181 -12.068588 -2.276141
-1.814311 -14.299279 -2.352804
-2.219553 -17.447355 -2.457973
-2.826587 -22.131207 -2.592331
-3.830809 -29.876965 -2.797553
0.000230 -0.098006 -0.004647
0.000230 -0.098006 -0.004647
0.000230 -0.098006 -0.004647
-8.009159 -61.850761 0.012280
-8.739249 -67.297417 1.587097
-7.880330 -60.611958 2.857820
-7.281401 -55.862217 3.943237
-7.603960 -58.254795 5.483383
0.000230 -0.098006 -0.004647
0.000230 -0.098006 -0.004647
0.000230 -0.098006 -0.004647
0.000230 -0.098006 -0.004647
0.000226 -0.097616 -0.004629
0.000226 -0.097616 -0.004629
0.000226 -0.097616 -0.004629
-0.064458 -0.579534 -0.248587
-0.093318 -0.792831 -0.336435
-0.105564 -0.881742 -0.356648
-0.113188 -0.937166 -0.358217
-0.127800 -1.042937 -0.376838
-0.751409 -5.632909 -2.036080
-0.816458 -6.104240 -2.051091
-0.896207 -6.673781 -2.073652
-0.985186 -7.307912 -2.089227
-1.096850 -8.114807 -2.120625
-1.240184 -9.138865 -2.164334
-1.420142 -10.424134 -2.217303
-1.649989 -12.064469 -2.277235
-1.894882 -14.298309 -2.354409
-2.320488 -17.441761 -2.459071
-2.941390 -22.053637 -2.585145
-3.957277 -29.558670 -2.769758
-2.842882 -21.207407 -1.488288
0.000226 -0.097616 -0.004629
0.000226 -0.097616 -0.004629
-9.565866 -70.664185 0.014707
0.000226 -0.097616 -0.004629
-9.828357 -72.319778 3.414267
-7.768565 -57.036655 4.029512
-7.962404 -58.306908 5.492701
0.000226 -0.097616 -0.004629
0.000226 -0.097616 -0.004629
0.000226 -0.097616 -0.004629
0.000226 -0.097616 -0.004629
0.000223 -0.097226 -0.004610
0.000223 -0.097226 -0.004610
0.000223 -0.097226 -0.004610
-0.073023 -0.619461 -0.269197
-0.096685 -0.786497 -0.333851
-0.110329 -0.882532 -0.357442
-0.118687 -0.939745 -0.359740
-0.133419 -1.041780 -0.376820
-0.783523 -5.629946 -2.036746
-0.851546 -6.095143 -2.049795
-0.935203 -6.667950 -2.073635
-1.026695 -7.301732 -2.089211
-1.143865 -8.103950 -2.119598
-1.291948 -9.129250 -2.163858
-1.480417 -10.421199 -2.218534
-1.718593 -12.052428 -2.276851
-1.979635 -14.290318 -2.355042
-2.420879 -17.431641 -2.459614
-2.897513 -20.792028 -2.438878
-4.109591 -29.374546 -2.754744
0.000223 -0.097226 -0.004610
0.000223 -0.097226 -0.004610
0.000223 -0.097226 -0.004610
0.000223 -0.097226 -0.004610
0.000223 -0.097226 -0.004610
0.000223 -0.097226 -0.004610
-7.762700 -54.646034 3.863268
0.000223 -0.097226 -0.004610
0.000223 -0.097226 -0.004610
0.000223 -0.097226 -0.004610
0.000223 -0.097226 -0.004610
0.000223 -0.097226 -0.004610
0.000220 -0.096835 -0.004592
0.000220 -0.096835 -0.004592
0.000220 -0.096835 -0.004592
-0.086624 -0.691157 -0.305952
-0.100924 -0.787334 -0.334688
-0.114047 -0.876059 -0.354985
-0.123543 -0.938658 -0.359721
-0.138309 -1.036911 -0.375348
-0.816192 -5.630526 -2.038780
-0.886075 -6.089752 -2.049779
-0.972748 -6.660177 -2.073023
-1.068999 -7.301000 -2.090847
-1.189949 -8.096832 -2.119582
-1.343929 -9.121258 -2.163842
-1.539852 -10.412117 -2.218519
-1.788559 -12.049702 -2.278315
-2.063039 -14.290007 -2.356970
-2.521498 -17.422878 -2.460434
0.000220 -0.096835 -0.004592
0.000220 -0.096835 -0.004592
0.000220 -0.096835 -0.004592
0.000220 -0.096835 -0.004592
0.000220 -0.096835 -0.004592
0.000220 -0.096835 -0.004592
0.000220 -0.096835 -0.004592
0.000220 -0.096835 -0.004592
-8.552834 -57.812935 4.091274
0.000220 -0.096835 -0.004592
0.000220 -0.096835 -0.004592
0.000220 -0.096835 -0.004592
0.000220 -0.096835 -0.004592
0.000220 -0.096835 -0.004592
0.000212 -0.096440 -0.004573
0.000212 -0.096440 -0.004573
0.000212 -0.096440 -0.004573
-0.097029 -0.736194 -0.329253
-0.105169 -0.788123 -0.335525
-0.119774 -0.882193 -0.358218
-0.128371 -0.937512 -0.359702
-0.145137 -1.044910 -0.378964
-0.847007 -5.612175 -2.033978
-0.920565 -6.084142 -2.049762
-1.009935 -6.650280 -2.071816
-1.110838 -7.288423 -2.089178
-1.235999 -8.089447 -2.119566
-1.398934 -9.122334 -2.166129
-1.599825 -10.394665 -2.216842
-1.861261 -12.050131 -2.280519
-2.142971 -14.265784 -2.355014
-2.625736 -17.417002 -2.461810
-3.307971 -21.891714 -2.572615
-3.171738 -20.945482 -1.966323
0.000212 -0.096440 -0.004573
-3.188008 -20.979769 -0.984006
0.000212 -0.096440 -0.004573
0.000212 -0.096440 -0.004573
-11.051330 -72.068810 1.705706
0.000212 -0.096440 -0.004573
-10.777957 -69.966034 4.958199
0.000212 -0.096440 -0.004573
0.000212 -0.096440 -0.004573
0.000212 -0.096440 -0.004573
0.000212 -0.096440 -0.004573
0.000212 -0.096440 -0.004573
0.000230 -0.096028 -0.004554
0.000230 -0.096028 -0.004554
0.000230 -0.096028 -0.004554
-0.102771 -0.747566 -0.335513
-0.109723 -0.790689 -0.337217
-0.124011 -0.879291 -0.357387
-0.134534 -0.943648 -0.362766
-0.150004 -1.039978 -0.377492
-0.878769 -5.606827 -2.033962
-0.955027 -6.078345 -2.049746
-1.046458 -6.636427 -2.069419
-1.152540 -7.283412 -2.089713
-1.282607 -8.085610 -2.120562
-1.450881 -9.113729 -2.166114
-1.656992 -10.383244 -2.216413
-1.927993 -12.039167 -2.280506
-2.226385 -14.248525 -2.354353
-2.726361 -17.407070 -2.462631
0.000230 -0.096028 -0.004554
-3.313421 -21.039970 -1.977055
-3.273028 -20.761711 -1.461977
0.000230 -0.096028 -0.004554
0.000230 -0.096028 -0.004554
0.000230 -0.096028 -0.004554
0.000230 -0.096028 -0.004554
0.000230 -0.096028 -0.004554
0.000230 -0.096028 -0.004554
-11.374226 -71.036140 6.717944
0.000230 -0.096028 -0.004554
0.000230 -0.096028 -0.004554
0.000230 -0.096028 -0.004554
0.000230 -0.096028 -0.004554
0.000227 -0.095638 -0.004535
0.000227 -0.095638 -0.004535
0.000227 -0.095638 -0.004535
-0.110174 -0.769530 -0.347154
-0.114012 -0.791434 -0.338054
-0.127500 -0.872788 -0.354930
-0.138950 -0.940653 -0.361977
-0.155438 -1.038703 -0.377474
-0.910745 -5.608851 -2.036680
-0.989464 -6.072357 -2.049730
-1.085047 -6.635556 -2.071189
-1.193596 -7.282156 -2.091349
-1.327656 -8.071988 -2.119029
-1.499623 -9.095504 -2.163796
-1.715559 -10.369278 -2.215568
-1.998681 -12.039103 -2.282710
-2.307290 -14.247169 -2.356283
-2.824275 -17.399012 -2.463732
-3.426322 -21.041702 -2.477019
-4.683919 -28.667217 -2.697842
-5.338450 -32.624596 -2.300681
-5.308284 -32.370872 -1.521044
0.000227 -0.095638 -0.004535
0.000227 -0.095638 -0.004535
0.000227 -0.095638 -0.004535
0.000227 -0.095638 -0.004535
0.000227 -0.095638 -0.004535
0.000227 -0.095638 -0.004535
0.000227 -0.095638 -0.004535
-10.030751 -60.239323 8.581647
-10.057328 -60.270275 10.035848
-10.084340 -60.303707 11.514338
0.000223 -0.095247 -0.004516
0.000223 -0.095247 -0.004516
0.000223 -0.095247 -0.004516
-0.113152 -0.763199 -0.344445
-0.118019 -0.790373 -0.338035
-0.133647 -0.880633 -0.358976
-0.143828 -0.939458 -0.361959
-0.160251 -1.033738 -0.376002
-0.942477 -5.597390 -2.034613
-1.023538 -6.064293 -2.049073
-1.122992 -6.630667 -2.071768
-1.235237 -7.268872 -2.089681
-1.374549 -8.069533 -2.120532
-1.552667 -9.084140 -2.163321
-1.776152 -10.356599 -2.215138
-2.068838 -12.022770 -2.281957
-2.389407 -14.237150 -2.356918
-2.926219 -17.377644 -2.463164
0.000223 -0.095247 -0.004516
0.000223 -0.095247 -0.004516
-5.539064 -32.637199 -2.303872
-5.506131 -32.410259 -1.524373
0.000223 -0.095247 -0.004516
0.000223 -0.095247 -0.004516
-10.244743 -59.907444 1.420724
-10.267821 -59.917706 2.842430
-10.301963 -59.992176 4.261841
-8.206786 -47.712120 4.516550
-10.204887 -59.244419 7.031111
-10.022717 -58.068756 8.280173
0.000223 -0.095247 -0.004516
-9.866074 -56.987179 10.890589
0.000220 -0.094857 -0.004498
0.000220 -0.094857 -0.004498
0.000220 -0.094857 -0.004498
-0.107820 -0.709298 -0.317519
-0.117634 -0.764361 -0.326044
-0.135633 -0.865064 -0.352454
-0.148826 -0.938187 -0.361940
-0.165967 -1.034230 -0.376710
-0.973823 -5.589632 -2.033913
-1.058541 -6.061624 -2.050336
-1.159279 -6.616187 -2.069371
-1.276874 -7.263150 -2.090217
-1.420447 -8.061093 -2.120517
-1.604388 -9.074640 -2.163306
-1.833408 -10.346111 -2.215123
-2.135750 -12.012564 -2.282313
-2.472924 -14.220381 -2.356581
-3.027398 -17.369858 -2.464541
-3.783003 -21.637281 -2.552442
0.000220 -0.094857 -0.004498
-5.735703 -32.657402 -2.307619
-8.017187 -45.517174 -2.143041
-8.363388 -47.431026 -1.107596
0.000220 -0.094857 -0.004498
-9.735415 -54.974625 1.304540
-9.439229 -53.251900 2.527765
0.000220 -0.094857 -0.004498
-9.871042 -55.516766 5.262756
-9.909855 -55.623314 6.607110
0.000220 -0.094857 -0.004498
0.000220 -0.094857 -0.004498
0.000220 -0.094857 -0.004498
0.000217 -0.094466 -0.004479
0.000217 -0.094466 -0.004479
0.000217 -0.094466 -0.004479
-0.112867 -0.717106 -0.321986
-0.117928 -0.743713 -0.316619
-0.135153 -0.836913 -0.340242
-0.153013 -0.933288 -0.360381
-0.171028 -1.031021 -0.375965
-1.006125 -5.587237 -2.035264
-1.093584 -6.052984 -2.049681
-1.198287 -6.610670 -2.069951
-1.318130 -7.255283 -2.090201
-1.466971 -8.048312 -2.119489
-1.656591 -9.058843 -2.161910
-1.896339 -10.336249 -2.215524
-2.208204 -12.008943 -2.284148
-2.554211 -14.219541 -2.358834
-3.129661 -17.367344 -2.466753
-3.898262 -21.588045 -2.549192
0.000217 -0.094466 -0.004479
-5.850933 -32.226940 -2.279541
-8.232363 -45.216309 -2.131093
-9.669680 -53.042538 -1.239654
-9.691660 -53.059029 0.009976
-9.407306 -51.404789 1.220667
-9.121338 -49.748089 2.363404
-9.486227 -51.684464 3.677683
-9.508046 -51.702671 4.905579
-9.543212 -51.793076 6.157734
-9.308507 -50.423912 7.202853
-9.325483 -50.467400 8.426261
-9.143131 -49.386993 9.455085
0.000213 -0.094076 -0.004461
0.000213 -0.094076 -0.004461
-0.083125 -0.538447 -0.244709
-0.118636 -0.726539 -0.327349
-0.119108 -0.728396 -0.309760
-0.135160 -0.812364 -0.329655
-0.159014 -0.937411 -0.362674
-0.177636 -1.035103 -0.378128
-1.036590 -5.569689 -2.031146
-1.127184 -6.042483 -2.048386
-1.234733 -6.597651 -2.068150
-1.360225 -7.245047 -2.089635
-1.512752 -8.039343 -2.119474
-1.705257 -9.033455 -2.158210
-1.954607 -10.330876 -2.216756
-2.277530 -11.999510 -2.284875
-2.639722 -14.199416 -2.358175
-3.233903 -17.357801 -2.468131
-4.023251 -21.530262 -2.545249
0.000213 -0.094076 -0.004461
-5.740689 -30.593271 -2.166269
-8.506234 -45.199650 -2.132668
-9.194419 -48.802788 -1.142014
-9.223012 -48.861557 0.008843
-9.478938 -50.119869 1.191315
-8.856545 -46.791340 2.224815
-9.314310 -49.112156 3.497998
-9.103371 -47.957211 4.554179
-9.136904 -48.043076 5.716974
-8.927081 -46.853863 6.698917
-8.948698 -46.923389 7.841669
-8.975260 -46.974339 9.001924
0.000210 -0.093685 -0.004442
0.000210 -0.093685 -0.004442
0.000210 -0.093685 -0.004442
-0.121834 -0.723726 -0.326434
-0.121708 -0.721964 -0.307175
-0.135316 -0.791452 -0.320693
-0.162674 -0.930691 -0.360345
-0.182680 -1.031826 -0.377382
-1.068950 -5.572647 -2.034548
-1.162868 -6.042932 -2.050929
-1.272533 -6.591916 -2.068729
-1.399395 -7.233172 -2.088518
-1.557352 -8.024400 -2.117941
-1.756647 -9.031036 -2.160038
-2.013513 -10.319047 -2.216742
-2.344520 -11.978080 -2.283383
-2.717687 -14.180173 -2.357515
-3.332140 -17.348810 -2.469510
-4.133080 -21.456362 -2.539224
0.000210 -0.093685 -0.004442
-5.914322 -30.577959 -2.167516
-8.768276 -45.204006 -2.135173
0.000210 -0.093685 -0.004442
0.000210 -0.093685 -0.004442
-9.083721 -46.611980 1.108665
-8.728341 -44.709919 2.127830
-8.760167 -44.831860 3.195631
-8.918093 -45.554817 4.330222
-8.949017 -45.628906 5.435008
-8.728610 -44.467140 6.363703
-8.751583 -44.502693 7.444472
-8.542775 -43.364143 8.317739
0.000207 -0.093295 -0.004424
0.000207 -0.093295 -0.004424
-0.090940 -0.550561 -0.252180
-0.122662 -0.708597 -0.319240
-0.125682 -0.722634 -0.308012
-0.135884 -0.772346 -0.312545
-0.168218 -0.932965 -0.361867
-0.189202 -1.035865 -0.379546
-1.099952 -5.558443 -2.031798
-1.194855 -6.024592 -2.047074
-1.311442 -6.591571 -2.071095
-1.443243 -7.231878 -2.090706
-1.604160 -8.020609 -2.119445
-1.810430 -9.023892 -2.160945
-2.073383 -10.302708 -2.215899
-2.417730 -11.977045 -2.285958
-2.799162 -14.165850 -2.357827
-3.437943 -17.345823 -2.471999
-4.251756 -21.410379 -2.536670
-5.599351 -28.115919 -2.662793
-6.097847 -30.555651 -2.168485
-8.929799 -44.662647 -2.112018
-8.878515 -44.327133 -1.039832
-8.839019 -44.051392 0.007553
0.000207 -0.093295 -0.004424
-8.665688 -43.074169 2.052023
-8.687365 -43.104721 3.075749
-8.709822 -43.139091 4.104776
-8.735588 -43.228271 5.154209
-8.548356 -42.228699 6.049687
-8.555051 -42.186897 7.064491
-8.559912 -42.173710 8.098204
0.000203 -0.092904 -0.004405
0.000203 -0.092904 -0.004405
-0.093280 -0.547873 -0.251223
-0.125941 -0.705704 -0.318325
-0.130874 -0.728564 -0.311414
-0.139776 -0.771142 -0.312527
-0.173931 -0.935158 -0.363389
-0.194414 -1.032507 -0.378801
-1.131791 -5.553470 -2.032466
-1.233104 -6.031845 -2.052176
-1.348788 -6.577656 -2.069293
-1.483941 -7.221179 -2.090140
-1.650369 -8.006763 -2.118418
-1.862222 -9.014825 -2.161392
-2.131741 -10.288291 -2.215470
-2.485327 -11.958694 -2.285206
-2.883381 -14.152445 -2.358462
-3.546399 -17.369972 -2.478379
-4.357737 -21.285130 -2.524858
-5.760290 -28.056454 -2.660380
-6.275972 -30.533291 -2.169454
-8.581449 -41.642334 -1.971587
-8.595921 -41.639755 -0.978114
-8.615876 -41.700130 0.006924
-8.637263 -41.730717 0.994229
-8.697819 -41.949703 2.000674
0.000203 -0.092904 -0.004405
-8.743143 -42.058533 4.006399
-8.771433 -42.121380 5.028011
-8.765776 -42.058186 6.032394
-8.787650 -42.090195 7.056694
-8.808254 -42.116020 8.097090
0.000221 -0.092492 -0.004386
0.000221 -0.092492 -0.004386
-0.100302 -0.567686 -0.262467
-0.128733 -0.701082 -0.316513
-0.134429 -0.727437 -0.311396
-0.143315 -0.768159 -0.311696
-0.177863 -0.930169 -0.361831
-0.199254 -1.029174 -0.378055
-1.162275 -5.546680 -2.032450
-1.264270 -6.015208 -2.048962
-1.383796 -6.564044 -2.067493
-1.521319 -7.201118 -2.086821
-1.694927 -7.998910 -2.118909
-1.911600 -9.001987 -2.160917
-2.186990 -10.268177 -2.213795
-2.547806 -11.936975 -2.283715
-2.965524 -14.141011 -2.359422
-3.629855 -17.273281 -2.467534
-4.481360 -21.267073 -2.525777
-5.912653 -28.005936 -2.658709
0.000221 -0.092492 -0.004386
-8.835940 -41.664127 -1.975017
-8.856922 -41.727612 -0.981330
-8.887027 -41.798096 0.006961
-8.908017 -41.861336 0.998545
-8.941872 -41.948936 2.003012
-8.958199 -41.990063 3.003058
-8.973613 -41.991138 4.004718
-8.995340 -42.057369 5.026145
-8.989175 -41.957825 6.025140
-9.007263 -42.006912 7.050843
-9.028441 -42.034695 8.090782
0.000218 -0.092102 -0.004367
0.000218 -0.092102 -0.004367
-0.110369 -0.601262 -0.281218
-0.130509 -0.693002 -0.312907
-0.137486 -0.724548 -0.310523
-0.146189 -0.763408 -0.310051
-0.182011 -0.927009 -0.361042
-0.203530 -1.024055 -0.376583
-1.192163 -5.541756 -2.033118
-1.296696 -6.009739 -2.049587
-1.418770 -6.556057 -2.067477
-1.562632 -7.205529 -2.090662
-1.737266 -7.987351 -2.118389
-1.957662 -8.981606 -2.158600
-2.247062 -10.278730 -2.218766
-2.610998 -11.918790 -2.282963
-3.040216 -14.118576 -2.358440
-3.739973 -17.332373 -2.478916
-4.571786 -21.131464 -2.512578
-6.056778 -27.941994 -2.655741
-9.064718 -41.702953 -2.970967
-9.054329 -41.586067 -1.973633
-9.074783 -41.645493 -0.980555
-9.104409 -41.711906 0.006946
-9.138550 -41.833618 0.999056
-9.159191 -41.858574 2.001040
-9.171898 -41.882133 2.998852
-9.194587 -41.916294 4.002291
-9.217555 -41.986370 5.023578
-9.212134 -41.892723 6.022903
-9.227103 -41.926353 7.045641
-9.246745 -41.946465 8.083359
0.000210 -0.091707 -0.004348
0.000210 -0.091707 -0.004348
-0.123096 -0.643250 -0.304660
-0.138470 -0.710975 -0.322754
-0.141052 -0.721496 -0.309649
-0.152677 -0.772786 -0.314910
-0.188057 -0.929043 -0.362564
-0.210197 -1.025989 -0.378018
-1.225950 -5.531912 -2.032418
-1.331768 -5.991842 -2.046373
-1.459767 -6.548474 -2.068057
-1.606433 -7.191413 -2.089545
-1.785115 -7.968327 -2.116350
-2.015204 -8.976335 -2.160429
-2.308833 -10.254461 -2.216676
-2.685997 -11.895535 -2.281841
-3.124975 -14.095496 -2.357781
0.000210 -0.091707 -0.004348
-4.305967 -19.340513 -2.302202
-4.081486 -18.307402 -1.740941
-4.180522 -18.734373 -1.335263
-9.353570 -41.734257 -1.983363
-9.376469 -41.768669 -0.984825
-9.347454 -41.606327 0.006930
-9.394462 -41.747688 0.998396
-15.319227 -67.908539 3.256382
-9.434711 -41.825233 2.998989
-9.448820 -41.820404 3.998748
-9.483915 -41.908127 5.021481
-9.466255 -41.796936 6.017602
-9.489597 -41.832775 7.040119
-9.512027 -41.864414 8.079278
0.000207 -0.091317 -0.004330
0.000207 -0.091317 -0.004330
-0.133388 -0.673125 -0.321535
-0.142439 -0.711519 -0.323633
-0.144279 -0.718525 -0.308776
-0.157544 -0.775042 -0.316518
-0.193300 -0.929357 -0.363317
-0.215581 -1.024376 -0.378000
-1.257361 -5.520492 -2.031036
-1.365713 -5.983673 -2.046357
-1.496502 -6.537717 -2.067447
-1.649408 -7.185119 -2.090632
-1.831312 -7.961283 -2.117348
-2.067423 -8.961916 -2.159954
-2.371752 -10.251615 -2.219154
-2.755541 -11.877088 -2.281459
-3.208651 -14.090339 -2.360037
-3.947281 -17.285290 -2.478897
0.000207 -0.091317 -0.004330
0.000207 -0.091317 -0.004330
-4.287046 -18.691364 -1.334004
-9.599514 -41.706562 -1.984665
-9.634327 -41.791508 -0.986665
-9.636451 -41.734852 0.006976
-9.626988 -41.661343 0.997640
-9.650166 -41.695808 1.998689
-9.671772 -41.723408 2.995765
-9.690844 -41.739941 3.996508
-9.715133 -41.811810 5.016586
-9.706345 -41.708771 6.013136
-9.730844 -41.748451 7.035568
-9.744391 -41.774094 8.072598
0.000204 -0.090926 -0.004311
0.000204 -0.090926 -0.004311
-0.140481 -0.687394 -0.329963
-0.145696 -0.708519 -0.322717
-0.147872 -0.717273 -0.308757
-0.159360 -0.764825 -0.312435
-0.198275 -0.927807 -0.363299
-0.221375 -1.024531 -0.378709
-1.289042 -5.514600 -2.031704
-1.398743 -5.971628 -2.045062
-1.531833 -6.521174 -2.065051
-1.688428 -7.167611 -2.088414
-1.877506 -7.953983 -2.118346
-2.118929 -8.951367 -2.160401
-2.430288 -10.245445 -2.220803
-2.821319 -11.861130 -2.281448
-3.293018 -14.076432 -2.360997
-4.062123 -17.329346 -2.488612
0.000204 -0.090926 -0.004311
-4.191562 -17.823540 -1.699426
0.000204 -0.090926 -0.004311
-9.912113 -41.926464 -1.997917
-9.940297 -42.013168 -0.993234
-9.831279 -41.489517 0.006919
-9.868377 -41.581692 0.997119
-9.883129 -41.611946 1.997373
-9.910000 -41.660820 2.995339
-9.918658 -41.665409 3.994639
-9.949255 -41.729671 5.013554
-9.938494 -41.620972 6.008668
-9.949531 -41.635479 7.025818
-9.966863 -41.644260 8.058503
0.000200 -0.090536 -0.004293
0.000200 -0.090536 -0.004293
-0.143824 -0.686220 -0.329945
-0.152085 -0.719461 -0.328978
-0.150210 -0.710757 -0.306174
-0.166691 -0.777709 -0.318920
-0.203380 -0.928086 -0.364051
-0.228512 -1.030090 -0.381599
-1.320697 -5.508519 -2.032372
-1.434379 -5.970445 -2.047606
-1.569725 -6.515544 -2.066226
-1.730531 -7.162987 -2.090052
-1.922291 -7.940764 -2.117826
-2.167129 -8.927278 -2.157624
-2.489555 -10.226647 -2.219960
-2.890632 -11.841878 -2.281066
-3.369210 -14.049756 -2.359692
-4.151556 -17.264849 -2.482769
-4.285191 -17.804281 -2.127449
-4.258623 -17.667845 -1.686821
-4.286423 -17.755810 -1.270609
-10.212057 -42.143806 -2.010986
-10.240603 -42.197674 -0.998977
-10.045387 -41.332714 0.006887
-10.091881 -41.492531 0.996314
-10.078966 -41.377331 1.988840
-10.105645 -41.424370 2.982449
-10.132489 -41.471977 3.981779
-10.153432 -41.526588 4.996086
-10.190735 -41.616524 6.016470
-10.218474 -41.667309 7.041402
-10.236996 -41.711739 8.082970
0.000197 -0.090145 -0.004274
0.000197 -0.090145 -0.004274
-0.151606 -0.702102 -0.339311
-0.154103 -0.711227 -0.325372
-0.154767 -0.712976 -0.307866
-0.172425 -0.783449 -0.322155
-0.208778 -0.928246 -0.364803
-0.231820 -1.019279 -0.377946
-1.351407 -5.498594 -2.031673
-1.467405 -5.954091 -2.045032
-1.606905 -6.502036 -2.065022
-1.768888 -7.143184 -2.087284
-1.968364 -7.926953 -2.117306
-2.217999 -8.914274 -2.157611
-2.546444 -10.206052 -2.218701
-2.953918 -11.807478 -2.277726
-3.452451 -14.031046 -2.360005
-4.244197 -17.215273 -2.479149
-4.160499 -16.852682 -2.016352
-4.321530 -17.475677 -1.670880
-4.394839 -17.757559 -1.272547
-10.522252 -42.326347 -2.022665
-10.550760 -42.378273 -1.004719
-10.263842 -41.198120 0.006860
-10.332511 -41.412128 0.995839
-10.360159 -41.461754 1.995862
-10.367272 -41.459911 2.989305
-10.364332 -41.387428 3.979351
-10.396196 -41.453640 4.994683
-10.427307 -41.547153 6.015070
-10.448594 -41.571011 7.035223
-10.476099 -41.619385 8.077031
0.000215 -0.089733 -0.004255
0.000215 -0.089733 -0.004255
-0.152941 -0.692254 -0.334600
-0.157664 -0.709921 -0.325353
-0.157011 -0.706424 -0.305282
-0.173252 -0.769656 -0.316445
-0.211315 -0.917693 -0.360933
-0.237626 -1.019336 -0.378655
-1.382995 -5.492149 -2.032341
-1.499724 -5.939630 -2.043097
-1.643324 -6.490431 -2.064412
-1.808042 -7.126905 -2.085617
-2.012976 -7.913218 -2.116786
-2.268762 -8.900948 -2.157598
-2.605151 -10.192728 -2.219105
-3.021841 -11.791786 -2.278085
-3.533645 -14.014365 -2.360643
-4.322739 -17.111431 -2.467750
0.000215 -0.089733 -0.004255
-4.352774 -17.179949 -1.644936
-4.469884 -17.627148 -1.265034
-10.732208 -42.134968 -2.016465
-10.740157 -42.105282 -0.999725
-10.533627 -41.267765 0.006887
-10.565339 -41.332172 0.995362
-10.591303 -41.373928 1.994543
-10.605347 -41.399124 2.989298
-10.603477 -41.332443 3.979902
-10.628315 -41.369625 4.991882
-10.655517 -41.445747 6.009206
-10.687336 -41.509777 7.035217
-10.715611 -41.559891 8.077394
0.000212 -0.089343 -0.004237
0.000212 -0.089343 -0.004237
-0.156423 -0.690984 -0.334582
-0.163041 -0.715532 -0.328923
-0.161009 -0.706856 -0.306119
-0.178080 -0.771780 -0.318053
-0.219353 -0.928570 -0.366307
-0.242989 -1.017572 -0.378637
-1.414555 -5.485517 -2.033009
-1.534839 -5.936011 -2.045002
-1.678212 -6.473080 -2.062016
-1.848034 -7.114110 -2.085052
-2.058987 -7.904851 -2.117785
-2.319460 -8.887340 -2.157585
-2.663781 -10.179049 -2.219507
-3.092700 -11.787103 -2.280663
-3.612776 -13.989567 -2.359985
0.000212 -0.089343 -0.004237
-4.299190 -16.595234 -1.991341
-4.408892 -16.992334 -1.629366
-4.563759 -17.573706 -1.263081
-10.917064 -41.853649 -2.006005
-10.930285 -41.845036 -0.995051
-10.742703 -41.099602 0.006852
-10.796083 -41.245110 0.994744
-10.819740 -41.277073 1.992849
-10.842571 -41.335045 2.989150
-10.831208 -41.233734 3.976354
-10.860306 -41.286217 4.989313
-10.896030 -41.392868 6.010592
-10.919645 -41.424248 7.031312
-10.939688 -41.441994 8.066632
0.000208 -0.088952 -0.004218
0.000208 -0.088952 -0.004218
-0.160329 -0.691375 -0.335502
-0.165262 -0.709007 -0.326214
-0.170625 -0.728226 -0.317218
-0.188157 -0.793310 -0.328604
-0.223708 -0.925119 -0.365519
-0.249762 -1.021145 -0.380800
-1.444148 -5.471447 -2.030944
-1.567002 -5.921188 -2.043068
-1.714439 -6.461063 -2.061406
-1.890963 -7.112248 -2.087792
-2.102447 -7.886865 -2.116253
-2.370588 -8.875316 -2.158032
-2.722354 -10.165042 -2.219911
-3.158975 -11.764900 -2.279912
-3.690722 -13.960497 -2.358680
-4.356947 -16.453011 -2.379662
0.000208 -0.088952 -0.004218
-4.364371 -16.435249 -1.578225
-4.581451 -17.236403 -1.240696
-10.981822 -41.133507 -1.974514
-11.010665 -41.184212 -0.980877
-10.996835 -41.104282 0.006861
-11.027725 -41.162540 0.994267
-11.056231 -41.211742 1.992747
-11.071122 -41.238789 2.986761
-11.066414 -41.164501 3.975788
-11.095298 -41.214905 4.988374
-11.127013 -41.304188 6.006960
-11.152879 -41.343124 7.028381
-11.174576 -41.366528 8.064399
0.000205 -0.088562 -0.004199
0.000205 -0.088562 -0.004199
-0.163811 -0.690062 -0.335485
-0.174472 -0.728337 -0.336959
-0.182898 -0.758241 -0.332593
-0.206320 -0.842892 -0.352163
-0.228038 -0.921648 -0.364731
-0.254645 -1.017511 -0.380055
-1.475553 -5.460572 -2.030245
-1.600564 -5.911677 -2.043053
-1.751620 -6.452540 -2.061987
-1.928001 -7.083830 -2.082821
-2.148847 -7.879818 -2.117758
-2.421659 -8.856970 -2.157099
-2.781039 -10.144541 -2.219068
-3.223994 -11.730401 -2.276942
-3.771579 -13.942429 -2.359318
0.000205 -0.088562 -0.004199
-4.420516 -16.292772 -1.961007
-4.338770 -15.971449 -1.535976
-4.546762 -16.710091 -1.204689
0.000205 -0.088562 -0.004199
0.000205 -0.088562 -0.004199
-11.267533 -41.138214 0.006881
-11.262487 -41.092171 0.994117
-11.294468 -41.152782 1.993019
-11.300258 -41.118122 2.982832
-11.305718 -41.082375 3.974288
-11.322985 -41.117393 4.984407
-11.369797 -41.231323 6.006114
-11.391692 -41.254921 7.024800
-11.401628 -41.263210 8.056973
0.000202 -0.088171 -0.004181
-0.124867 -0.536672 -0.265634
-0.166423 -0.685278 -0.333589
-0.176841 -0.721750 -0.334250
-0.191241 -0.772408 -0.340272
-0.212145 -0.846582 -0.354584
-0.232480 -0.918110 -0.363942
-0.260646 -1.017374 -0.380764
-1.504428 -5.444351 -2.027496
-1.636604 -5.907137 -2.044957
-1.788290 -6.437945 -2.060782
-1.971377 -7.083317 -2.086112
-2.195050 -7.866552 -2.117744
-2.470507 -8.836846 -2.155704
-2.836234 -10.118547 -2.216980
-3.289371 -11.705570 -2.275822
-3.854762 -13.923206 -2.359957
0.000202 -0.088171 -0.004181
-4.485057 -16.152971 -1.947344
-4.422221 -15.906688 -1.532263
-4.474162 -16.081841 -1.161176
-8.919946 -31.930805 -1.537694
-8.947965 -31.988186 -0.764785
-11.466449 -40.939381 0.006836
-11.501262 -41.008835 0.993733
-11.528717 -41.051952 1.991418
-11.525541 -41.013561 2.980022
-11.521082 -40.943367 3.967200
-11.550036 -40.991737 4.977415
-11.571020 -41.038994 5.987700
-11.596882 -41.076195 7.005630
-11.620587 -41.105591 8.039536
0.000198 -0.087781 -0.004162
-0.137965 -0.572446 -0.287159
-0.172278 -0.692405 -0.338263
-0.185378 -0.737497 -0.343201
-0.201018 -0.791791 -0.350516
-0.219005 -0.853719 -0.358630
-0.237260 -0.916367 -0.363924
-0.266355 -1.017311 -0.381473
-1.536797 -5.440620 -2.029531
-1.666982 -5.890234 -2.042384
-1.824250 -6.429304 -2.061363
-2.009504 -7.064072 -2.083895
-2.236843 -7.848202 -2.116214
-2.520314 -8.820220 -2.155231
-2.891663 -10.100285 -2.216553
-3.355837 -11.692298 -2.276922
-3.933292 -13.896594 -2.359300
-4.443667 -15.678084 -2.278230
-4.534420 -15.975565 -1.929053
-4.528003 -15.932248 -1.537258
-4.568925 -16.065001 -1.161863
-9.119143 -31.934235 -1.540385
-9.136426 -31.973845 -0.765661
-11.715296 -40.920330 0.006839
-11.729008 -40.914635 0.993066
-11.747375 -40.951996 1.989721
-11.769857 -40.976780 2.982253
-11.790949 -41.023430 3.981348
-11.815717 -41.055984 4.993235
-11.803371 -40.959866 5.986016
-11.821783 -40.997143 7.003345
-11.844549 -41.022659 8.036188
0.000195 -0.087390 -0.004144
-0.144083 -0.582995 -0.293995
-0.174655 -0.687638 -0.336368
-0.189017 -0.736071 -0.343183
-0.203436 -0.785066 -0.347932
-0.223811 -0.853864 -0.359426
-0.243952 -0.921717 -0.366988
-0.274671 -1.026132 -0.385817
-1.566662 -5.431560 -2.029516
-1.698823 -5.878622 -2.041730
-1.858552 -6.414956 -2.060159
-2.048416 -7.052335 -2.083881
-2.280122 -7.835176 -2.116200
-2.570138 -8.809351 -2.156140
-2.946413 -10.079825 -2.215711
-3.421697 -11.676753 -2.277651
-4.012551 -13.881605 -2.360586
-4.462009 -15.416818 -2.243772
-4.399051 -15.181002 -1.835774
-4.425060 -15.250632 -1.473703
-4.473521 -15.406845 -1.115987
-9.310854 -31.930355 -1.542705
-9.327271 -31.966082 -0.766721
-11.953259 -40.888428 0.006837
-11.951738 -40.830822 0.992633
-11.970334 -40.868111 1.988867
-12.000834 -40.919590 2.982942
-12.008129 -40.918335 3.977611
-12.042647 -40.983269 4.992525
-12.033115 -40.898609 5.986843
-12.043912 -40.909267 6.999763
-12.067409 -40.936638 8.032470
0.000209 -0.086974 -0.004124
-0.150497 -0.593423 -0.300831
-0.178736 -0.687899 -0.337288
-0.191844 -0.731112 -0.341371
-0.207173 -0.781672 -0.347058
-0.228860 -0.853852 -0.360220
-0.250476 -0.925148 -0.369280
-0.278801 -1.018683 -0.383617
-1.597798 -5.419963 -2.028818
-1.734159 -5.867733 -2.041715
-1.898262 -6.406742 -2.061335
-2.087482 -7.032283 -2.081664
-2.326851 -7.818859 -2.115681
-2.621266 -8.791669 -2.155666
-3.006251 -10.057487 -2.214868
-3.489580 -11.645830 -2.275791
-4.095453 -13.860940 -2.361225
0.000209 -0.086974 -0.004124
-4.447130 -15.015258 -1.818871
-4.409060 -14.868749 -1.439234
-4.503283 -15.175069 -1.101107
-9.512199 -31.916246 -1.544748
-9.534408 -31.950243 -0.767735
-12.181953 -40.772327 0.006814
-12.189837 -40.747303 0.992341
-12.219195 -40.793827 1.988856
-12.238326 -40.831997 2.981810
-12.259584 -40.851440 3.978346
-12.289924 -40.900932 4.991584
-12.264218 -40.790077 5.981532
-12.289064 -40.821335 6.997478
-12.317850 -40.865540 8.033200
0.000206 -0.086584 -0.004106
-0.154948 -0.597175 -0.303751
-0.182699 -0.688147 -0.338208
-0.193976 -0.724460 -0.338661
-0.212751 -0.785261 -0.349606
-0.234473 -0.855582 -0.361827
-0.254230 -0.919776 -0.367722
-0.284715 -1.018458 -0.384327
-1.627768 -5.404613 -2.026752
-1.763527 -5.844568 -2.037222
-1.931834 -6.386195 -2.058345
-2.130358 -7.024909 -2.083303
-2.370775 -7.803095 -2.115162
-2.670575 -8.768126 -2.153811
-3.063053 -10.031604 -2.213196
-3.559262 -11.628289 -2.276521
-4.166666 -13.810284 -2.356684
-4.700627 -15.549594 -2.271262
-4.515101 -14.930087 -1.811689
-4.466261 -14.751277 -1.430333
-4.526364 -14.930116 -1.085252
-9.708749 -31.904495 -1.546883
-9.732347 -31.942219 -0.768888
-12.408509 -40.651115 0.006791
-12.408587 -40.626331 0.991108
-12.446985 -40.701382 1.987814
-12.472843 -40.735374 2.980119
-12.494234 -40.754757 3.976100
-12.518349 -40.808193 4.989010
-12.509595 -40.729443 5.983473
-12.532870 -40.754837 6.998767
-12.547270 -40.776615 8.029851
0.000202 -0.086193 -0.004087
-0.165717 -0.620824 -0.318420
-0.186268 -0.686661 -0.338190
-0.198835 -0.726333 -0.340437
-0.215164 -0.778455 -0.347022
-0.238358 -0.852083 -0.360997
-0.259155 -0.917845 -0.367703
-0.290633 -1.018188 -0.385036
-1.658355 -5.394747 -2.026738
-1.794401 -5.826696 -2.034649
-1.968652 -6.376397 -2.058926
-2.169705 -7.010301 -2.082739
-2.414580 -7.787062 -2.114643
-2.724619 -8.765222 -2.157024
-3.119128 -10.015819 -2.213600
-3.624243 -11.609712 -2.276881
-4.266135 -13.843359 -2.366711
0.000202 -0.086193 -0.004087
-4.551813 -14.737593 -1.791545
-4.554375 -14.727930 -1.430696
-4.605842 -14.884360 -1.083855
-9.916977 -31.908875 -1.549946
-9.938868 -31.959707 -0.770684
-12.639524 -40.570953 0.006777
-12.648309 -40.549690 0.991050
-12.676499 -40.615284 1.987147
-12.710303 -40.673889 2.980947
-12.721161 -40.683964 3.976087
-12.750293 -40.727467 4.988068
-12.742859 -40.654442 5.983182
-12.755656 -40.670654 6.996481
-12.780817 -40.701416 8.029469
0.000199 -0.085803 -0.004069
-0.168181 -0.617841 -0.317423
-0.188024 -0.680172 -0.335357
-0.200777 -0.719697 -0.337728
-0.218045 -0.773355 -0.345294
-0.241658 -0.846821 -0.359352
-0.265472 -0.921265 -0.369996
-0.295434 -1.014334 -0.384291
-1.688329 -5.382929 -2.026040
-1.832608 -5.832119 -2.040393
-2.005404 -6.366364 -2.059507
-2.211869 -7.004609 -2.084929
-2.460071 -7.776327 -2.115643
-2.769804 -8.734167 -2.153327
-3.174409 -9.985575 -2.211097
-3.693751 -11.591352 -2.277611
-4.335748 -13.796345 -2.362818
-4.764815 -15.134886 -2.218458
-4.551958 -14.453997 -1.760061
-4.593927 -14.569009 -1.417720
-4.677698 -14.815360 -1.080789
0.000199 -0.085803 -0.004069
-12.795010 -40.302273 -0.973110
-12.860934 -40.460899 0.006755
-12.880136 -40.497074 0.991507
-12.909698 -40.541222 1.987134
-12.935349 -40.573036 2.978974
-12.947881 -40.563755 3.971790
-12.978686 -40.635941 4.985960
-12.952727 -40.506451 5.972294
-12.976345 -40.531837 6.985752
-13.029549 -40.673538 8.038725
0.000196 -0.085412 -0.004050
-0.172941 -0.621415 -0.320343
-0.193161 -0.683676 -0.338153
-0.201790 -0.709604 -0.333226
-0.223245 -0.775105 -0.346986
-0.246048 -0.845035 -0.359335
-0.270437 -0.919294 -0.369979
-0.300362 -1.010398 -0.383546
-1.717648 -5.369155 -2.024658
-1.863161 -5.809952 -2.036541
-2.042641 -6.353970 -2.059494
-2.248702 -6.982231 -2.082162
-2.503257 -7.753847 -2.113606
-2.818954 -8.715826 -2.152855
-3.229527 -9.961143 -2.209840
-3.758718 -11.565757 -2.276861
-4.404897 -13.732423 -2.356335
-4.834354 -15.054030 -2.210672
-4.625503 -14.390416 -1.755656
-4.516625 -14.037146 -1.368429
-4.791965 -14.878900 -1.087455
-13.070542 -40.387287 -1.969051
-13.063665 -40.318443 -0.975373
-13.083337 -40.355324 0.006734
-13.121551 -40.425255 0.991635
-13.103106 -40.321041 1.980096
-13.133055 -40.389343 2.970980
-13.181400 -40.490021 3.971963
-13.219066 -40.557823 4.985948
-13.225904 -40.555038 5.990686
-13.249585 -40.579849 7.007172
-13.284835 -40.639942 8.047612
0.000192 -0.085022 -0.004031
-0.173845 -0.613394 -0.316408
-0.195505 -0.678813 -0.336259
-0.207610 -0.714816 -0.336795
-0.227204 -0.773404 -0.346968
-0.249833 -0.841463 -0.358503
-0.273486 -0.912063 -0.367649
-0.309784 -1.020638 -0.388617
-1.745667 -5.351633 -2.021909
-1.895480 -5.796917 -2.035886
-2.076287 -6.334452 -2.057099
-2.289588 -6.972416 -2.083250
-2.547374 -7.738910 -2.113593
-2.870438 -8.704582 -2.154225
-3.281410 -9.927155 -2.206507
-3.826624 -11.549110 -2.277961
-4.473528 -13.676430 -2.351148
-4.481821 -13.693661 -2.013952
-4.786192 -14.600866 -1.784811
-4.559447 -13.897056 -1.357305
-4.857062 -14.790050 -1.083000
-13.293011 -40.282505 -1.967674
-13.334737 -40.361736 -0.978279
-13.326990 -40.314999 0.006729
-13.370651 -40.399876 0.992888
-13.379315 -40.379143 1.986733
-13.406461 -40.437603 2.980208
-13.418260 -40.426262 3.973253
-13.455712 -40.491951 4.987329
-13.455627 -40.468410 5.989278
-13.484439 -40.508083 7.008132
-13.516317 -40.556782 8.046486
0.000189 -0.084631 -0.004013
-0.181333 -0.625221 -0.324223
-0.197788 -0.673926 -0.334363
-0.210675 -0.711533 -0.335880
-0.232899 -0.776833 -0.349515
-0.256079 -0.844779 -0.360925
-0.277672 -0.908349 -0.366861
-0.313975 -1.014914 -0.387145
-1.778689 -5.346131 -2.023946
-1.930782 -5.792706 -2.038432
-2.112864 -6.323817 -2.057681
-2.327950 -6.951041 -2.081034
-2.592019 -7.725542 -2.114087
-2.920917 -8.685177 -2.153753
-3.340373 -9.908968 -2.206912
-3.891401 -11.516500 -2.276103
-4.545459 -13.631353 -2.347903
-4.554911 -13.643900 -2.010610
-4.507653 -13.495569 -1.652414
-4.657311 -13.924890 -1.362670
-4.981794 -14.872115 -1.091194
-13.464932 -40.028831 -1.959071
-13.489739 -40.056545 -0.972783
-13.566723 -40.238605 0.006717
-13.601319 -40.318031 0.992780
-13.603449 -40.278316 1.985596
-13.643107 -40.349407 2.979634
-13.642686 -40.302177 3.968955
-13.693926 -40.430313 4.989411
-13.689898 -40.372448 5.987034
-13.728518 -40.440052 7.010392
-13.741578 -40.455555 8.042022
0.000185 -0.084241 -0.003994
-0.184522 -0.623726 -0.324205
-0.200721 -0.670689 -0.333407
-0.213808 -0.708183 -0.334965
-0.236302 -0.773384 -0.348642
-0.259252 -0.839428 -0.359280
-0.284939 -0.913256 -0.369924
-0.321136 -1.017972 -0.389308
-1.808349 -5.333634 -2.023248
-1.958676 -5.766764 -2.033299
-2.146877 -6.305727 -2.055881
-2.367450 -6.937126 -2.081021
-2.633452 -7.702785 -2.112051
-2.967831 -8.660444 -2.151898
-3.391336 -9.878673 -2.204409
-3.962277 -11.514644 -2.280162
-4.613598 -13.568255 -2.341743
0.000185 -0.084241 -0.003994
-4.466047 -13.114894 -1.608893
-4.591990 -13.467168 -1.320419
-5.051330 -14.797506 -1.087852
-13.745196 -40.074421 -1.965293
-13.739225 -40.034534 -0.974175
-13.798402 -40.161312 0.006703
-13.836527 -40.226753 0.992532
-13.841223 -40.217815 1.986517
-13.870864 -40.258465 2.978779
-13.852122 -40.181690 3.964655
-13.919562 -40.331615 4.987068
-13.908747 -40.255131 5.981441
-13.949149 -40.349312 7.008103
-13.974499 -40.377209 8.042377
0.000182 -0.083850 -0.003976
-0.188117 -0.623952 -0.325166
-0.205160 -0.672503 -0.335266
-0.214938 -0.699841 -0.331359
-0.239678 -0.769919 -0.347769
-0.262406 -0.834095 -0.357637
-0.288357 -0.907788 -0.368366
-0.328371 -1.021000 -0.391472
-1.837301 -5.319191 -2.021867
-1.995747 -5.767497 -2.037764
-2.183309 -6.294676 -2.056463
-2.408140 -6.926602 -2.082110
-2.677911 -7.688912 -2.112544
-3.017185 -8.642834 -2.151887
-3.447433 -9.852447 -2.203153
-4.030662 -11.492374 -2.280522
-4.649228 -13.428215 -2.321988
-4.561390 -13.161494 -1.946968
-4.526971 -13.055605 -1.604719
-4.585856 -13.209682 -1.297621
0.000182 -0.083850 -0.003976
-13.998000 -40.081505 -1.969478
-14.028559 -40.124180 -0.978322
-14.029623 -40.082668 0.006689
-14.066441 -40.165447 0.992939
-14.066819 -40.121960 1.985753
-14.103310 -40.181278 2.979044
-14.081859 -40.075859 3.962405
-14.151792 -40.252277 4.987286
-14.121416 -40.121674 5.973619
-14.185864 -40.259869 7.007114
-14.211562 -40.310493 8.045328
0.000200 -0.083438 -0.003957
-0.195408 -0.633936 -0.332003
-0.209834 -0.674212 -0.337125
-0.222169 -0.708248 -0.336722
-0.243130 -0.766379 -0.346896
-0.269775 -0.840768 -0.361683
-0.296963 -0.916098 -0.372971
-0.333912 -1.018628 -0.391453
-1.868061 -5.309909 -2.022536
-2.024338 -5.740903 -2.032632
-2.220753 -6.283006 -2.057045
-2.444917 -6.904995 -2.079894
-2.721694 -7.668868 -2.111520
-3.063132 -8.615762 -2.149573
-3.503624 -9.832034 -2.203143
-4.091641 -11.455641 -2.277925
-4.672168 -13.241898 -2.294462
-4.553730 -12.901314 -1.912229
-4.557250 -12.897097 -1.588509
-4.630939 -13.089938 -1.288535
0.000200 -0.083438 -0.003957
-14.158575 -39.782845 -1.958930
-14.210750 -39.885422 -0.974572
-14.261094 -40.004593 0.006674
-14.305384 -40.084671 0.993017
-14.307495 -40.046795 1.986207
-14.329960 -40.087730 2.978189
-14.301176 -39.963703 3.959409
-14.188523 -39.606331 4.917430
-14.342385 -40.013187 5.969699
-14.400983 -40.132545 6.999305
-14.440028 -40.197342 8.039751
0.000197 -0.083048 -0.003938
-0.197976 -0.630762 -0.331005
-0.211411 -0.667599 -0.334291
-0.223939 -0.701526 -0.334013
-0.247547 -0.766307 -0.347733
-0.271015 -0.830220 -0.357600
-0.302386 -0.915716 -0.373723
-0.341052 -1.021621 -0.393617
-1.895539 -5.291590 -2.019788
-2.057840 -5.734455 -2.034538
-2.254684 -6.268321 -2.056437
-2.484818 -6.892216 -2.080432
-2.761335 -7.645869 -2.109484
-3.114878 -8.604890 -2.151404
-3.555996 -9.806417 -2.201887
-4.148334 -11.413774 -2.274219
-4.689493 -13.052918 -2.266289
-4.638931 -12.906153 -1.916945
-4.637053 -12.887057 -1.590585
-4.608692 -12.794934 -1.262032
-4.721659 -13.099492 -0.968698
-14.374679 -39.666447 -1.957277
-14.425283 -39.784382 -0.974083
-14.492112 -39.925159 0.006659
-14.474603 -39.834000 0.988825
-14.529767 -39.964005 1.986096
-14.559441 -40.002289 2.978032
-14.523682 -39.882839 3.959392
-14.610781 -40.078369 4.986322
-14.572124 -39.929558 5.969682
-14.644772 -40.106716 7.009030
-14.675988 -40.148895 8.046409
0.000193 -0.082657 -0.003920
-0.199818 -0.625972 -0.329028
-0.215892 -0.669329 -0.336149
-0.229248 -0.704906 -0.336686
-0.253238 -0.769610 -0.350280
-0.277088 -0.833449 -0.360021
-0.303177 -0.903220 -0.369083
-0.349512 -1.028037 -0.397234
-1.923290 -5.277008 -2.018406
-2.093311 -5.733139 -2.038363
-2.287197 -6.249871 -2.054638
-2.518784 -6.867023 -2.077115
-2.802191 -7.626325 -2.108460
-3.158352 -8.576030 -2.148629
-3.610903 -9.787831 -2.202292
-4.218386 -11.408442 -2.277908
-4.705288 -12.872403 -2.239411
-4.659157 -12.740259 -1.896099
-4.599268 -12.564192 -1.553776
-4.650662 -12.690141 -1.254242
-4.657484 -12.701922 -0.941165
-13.241809 -35.921455 -1.776126
-14.693216 -39.828468 -0.977177
-14.713690 -39.841343 0.006642
-14.709567 -39.787792 0.989700
-14.755725 -39.891216 1.986547
-14.788385 -39.936802 2.979275
-14.742942 -39.793251 3.958630
-14.842220 -40.018108 4.989099
-14.800648 -39.863880 5.972175
-14.872866 -40.036850 7.011285
-6.784998 -18.290680 3.662122
0.000186 -0.082263 -0.003901
-0.204972 -0.629239 -0.331948
-0.220729 -0.670920 -0.338008
-0.234310 -0.706446 -0.338462
-0.256799 -0.765961 -0.349407
-0.282952 -0.834756 -0.361629
-0.311451 -0.909600 -0.372917
-0.356588 -1.028962 -0.398670
-1.955647 -5.266524 -2.019076
-2.125107 -5.712755 -2.035789
-2.325499 -6.237174 -2.055220
-2.559483 -6.849302 -2.076551
-2.846152 -7.603232 -2.106930
-3.208791 -8.552542 -2.147697
-3.670110 -9.765191 -2.202281
-4.290273 -11.389416 -2.279378
-4.725814 -12.689633 -2.212532
-4.702301 -12.620297 -1.882476
-4.692182 -12.580108 -1.559323
-4.745082 -12.707685 -1.258867
-4.741491 -12.691506 -0.942548
-14.845657 -39.519188 -1.958515
-14.918790 -39.692677 -0.976091
-14.959785 -39.759689 0.006627
-14.993459 -39.807159 0.992451
-15.000711 -39.805553 1.986811
-15.034357 -39.852791 2.979818
-6.844411 -18.178633 1.805980
-6.850006 -18.174435 2.263288
-6.814057 -18.060581 2.703059
-6.815440 -18.054850 3.158982
-6.780316 -17.943502 3.600573
0.000182 -0.081872 -0.003882
-0.205535 -0.621171 -0.328012
-0.223374 -0.667625 -0.337052
-0.238433 -0.706407 -0.339341
-0.261381 -0.765768 -0.350244
-0.284542 -0.825947 -0.358359
-0.319348 -0.916053 -0.376750
-0.364704 -1.033459 -0.401560
-1.983889 -5.253371 -2.018378
-2.154769 -5.692946 -2.033217
-2.361576 -6.225056 -2.055802
-2.598608 -6.838097 -2.077640
-2.892887 -7.595349 -2.109448
-3.253233 -8.526825 -2.145843
-3.726515 -9.745329 -2.202687
-4.344704 -11.336632 -2.273823
-4.740584 -12.516950 -2.186948
-4.849173 -12.795150 -1.912755
-4.750548 -12.523609 -1.555612
-4.795619 -12.628529 -1.253672
-4.850328 -12.765081 -0.950048
-6.902731 -18.112942 -0.899470
-6.910297 -18.113949 -0.447444
-6.891628 -18.055895 0.000881
-6.885942 -18.022411 0.447031
-6.857128 -17.928801 0.892456
-6.855927 -17.916431 1.336962
-6.822629 -17.811422 1.773198
-6.836279 -17.828459 2.224879
-6.794694 -17.711395 2.656217
-6.793097 -17.689020 3.101507
-6.771194 -17.614098 3.541990
0.000179 -0.081482 -0.003863
-0.209271 -0.621213 -0.328974
-0.228024 -0.669229 -0.338911
-0.240726 -0.701292 -0.337529
-0.265303 -0.763845 -0.350226
-0.291606 -0.830664 -0.361593
-0.321467 -0.906928 -0.373651
-0.367481 -1.024017 -0.398635
-2.017280 -5.248128 -2.021099
-2.187051 -5.680057 -2.033204
-2.394841 -6.205641 -2.054003
-2.635144 -6.813214 -2.074873
-2.934689 -7.574562 -2.108424
-3.299726 -8.497917 -2.143529
-3.782371 -9.719029 -2.201847
-4.412836 -11.313914 -2.274554
0.000179 -0.081482 -0.003863
-4.942441 -12.811920 -1.919695
-4.815659 -12.479000 -1.553522
-4.824482 -12.488941 -1.242547
-4.896534 -12.661303 -0.944480
0.000179 -0.081482 -0.003863
-6.882583 -17.736282 -0.439129
-6.878170 -17.706860 0.000802
-6.871332 -17.680334 0.439433
-6.845611 -17.596485 0.877754
-6.842420 -17.570347 1.314003
-6.809339 -17.468004 1.742838
-6.812986 -17.468433 2.184608
-6.780574 -17.368008 2.610491
-6.785648 -17.363277 3.051176
-6.751329 -17.267111 3.479700
0.000176 -0.081091 -0.003845
-0.212476 -0.619573 -0.328956
-0.228266 -0.659262 -0.334200
-0.245062 -0.701126 -0.338408
-0.268027 -0.758513 -0.348498
-0.295911 -0.828574 -0.361575
-0.325017 -0.901199 -0.372093
-0.376506 -1.030087 -0.402252
-2.047688 -5.237774 -2.021769
-2.216735 -5.657790 -2.029991
-2.429003 -6.185594 -2.052204
-2.676001 -6.802896 -2.076514
-2.978392 -7.554840 -2.107907
-3.348148 -8.478392 -2.143519
-3.841433 -9.705777 -2.203914
-4.477445 -11.287920 -2.274546
-4.779871 -12.191872 -2.139666
-5.018580 -12.790222 -1.920800
-4.802953 -12.231811 -1.526202
-4.852591 -12.344904 -1.231052
-5.032060 -12.792039 -0.956429
0.000176 -0.081091 -0.003845
-6.877353 -17.417810 -0.432283
-6.859298 -17.363562 0.000724
-6.850128 -17.322969 0.431460
-6.829091 -17.252592 0.862489
-6.824256 -17.231798 1.291465
-6.797372 -17.146935 1.714526
-6.804217 -17.146856 2.149226
-6.765543 -17.041315 2.566995
-6.757726 -17.004625 2.994677
-6.740844 -16.945312 3.422601
0.000194 -0.080679 -0.003826
-0.215577 -0.617950 -0.328938
-0.235534 -0.667368 -0.339813
-0.248623 -0.699304 -0.338390
-0.273272 -0.759917 -0.350190
-0.299535 -0.824775 -0.360745
-0.330418 -0.900624 -0.372845
-0.384750 -1.034415 -0.405142
-2.075235 -5.220272 -2.019704
-2.250230 -5.648050 -2.031258
-2.465558 -6.174661 -2.053382
-2.712502 -6.781635 -2.074849
-3.022102 -7.538958 -2.108402
-3.397897 -8.462170 -2.144429
-3.890153 -9.666767 -2.200166
-4.534516 -11.243352 -2.270840
-4.821589 -12.094140 -2.127356
-5.070276 -12.707412 -1.912735
-4.834303 -12.107693 -1.514158
-4.902312 -12.264623 -1.225856
-4.921144 -12.305308 -0.922084
-5.287489 -13.202129 -0.660078
-6.858145 -17.082687 -0.424978
-6.836710 -17.021074 0.000646
-6.827993 -16.982525 0.423862
-6.803522 -16.905125 0.846945
-6.805436 -16.901455 1.269487
-6.778167 -16.817322 1.685284
-6.784473 -16.816137 2.112448
-6.748466 -16.719044 2.524058
-6.741495 -16.685278 2.944996
-6.714289 -16.601767 3.360682
0.000191 -0.080289 -0.003807
-0.220636 -0.621140 -0.331857
-0.236238 -0.659068 -0.336041
-0.254198 -0.702419 -0.341062
-0.279910 -0.764622 -0.353593
-0.307402 -0.831038 -0.364792
-0.335126 -0.898305 -0.372827
