# This PCD file was generated using the MATLAB® pcwrite function
# from Computer Vision Toolbox®.
# .PCD v.7 - Point Cloud Data file format
VERSION .7
FIELDS x y z
SIZE 4 4 4
TYPE F F F
COUNT 1 1 1
WIDTH 1675
HEIGHT 1
VIEWPOINT 0 0 0 1 0 0 0
POINTS 1675
DATA ascii
7.004750 3.327808 -0.941802
0.000620 -0.241465 -0.011623
23.316751 11.627562 -1.881587
28.461227 14.235409 -1.549907
33.029598 16.546494 -0.928816
28.211672 14.093001 -0.060256
46.262962 23.247374 1.113219
46.283897 23.240250 2.328783
46.363056 23.272791 3.543297
0.000620 -0.241465 -0.011623
0.000620 -0.241465 -0.011623
16.884399 8.306012 2.618395
0.000620 -0.241465 -0.011623
0.000620 -0.241465 -0.011623
0.527443 0.023446 -0.362428
2.857913 1.192550 -1.814194
2.995654 1.261222 -1.799771
3.169986 1.347510 -1.798333
3.353369 1.438924 -1.793679
3.566271 1.544283 -1.794309
3.766118 1.642941 -1.777862
4.020411 1.769559 -1.774584
4.303506 1.909545 -1.770758
4.615297 2.064668 -1.763457
4.994553 2.252291 -1.762667
5.398307 2.451842 -1.751233
5.916204 2.709284 -1.752886
6.510826 3.003386 -1.746786
6.787112 3.139996 -1.635277
6.920310 3.203737 -1.480126
6.961482 3.259575 -1.303930
6.976241 3.265863 -1.121043
7.000358 3.275320 -0.938388
6.979623 3.262241 -0.752161
23.311642 11.456784 -1.875372
28.522722 14.060901 -1.548304
33.214027 16.407875 -0.930834
28.349180 13.958432 -0.059907
45.508781 22.536142 1.092377
45.545887 22.547293 2.285682
46.265652 22.889788 3.526273
47.524220 23.511280 4.863530
0.000619 -0.241076 -0.011605
0.000619 -0.241076 -0.011605
17.136637 8.307719 3.104752
0.000619 -0.241076 -0.011605
0.524288 0.018593 -0.359334
2.870603 1.179296 -1.817080
2.999549 1.242003 -1.796883
3.180416 1.330947 -1.799169
3.361387 1.419168 -1.792752
3.576510 1.524097 -1.794238
3.781910 1.624076 -1.780108
4.031958 1.746773 -1.774506
4.315862 1.885132 -1.770675
4.630622 2.038470 -1.764010
5.004141 2.220468 -1.760776
5.429262 2.428721 -1.756121
5.933624 2.674510 -1.752777
6.535231 2.967663 -1.748059
6.783072 3.086798 -1.629289
6.938870 3.162124 -1.479628
6.961497 3.211393 -1.300210
6.976823 3.216349 -1.117826
7.003881 3.228626 -0.936152
6.984811 3.216530 -0.750530
23.298195 11.282933 -1.868589
28.869688 14.027786 -1.562092
32.846893 15.988195 -0.917560
0.000618 -0.240688 -0.011587
0.000618 -0.240688 -0.011587
0.000618 -0.240688 -0.011587
45.653473 22.256420 3.470202
0.000618 -0.240688 -0.011587
0.000618 -0.240688 -0.011587
0.000618 -0.240688 -0.011587
0.000618 -0.240688 -0.011587
17.295931 8.253304 3.588757
0.538227 0.021803 -0.367490
2.871402 1.158293 -1.812106
3.011489 1.226111 -1.798703
3.188386 1.311109 -1.798201
3.374448 1.401162 -1.794400
3.583668 1.501647 -1.792533
3.796239 1.603592 -1.781580
4.050394 1.726445 -1.777348
4.331809 1.861520 -1.771965
4.643685 2.012144 -1.763924
5.025132 2.195335 -1.763079
5.450227 2.399371 -1.757683
5.953826 2.642372 -1.753690
6.562387 2.934606 -1.750265
6.787498 3.042455 -1.625823
6.905302 3.096846 -1.468310
7.001982 3.178727 -1.303684
7.002573 3.177892 -1.118546
7.001742 3.174844 -0.932972
6.986117 3.164590 -0.748327
23.287281 11.106426 -1.861951
29.225084 13.988677 -1.576160
33.001942 15.822261 -0.918679
44.624840 21.462601 -0.085827
44.638966 21.452642 1.066423
44.650021 21.450834 2.228925
44.797058 21.505396 3.395678
45.872379 22.020027 4.668480
0.000597 -0.240322 -0.011568
0.000597 -0.240322 -0.011568
0.000597 -0.240322 -0.011568
0.000597 -0.240322 -0.011568
0.536592 0.017697 -0.365418
2.882337 1.144140 -1.814011
3.024432 1.211956 -1.801466
3.203475 1.296769 -1.801737
3.382251 1.381320 -1.793474
3.595306 1.482152 -1.793278
3.804842 1.581961 -1.780734
4.056634 1.701061 -1.775079
4.342165 1.836113 -1.771196
4.661737 1.988210 -1.765767
5.044259 2.169204 -1.764782
5.463638 2.367510 -1.757031
5.968606 2.607592 -1.753075
6.584087 2.898813 -1.751079
6.799819 2.999150 -1.624028
6.909045 3.048613 -1.464829
7.028087 3.143376 -1.304874
7.050705 3.151627 -1.122926
7.001041 3.126622 -0.930269
6.983502 3.115568 -0.745944
23.276735 10.936243 -1.855608
29.179853 13.765988 -1.569092
32.877594 15.528572 -0.912251
0.000598 -0.239935 -0.011550
0.000598 -0.239935 -0.011550
0.000598 -0.239935 -0.011550
44.928719 21.250887 3.396898
44.869724 21.205879 4.553818
0.000598 -0.239935 -0.011550
0.000598 -0.239935 -0.011550
0.000598 -0.239935 -0.011550
0.000598 -0.239935 -0.011550
0.533458 0.012695 -0.362323
2.884235 1.124434 -1.810020
3.028226 1.192106 -1.798578
3.212560 1.278123 -1.801670
3.393465 1.362378 -1.794263
3.608494 1.463370 -1.794839
3.818945 1.561315 -1.782205
4.074846 1.680525 -1.777921
4.359176 1.813868 -1.773175
4.678314 1.962500 -1.766964
5.060215 2.140433 -1.765287
5.489018 2.341293 -1.760257
5.988930 2.574167 -1.753986
6.600330 2.860417 -1.750500
6.795367 2.949522 -1.618467
6.911870 3.001641 -1.461351
6.960690 3.060574 -1.288720
6.980674 3.068952 -1.108741
6.997562 3.074349 -0.927093
6.983509 3.065098 -0.743745
23.266790 10.767403 -1.849409
29.305801 13.613464 -1.570943
32.872959 15.287477 -0.909075
0.000599 -0.239548 -0.011531
0.000599 -0.239548 -0.011531
0.000599 -0.239548 -0.011531
0.000599 -0.239548 -0.011531
46.927620 21.858799 4.750883
0.000599 -0.239548 -0.011531
0.000599 -0.239548 -0.011531
0.000599 -0.239548 -0.011531
0.000599 -0.239548 -0.011531
0.531781 0.008545 -0.360251
2.892052 1.108176 -1.809960
3.038039 1.175772 -1.799456
3.222876 1.260726 -1.802505
3.402655 1.343196 -1.794195
3.613289 1.440631 -1.792320
3.827599 1.538899 -1.781358
4.077424 1.653504 -1.774192
4.367547 1.787539 -1.771719
4.689226 1.935116 -1.766235
5.075599 2.112449 -1.765793
5.502075 2.309225 -1.759604
6.008568 2.541644 -1.754898
6.628685 2.827639 -1.753169
6.799438 2.904154 -1.615000
6.914391 2.954757 -1.457874
6.963513 3.013311 -1.285656
6.979883 3.019861 -1.105527
7.003952 3.028513 -0.925328
6.984378 3.016790 -0.741738
23.261118 10.601596 -1.843639
29.473867 13.486181 -1.575206
32.880280 15.060334 -0.906357
0.000599 -0.239161 -0.011512
0.000599 -0.239161 -0.011512
0.000599 -0.239161 -0.011512
0.000599 -0.239161 -0.011512
45.399094 20.820827 4.584061
0.000599 -0.239161 -0.011512
0.000599 -0.239161 -0.011512
0.000599 -0.239161 -0.011512
0.000599 -0.239161 -0.011512
0.520716 0.000137 -0.352043
2.898217 1.091174 -1.808917
3.047775 1.159387 -1.800335
3.229861 1.241786 -1.801539
3.410088 1.323206 -1.793268
3.621280 1.419437 -1.791432
3.846195 1.521063 -1.785151
4.093349 1.632692 -1.776304
4.382571 1.764287 -1.773011
4.706882 1.910844 -1.768076
5.087340 2.082771 -1.765102
5.530668 2.284266 -1.763938
6.035063 2.512194 -1.757848
6.649812 2.791427 -1.753981
6.796081 2.855598 -1.609859
6.914820 2.907151 -1.454023
6.966009 2.966115 -1.282592
6.976971 2.970076 -1.102032
7.006430 2.981052 -0.923094
6.983139 2.967780 -0.739542
23.241608 10.430390 -1.836875
29.585123 13.331580 -1.576488
32.664326 14.731988 -0.897626
0.000600 -0.238773 -0.011494
0.000600 -0.238773 -0.011494
0.000600 -0.238773 -0.011494
0.000600 -0.238773 -0.011494
16.678942 7.381771 1.672585
0.000600 -0.238773 -0.011494
0.000600 -0.238773 -0.011494
0.000600 -0.238773 -0.011494
0.000600 -0.238773 -0.011494
0.522083 -0.002480 -0.352017
2.902666 1.073405 -1.806892
3.050965 1.140010 -1.797448
3.230230 1.219885 -1.796974
3.420708 1.304685 -1.794058
3.635772 1.401181 -1.793810
3.849563 1.496241 -1.781982
4.102395 1.608722 -1.775496
4.395789 1.740193 -1.773615
4.719206 1.884091 -1.767989
5.105886 2.056186 -1.766805
5.541620 2.251182 -1.762731
6.050828 2.477780 -1.757742
6.676040 2.757441 -1.756186
6.804899 2.812806 -1.607649
6.916701 2.860431 -1.450546
6.962807 2.916566 -1.278547
6.979104 2.922865 -1.099382
7.003157 2.931210 -0.920156
6.988781 2.922137 -0.738102
23.229982 10.263879 -1.830824
29.706511 13.181108 -1.578344
32.646145 14.497126 -0.894325
0.000600 -0.238386 -0.011475
0.000600 -0.238386 -0.011475
0.000600 -0.238386 -0.011475
45.941059 20.450211 3.439366
16.878721 7.356256 1.688578
16.613647 7.230926 2.092259
0.000600 -0.238386 -0.011475
0.000600 -0.238386 -0.011475
0.000600 -0.238386 -0.011475
0.520348 -0.006572 -0.349945
2.904060 1.053727 -1.802901
3.062349 1.123725 -1.799266
3.248649 1.205449 -1.802306
3.429826 1.284756 -1.793988
3.653813 1.383688 -1.797817
3.861495 1.474511 -1.782679
4.125235 1.590039 -1.780526
4.409187 1.715229 -1.774217
4.729994 1.855667 -1.767257
5.124660 2.028552 -1.768505
5.563354 2.221767 -1.764845
6.065092 2.441444 -1.757124
6.700849 2.721326 -1.757923
6.812181 2.768045 -1.605017
6.920600 2.813387 -1.447439
6.967018 2.869176 -1.275808
6.974264 2.871334 -1.095603
7.007333 2.883525 -0.918154
7.003797 2.879404 -0.737601
23.239063 10.102735 -1.826331
29.953575 13.079673 -1.586714
33.529678 14.657475 -0.915294
0.000597 -0.237995 -0.011456
0.000597 -0.237995 -0.011456
0.000597 -0.237995 -0.011456
46.194302 20.235849 3.449911
46.222069 20.231365 4.632591
16.681253 7.143050 2.095509
0.000597 -0.237995 -0.011456
0.000597 -0.237995 -0.011456
0.000597 -0.237995 -0.011456
0.521672 -0.009187 -0.349919
2.911487 1.037384 -1.802840
3.066935 1.105045 -1.797320
3.253651 1.185666 -1.800441
3.436906 1.264643 -1.793062
3.661451 1.362286 -1.796929
3.871314 1.452631 -1.782605
4.130578 1.564386 -1.778258
4.423837 1.691703 -1.775508
4.747211 1.831057 -1.769099
5.144649 2.002436 -1.770806
5.575683 2.189304 -1.764192
6.085775 2.409182 -1.758545
6.724944 2.686181 -1.759663
6.820433 2.725257 -1.602807
6.972319 2.788731 -1.454409
6.963138 2.819872 -1.271764
6.973919 2.823528 -1.092673
7.005208 2.834741 -0.915452
7.014347 2.836205 -0.736727
23.276337 9.959516 -1.824269
30.059084 12.920153 -1.587798
32.797913 14.107167 -0.892835
0.000597 -0.237608 -0.011437
30.843878 13.236598 0.722748
0.000597 -0.237608 -0.011437
46.510738 20.056833 3.465499
0.000597 -0.237608 -0.011437
0.000597 -0.237608 -0.011437
0.000597 -0.237608 -0.011437
0.000597 -0.237608 -0.011437
0.000597 -0.237608 -0.011437
0.488267 -0.026783 -0.327396
2.912405 1.018225 -1.798851
3.081115 1.090537 -1.801023
3.270029 1.170835 -1.804875
3.450510 1.247364 -1.795568
3.663911 1.338669 -1.793594
3.882711 1.431435 -1.783304
4.144342 1.542437 -1.779640
4.438346 1.668061 -1.776799
4.759072 1.804076 -1.769012
5.152242 1.970922 -1.768918
5.582528 2.154517 -1.761878
6.093823 2.371429 -1.756402
6.722007 2.639361 -1.754445
6.823017 2.680165 -1.599342
6.973384 2.741963 -1.450932
6.987891 2.783240 -1.272953
6.987832 2.782151 -1.091991
7.004560 2.786859 -0.912985
7.046576 2.802464 -0.738115
23.429958 9.866765 -1.831313
30.281149 12.810444 -1.595022
32.857956 13.908937 -0.891753
0.000598 -0.237221 -0.011418
0.000598 -0.237221 -0.011418
31.324783 13.221508 1.531014
46.678143 19.811075 3.470017
31.683115 13.359222 3.156820
0.000598 -0.237221 -0.011418
0.000598 -0.237221 -0.011418
0.000598 -0.237221 -0.011418
0.000598 -0.237221 -0.011418
0.473636 -0.035946 -0.317145
2.924428 1.003869 -1.801736
3.087124 1.072484 -1.800018
3.271535 1.149586 -1.801209
3.459028 1.227860 -1.795499
3.674643 1.318656 -1.794338
3.887191 1.407288 -1.780909
4.151118 1.517483 -1.778101
4.449279 1.642869 -1.776716
4.774264 1.778499 -1.770210
5.173685 1.945308 -1.771817
5.596234 2.122718 -1.761778
6.112331 2.338180 -1.757314
6.713387 2.590421 -1.747837
6.828910 2.636660 -1.596714
6.930685 2.677022 -1.438504
7.039685 2.758014 -1.279046
7.034271 2.754644 -1.096369
6.999940 2.737541 -0.910049
7.082292 2.769994 -0.739881
23.507969 9.740608 -1.832523
30.433044 12.668970 -1.598596
32.683010 13.611444 -0.884426
0.000599 -0.236834 -0.011400
31.124058 12.934978 0.726689
30.961948 12.855297 1.509874
32.157829 13.356085 2.381626
16.567831 6.760243 1.641498
0.000599 -0.236834 -0.011400
17.589775 7.182906 2.644789
65.010460 27.163456 11.479753
57.487892 23.972422 11.652349
0.458935 -0.044909 -0.306894
2.929928 0.986712 -1.800694
3.101147 1.057788 -1.803721
3.279493 1.131117 -1.801144
3.464084 1.206904 -1.793715
3.697324 1.302836 -1.800793
3.900013 1.386670 -1.782381
4.166335 1.496083 -1.780213
4.462100 1.617533 -1.777319
4.778816 1.748451 -1.767552
5.189720 1.917334 -1.772921
5.622592 2.095019 -1.765555
6.134241 2.306299 -1.759244
6.704916 2.540513 -1.741226
6.833212 2.591243 -1.593665
6.933342 2.630226 -1.435400
6.954906 2.675135 -1.260618
6.977016 2.681912 -1.084723
6.998628 2.689892 -0.907584
7.099511 2.729556 -0.739760
23.518925 9.581354 -1.828459
30.562204 12.516962 -1.601017
32.810211 13.443373 -0.885216
0.000599 -0.236446 -0.011381
30.730543 12.560655 0.716056
31.387304 12.822988 1.527521
0.000599 -0.236446 -0.011381
16.787428 6.736293 1.659519
16.736645 6.712687 2.082772
0.000599 -0.236446 -0.011381
65.363220 26.856979 11.514492
57.509956 23.593143 11.629664
0.439414 -0.055724 -0.293575
2.946833 0.973670 -1.806524
3.113704 1.041775 -1.806480
3.290870 1.113370 -1.802876
3.477633 1.188774 -1.796220
3.702760 1.280510 -1.799090
3.911305 1.364587 -1.783079
4.176567 1.471721 -1.780133
4.474467 1.592907 -1.777923
4.799314 1.724044 -1.770676
5.198881 1.885432 -1.771629
5.643076 2.065903 -1.767671
6.151024 2.270965 -1.759644
6.711804 2.498564 -1.738793
6.829473 2.544113 -1.588946
6.933373 2.583973 -1.431925
6.962954 2.630448 -1.258862
6.979068 2.636037 -1.082357
7.004863 2.644172 -0.906054
7.129878 2.693054 -0.740957
23.516047 9.421876 -1.823553
30.909044 12.447269 -1.614641
32.687325 13.165403 -0.879311
32.548996 13.103787 -0.058872
30.996525 12.456522 0.721030
31.676870 12.723904 1.538406
31.843559 12.787311 2.347710
16.668736 6.575097 1.644031
17.136225 6.760076 2.127814
16.945318 6.679599 2.535619
65.413818 26.437973 11.497118
57.580997 23.223673 11.616556
0.416533 -0.067543 -0.278213
2.947320 0.954466 -1.802535
3.121024 1.024201 -1.806417
3.300274 1.095460 -1.803710
3.484122 1.168432 -1.795293
3.699600 1.254774 -1.793306
3.920491 1.342433 -1.783004
4.188082 1.448723 -1.780785
4.486698 1.568203 -1.778526
4.812299 1.697464 -1.771232
5.214584 1.857273 -1.772733
5.650911 2.031606 -1.765910
6.170788 2.238067 -1.761064
6.716648 2.455930 -1.735895
6.834509 2.500774 -1.586318
6.934920 2.538544 -1.428824
6.944626 2.576628 -1.252533
6.982669 2.590995 -1.080271
7.002946 2.596738 -0.903589
0.000600 -0.235672 -0.011343
23.508417 9.261270 -1.818363
31.059412 12.300850 -1.618206
32.504372 12.872625 -0.871951
0.000600 -0.235672 -0.011343
30.902170 12.210950 0.717555
31.767633 12.548347 1.539692
16.360989 6.345792 1.198116
16.735382 6.490512 1.647035
0.000600 -0.235672 -0.011343
0.000600 -0.235672 -0.011343
65.476418 26.025171 11.482314
0.000600 -0.235672 -0.011343
0.415910 -0.070179 -0.277166
2.962253 0.941086 -1.807384
3.121697 1.003996 -1.802589
3.307896 1.076809 -1.803645
3.495545 1.150076 -1.796941
3.708161 1.233848 -1.793234
3.932979 1.321588 -1.784476
4.196004 1.424279 -1.779976
4.498790 1.543422 -1.779130
4.825143 1.670810 -1.771787
5.226585 1.827607 -1.772639
5.663893 1.999409 -1.765810
6.186735 2.203567 -1.761467
6.733868 2.418303 -1.736245
6.828324 2.453144 -1.581181
6.943502 2.496087 -1.427214
6.781066 2.465406 -1.220383
6.984116 2.545251 -1.077905
6.998850 2.548671 -0.900890
8.203042 3.024826 -0.846610
17.522512 6.726295 -1.354858
17.554459 6.732822 -0.917151
32.653690 12.715093 -0.873431
0.000601 -0.235285 -0.011325
31.343256 12.179681 0.726726
30.408382 11.798717 1.470371
30.777952 11.940394 2.259143
16.831242 6.417109 1.652971
17.008656 6.481285 2.102618
16.450741 6.258519 2.450390
17.511600 6.671191 3.055787
0.000601 -0.235285 -0.011325
0.423248 -0.069697 -0.281231
2.975486 0.926923 -1.811252
3.137034 0.989605 -1.807232
3.318765 1.059440 -1.805378
3.503497 1.130320 -1.796872
3.721939 1.214193 -1.795609
3.943605 1.299954 -1.785174
4.203784 1.399805 -1.779168
4.509279 1.517077 -1.779046
4.836047 1.643362 -1.771700
5.241967 1.799250 -1.773742
5.680666 1.967547 -1.766816
6.202506 2.168985 -1.761869
6.753148 2.380097 -1.737055
6.835065 2.409449 -1.578971
6.941283 2.448148 -1.423365
0.000601 -0.234898 -0.011306
6.867746 2.452207 -1.057556
7.005536 2.505094 -0.899598
8.206856 2.972120 -0.844967
23.495268 8.938647 -1.808265
30.781195 11.778878 -1.595633
32.560081 12.461823 -0.868533
17.665257 6.647347 -0.036152
0.000601 -0.234898 -0.011306
16.389572 6.142179 0.785718
0.000601 -0.234898 -0.011306
18.043674 6.773212 1.769004
17.910076 6.718691 2.209920
0.000601 -0.234898 -0.011306
0.000601 -0.234898 -0.011306
0.000601 -0.234898 -0.011306
0.412994 -0.076133 -0.274050
2.980735 0.909024 -1.810207
3.139315 0.969453 -1.804344
3.323076 1.038837 -1.803512
3.511327 1.110512 -1.796804
3.728527 1.192459 -1.794722
3.949241 1.275618 -1.783551
4.209666 1.374622 -1.777630
4.517567 1.490803 -1.778276
4.850362 1.617236 -1.772898
5.255385 1.770081 -1.774248
5.693266 1.935171 -1.766717
6.218097 2.134323 -1.762271
6.773561 2.343615 -1.738331
6.838789 2.367464 -1.576347
6.948831 2.406939 -1.421759
6.788278 2.377503 -1.215901
6.836902 2.395211 -1.050417
6.919708 2.424673 -0.886578
7.077009 2.482659 -0.728415
23.523531 8.794286 -1.806064
30.975075 11.643627 -1.601485
32.733509 12.313143 -0.870698
0.000602 -0.234510 -0.011287
31.271498 11.730947 0.722628
0.000602 -0.234510 -0.011287
17.477924 6.444353 1.272684
0.000602 -0.234510 -0.011287
17.300133 6.367866 2.129789
17.698961 6.513956 2.625749
17.254200 6.341847 2.997776
17.058920 6.261516 3.403385
0.418694 -0.076236 -0.277093
2.990358 0.893981 -1.812111
3.146215 0.951738 -1.804281
3.330153 1.020644 -1.803447
3.520715 1.091280 -1.797593
3.748683 1.175865 -1.800361
3.964802 1.255835 -1.786569
4.232851 1.355999 -1.783390
4.534493 1.467795 -1.780939
4.859519 1.588153 -1.772166
5.270803 1.740609 -1.775349
5.700301 1.900724 -1.764956
6.239301 2.100474 -1.764198
6.777840 2.299690 -1.735432
6.843575 2.321917 -1.573717
6.999370 2.379103 -1.428723
6.806483 2.341357 -1.216442
6.833433 2.349187 -1.047492
6.917738 2.380056 -0.884353
6.885326 2.365423 -0.707392
23.625555 8.678059 -1.809548
31.097208 11.485866 -1.603803
32.500244 12.009891 -0.862229
0.000603 -0.234123 -0.011269
31.311815 11.540487 0.722433
18.110729 6.569946 0.866050
18.405209 6.677889 1.338141
17.735306 6.420172 1.731443
16.886923 6.096032 2.074229
17.169153 6.195913 2.541352
17.207823 6.207885 2.983247
16.868809 6.075181 3.358047
0.424492 -0.076612 -0.280135
3.008647 0.880311 -1.818921
3.160045 0.935338 -1.807980
3.342816 1.002538 -1.806078
3.527075 1.069514 -1.796664
3.757254 1.153334 -1.800286
3.972124 1.231342 -1.785718
4.239006 1.329206 -1.781849
4.544821 1.440447 -1.780853
4.875913 1.560786 -1.774002
5.273834 1.705473 -1.772261
5.716877 1.867593 -1.765960
6.253482 2.062723 -1.764086
6.776784 2.252608 -1.731140
6.848059 2.276413 -1.571086
6.987556 2.326558 -1.423008
6.836895 2.305614 -1.218936
6.824959 2.298826 -1.043720
6.920553 2.333305 -0.882590
6.970170 2.349313 -0.714239
23.602861 8.505558 -1.803353
20.945789 7.514509 -1.081148
32.385048 11.741504 -0.856781
0.000603 -0.233736 -0.011250
0.000603 -0.233736 -0.011250
18.309418 6.517663 0.873952
0.000603 -0.233736 -0.011250
18.098913 6.431172 1.763430
16.979315 6.013046 2.081163
0.000603 -0.233736 -0.011250
0.000603 -0.233736 -0.011250
16.857149 5.954113 3.348385
0.422148 -0.079751 -0.278065
3.026298 0.868055 -1.825734
3.169681 0.919849 -1.809800
3.341290 0.981191 -1.801514
3.537735 1.051446 -1.798312
3.764715 1.133376 -1.800217
3.978284 1.209605 -1.784873
4.245940 1.305273 -1.781042
4.553829 1.416229 -1.780773
4.889127 1.536062 -1.775203
5.295030 1.681197 -1.775760
5.724553 1.835710 -1.764757
6.271287 2.031220 -1.765510
6.771429 2.210886 -1.726397
6.846417 2.235625 -1.567631
6.938451 2.266451 -1.410221
6.956636 2.306367 -1.237446
6.838585 2.262276 -1.043609
6.917994 2.288888 -0.880365
7.051847 2.335280 -0.720902
21.076088 7.440960 -1.608016
0.000600 -0.233345 -0.011231
32.383781 11.536268 -0.854553
0.000600 -0.233345 -0.011231
0.000600 -0.233345 -0.011231
18.133410 6.341932 0.863973
0.000600 -0.233345 -0.011231
32.085426 11.385537 3.129159
17.149204 5.970817 2.098186
0.000600 -0.233345 -0.011231
16.801840 5.836996 2.900758
16.879242 5.859213 3.346424
0.421397 -0.082387 -0.277018
0.000600 -0.232958 -0.011212
3.174617 0.901357 -1.808796
3.351608 0.963510 -1.803248
3.546786 1.032034 -1.799102
3.765907 1.108955 -1.796881
3.986537 1.187046 -1.784798
4.256503 1.281804 -1.781693
4.567109 1.390836 -1.782061
4.901049 1.508905 -1.775758
5.307786 1.651696 -1.776265
5.742193 1.804030 -1.766316
6.287901 1.996756 -1.766420
6.771151 2.165841 -1.722572
6.851750 2.192086 -1.565422
6.943918 2.222351 -1.408238
6.969303 2.265981 -1.237002
6.834633 2.215354 -1.040683
6.945506 2.254081 -0.881890
7.070280 2.296354 -0.721160
20.925905 7.246324 -1.592925
20.743210 7.178020 -1.065898
32.362534 11.318366 -0.851778
0.000600 -0.232958 -0.011212
32.715942 11.428610 0.751940
0.000600 -0.232958 -0.011212
31.939631 11.130116 2.317001
18.259630 6.256901 1.772406
17.315676 5.918902 2.114535
0.000600 -0.232958 -0.011212
16.973330 5.785735 2.924510
17.034437 5.804974 3.370592
0.422295 -0.084492 -0.276993
0.000601 -0.232571 -0.011193
3.181318 0.882892 -1.808731
3.360374 0.944599 -1.804080
3.555974 1.011967 -1.799889
3.777051 1.088849 -1.798440
4.005360 1.167404 -1.789361
4.268959 1.258142 -1.783072
4.581728 1.366753 -1.784037
4.914899 1.481431 -1.776954
5.320717 1.621201 -1.776767
5.755672 1.771953 -1.766770
6.297396 1.958530 -1.765293
6.775686 2.123997 -1.720141
6.854546 2.149130 -1.562798
6.941267 2.176922 -1.404767
6.972850 2.221036 -1.234923
6.856108 2.178972 -1.041692
7.005120 2.229014 -0.887397
7.107711 2.262655 -0.723298
20.932890 7.113525 -1.589914
20.675608 7.016200 -1.059937
32.641869 11.200555 -0.856767
0.000601 -0.232571 -0.011193
32.810982 11.243914 0.753047
0.000601 -0.232571 -0.011193
0.000601 -0.232571 -0.011193
18.106770 6.085755 1.754165
17.158621 5.749079 2.091129
75.875832 26.208279 11.180750
17.115791 5.725906 2.943434
57.970936 19.929661 11.474829
0.424762 -0.085984 -0.277991
0.415775 -0.089205 -0.258589
3.186057 0.864381 -1.807727
3.367120 0.925615 -1.804014
3.559680 0.990676 -1.798105
3.786354 1.068063 -1.799184
4.009900 1.143516 -1.787739
4.275743 1.233325 -1.782263
4.592673 1.341349 -1.784640
4.924706 1.453482 -1.776866
5.327699 1.589664 -1.775478
5.772599 1.741027 -1.768332
6.311760 1.923238 -1.765694
6.772602 2.079674 -1.715855
6.855206 2.105579 -1.559755
6.940174 2.132232 -1.401669
6.975688 2.177359 -1.232847
6.881130 2.143717 -1.043261
6.994790 2.180605 -0.884232
8.219450 2.600294 -0.832907
21.038998 7.015326 -1.594427
20.635805 6.869445 -1.055517
32.975677 11.105076 -0.863227
0.000601 -0.232183 -0.011175
0.000601 -0.232183 -0.011175
0.000601 -0.232183 -0.011175
17.838854 5.883660 1.284437
18.093842 5.964977 1.749670
0.000601 -0.232183 -0.011175
17.161442 5.637392 2.515345
17.065725 5.598899 2.929210
0.000601 -0.232183 -0.011175
0.415831 -0.091347 -0.271833
0.428149 -0.087308 -0.265437
3.199030 0.848664 -1.811428
3.382208 0.909440 -1.808446
3.564978 0.969970 -1.797179
3.795521 1.047197 -1.799928
4.016036 1.120207 -1.786891
4.294716 1.212621 -1.786563
4.598116 1.314061 -1.783185
4.937955 1.426696 -1.778063
5.347180 1.562385 -1.778374
5.785714 1.708752 -1.768785
6.327765 1.888476 -1.766605
6.778452 2.038555 -1.713888
6.857457 2.062736 -1.557131
6.942512 2.088876 -1.399317
6.978256 2.133737 -1.230770
6.977230 2.132399 -1.055498
6.993536 2.135582 -0.882241
8.216785 2.546931 -0.830891
0.000602 -0.231796 -0.011156
0.000602 -0.231796 -0.011156
33.409855 11.039997 -0.872267
0.000602 -0.231796 -0.011156
0.000602 -0.231796 -0.011156
0.000602 -0.231796 -0.011156
0.000602 -0.231796 -0.011156
17.651596 5.700536 1.703545
17.316711 5.582160 2.102684
75.891472 25.238159 11.141249
65.927452 21.871990 11.327112
0.000602 -0.231796 -0.011156
0.423176 -0.091174 -0.275897
0.427313 -0.089945 -0.264431
3.208570 0.831718 -1.813246
3.378585 0.886976 -1.802983
3.571864 0.949811 -1.797110
3.806329 1.026867 -1.801488
4.022029 1.096869 -1.786043
4.295934 1.185939 -1.783565
4.614108 1.290304 -1.785847
4.947452 1.398625 -1.777975
5.357447 1.531950 -1.778281
5.811421 1.680594 -1.773114
6.341724 1.852985 -1.767007
6.900486 2.035697 -1.741117
6.904020 2.034567 -1.564543
6.942696 2.044945 -1.396593
6.974933 2.088297 -1.227715
6.977603 2.088207 -1.053417
6.995750 2.091893 -0.880718
8.342263 2.536311 -0.841671
21.136271 6.778319 -1.594935
21.137239 6.771540 -1.076113
33.795013 10.953960 -0.880029
0.000603 -0.231409 -0.011137
0.000603 -0.231409 -0.011137
0.000603 -0.231409 -0.011137
18.196077 5.773604 1.305820
18.636820 5.912821 1.796069
17.829185 5.640584 2.161350
75.905037 24.757677 11.123011
65.935371 21.453459 11.307773
0.000603 -0.231409 -0.011137
0.423978 -0.093226 -0.275872
0.428130 -0.092012 -0.264406
3.212979 0.813062 -1.812242
3.388387 0.868990 -1.804716
3.587231 0.932404 -1.801330
3.820697 1.006898 -1.804677
4.034904 1.075783 -1.788287
4.302260 1.160975 -1.782757
4.621294 1.262713 -1.785075
4.958570 1.371064 -1.778530
5.374804 1.503804 -1.780579
5.820863 1.645881 -1.772459
6.351799 1.816218 -1.766391
7.041625 2.036250 -1.772974
7.038392 2.032887 -1.591603
6.986050 2.013735 -1.402436
6.963808 2.040526 -1.223353
6.978067 2.042846 -1.051333
6.990147 2.045810 -0.878259
20.695513 6.503401 -2.067406
21.181303 6.654396 -1.594897
20.649057 6.478455 -1.049244
22.790854 7.166798 -0.595658
50.724373 16.217194 -0.073892
0.000603 -0.231022 -0.011119
0.000603 -0.231022 -0.011119
18.109873 5.626616 1.297321
0.000603 -0.231022 -0.011119
17.822987 5.525380 2.156789
0.000603 -0.231022 -0.011119
65.961288 21.029528 11.291354
0.000603 -0.231022 -0.011119
0.410054 -0.100053 -0.266648
0.427293 -0.094691 -0.263400
3.237643 0.800263 -1.822528
3.396576 0.849792 -1.805548
3.595815 0.912035 -1.802118
3.820831 0.983058 -1.801342
4.042615 1.052212 -1.788211
4.314037 1.136956 -1.784136
4.631622 1.237019 -1.785679
4.971639 1.343163 -1.779725
5.383221 1.471709 -1.779886
5.827924 1.611549 -1.771252
6.362023 1.778309 -1.765772
7.062027 1.998409 -1.774710
7.071839 1.999162 -1.596086
7.047601 1.989195 -1.412008
7.044853 2.021195 -1.234990
7.025032 2.013878 -1.056269
6.977056 1.996228 -0.874860
0.000604 -0.230635 -0.011100
21.163601 6.514510 -1.590328
20.602863 6.328933 -1.044632
22.746700 7.003939 -0.593071
50.505684 15.825803 -0.072784
50.504009 15.808457 1.157478
0.000604 -0.230635 -0.011100
0.000604 -0.230635 -0.011100
17.721972 5.383117 1.701413
17.665480 5.359362 2.133832
17.574312 5.328063 2.557519
0.000604 -0.230635 -0.011100
0.000604 -0.230635 -0.011100
0.422285 -0.098439 -0.273779
0.426410 -0.097282 -0.262393
3.241879 0.781478 -1.821523
3.404477 0.831141 -1.806382
3.598909 0.890621 -1.800334
3.829507 0.961949 -1.802087
4.053462 1.030375 -1.789682
4.321849 1.112465 -1.784057
4.645408 1.212388 -1.787654
4.982440 1.315443 -1.780280
5.389312 1.439938 -1.778596
5.840307 1.578926 -1.771706
6.377201 1.743165 -1.766683
7.067321 1.955776 -1.772740
6.991149 1.929913 -1.575065
8.014093 2.243385 -1.601149
8.130958 2.317243 -1.420989
8.158440 2.324725 -1.222567
6.984080 1.954610 -0.874042
8.206882 2.334459 -0.823206
21.152605 6.377431 -1.586327
20.708954 6.231970 -1.047764
34.823059 10.624867 -0.899933
50.251713 15.427370 -0.071646
50.263325 15.414313 1.150522
0.000604 -0.230248 -0.011081
0.000604 -0.230248 -0.011081
17.525743 5.210489 1.679659
17.617657 5.233203 2.124436
0.000604 -0.230248 -0.011081
0.000604 -0.230248 -0.011081
0.000604 -0.230248 -0.011081
0.418099 -0.102003 -0.270688
0.433831 -0.097317 -0.266295
3.272981 0.770915 -1.835574
3.415695 0.813486 -1.809014
3.607046 0.870784 -1.801123
3.843324 0.942401 -1.805277
4.062458 1.007953 -1.790380
4.334886 1.089576 -1.786168
4.655455 1.186543 -1.788257
5.000346 1.289871 -1.783404
5.404335 1.410918 -1.780296
5.854321 1.546758 -1.772713
6.397740 1.709603 -1.769119
7.091000 1.918825 -1.775403
7.975038 2.184110 -1.791912
8.028224 2.197576 -1.601020
8.141752 2.269619 -1.420204
8.154103 2.272278 -1.219629
6.979480 1.909515 -0.871818
8.212014 2.284632 -0.822133
20.818361 6.142051 -1.558366
20.732487 6.108917 -1.046789
35.267464 10.541343 -0.909170
49.834148 14.983342 -0.070327
50.073349 15.039818 1.144793
0.000605 -0.229860 -0.011062
0.000605 -0.229860 -0.011062
0.000605 -0.229860 -0.011062
17.580368 5.111247 2.116418
0.000605 -0.229860 -0.011062
0.000605 -0.229860 -0.011062
0.000605 -0.229860 -0.011062
0.423765 -0.102548 -0.273730
0.429573 -0.100938 -0.263326
0.451992 -0.094273 -0.262273
3.419941 0.793657 -1.808049
3.613351 0.850386 -1.801054
3.841294 0.918032 -1.801127
4.069540 0.984924 -1.790305
4.346004 1.066043 -1.787548
4.665375 1.160652 -1.788860
5.009039 1.261438 -1.783316
5.410067 1.379076 -1.779007
5.866324 1.513953 -1.773167
6.405123 1.672019 -1.767994
7.107006 1.879445 -1.776213
7.956952 2.129080 -1.784677
8.030788 2.148344 -1.598655
8.137137 2.217397 -1.416808
8.172187 2.226806 -1.220058
7.024040 1.879388 -0.875684
8.222551 2.236538 -0.821625
21.070665 6.087168 -1.574078
20.655737 5.955973 -1.040854
35.648815 10.434133 -0.916791
49.497456 14.569848 -0.069121
49.643150 14.597071 1.133578
0.000606 -0.229473 -0.011044
0.000606 -0.229473 -0.011044
17.965134 5.121620 1.716526
0.000606 -0.229473 -0.011044
0.000606 -0.229473 -0.011044
0.000606 -0.229473 -0.011044
0.000606 -0.229473 -0.011044
0.421206 -0.105558 -0.271661
0.431998 -0.102518 -0.264283
0.461238 -0.094001 -0.266952
3.425808 0.774343 -1.807983
3.626465 0.831974 -1.804417
3.849619 0.896798 -1.801871
4.080025 0.962887 -1.791776
4.355205 1.041906 -1.788199
4.669711 1.133089 -1.787405
5.015749 1.232427 -1.782586
5.432083 1.352009 -1.783099
5.883687 1.482692 -1.775280
6.428983 1.639259 -1.771448
7.111588 1.836704 -1.774243
7.972316 2.084162 -1.784966
8.036833 2.100268 -1.597035
8.143547 2.168659 -1.415371
8.172916 2.176177 -1.217963
8.196577 2.180458 -1.018175
8.228998 2.187300 -0.820740
20.836817 5.886888 -1.553784
20.568357 5.801341 -1.034444
36.122196 10.349860 -0.926737
49.299702 14.202324 -0.068091
49.332359 14.195709 1.125178
0.000606 -0.229086 -0.011025
0.000606 -0.229086 -0.011025
18.052980 5.035174 1.722300
0.000606 -0.229086 -0.011025
0.000606 -0.229086 -0.011025
0.000606 -0.229086 -0.011025
0.000606 -0.229086 -0.011025
0.416955 -0.109014 -0.268570
0.436069 -0.103651 -0.266221
0.460306 -0.096757 -0.265986
3.429843 0.754510 -1.807017
3.627344 0.809994 -1.801774
3.864833 0.877512 -1.805876
4.085083 0.939273 -1.790928
4.357110 1.015674 -1.785931
4.677512 1.106582 -1.787321
5.027745 1.204951 -1.783782
5.442961 1.321624 -1.783602
5.891606 1.448637 -1.774626
6.441535 1.603146 -1.771848
7.128997 1.797700 -1.775515
8.147324 2.084542 -1.820782
8.127635 2.076318 -1.612175
8.147761 2.119389 -1.413607
8.161915 2.122344 -1.214184
8.200783 2.130861 -1.016872
8.229393 2.136415 -0.819291
20.662718 5.707142 -1.538030
20.767897 5.730566 -1.042342
0.000602 -0.228695 -0.011006
49.099369 13.837587 -0.067067
49.099319 13.821524 1.118626
0.000602 -0.228695 -0.011006
0.000602 -0.228695 -0.011006
0.000602 -0.228695 -0.011006
0.000602 -0.228695 -0.011006
0.000602 -0.228695 -0.011006
0.000602 -0.228695 -0.011006
0.000602 -0.228695 -0.011006
0.430882 -0.107302 -0.276722
0.440142 -0.104829 -0.268159
0.472966 -0.095670 -0.272547
3.437180 0.735601 -1.807850
3.640238 0.791416 -1.805136
3.866084 0.853481 -1.803356
4.093541 0.916614 -1.791625
4.371388 0.992942 -1.788770
4.688983 1.080192 -1.788608
5.039605 1.177395 -1.784978
5.451827 1.290646 -1.783509
5.908896 1.416111 -1.776738
6.451990 1.566398 -1.771741
7.150301 1.758367 -1.777711
8.187318 2.043874 -1.826499
8.148765 2.030540 -1.613531
8.145957 2.068515 -1.410866
8.166207 2.071577 -1.212647
8.206615 2.081844 -1.015804
8.231387 2.086138 -0.818032
21.074041 5.690549 -1.565488
20.896126 5.637705 -1.046709
0.000603 -0.228308 -0.010987
48.918140 13.472502 -0.066057
48.898296 13.460215 1.112860
0.000603 -0.228308 -0.010987
0.000603 -0.228308 -0.010987
0.000603 -0.228308 -0.010987
0.000603 -0.228308 -0.010987
0.000603 -0.228308 -0.010987
0.000603 -0.228308 -0.010987
0.000603 -0.228308 -0.010987
0.424953 -0.111305 -0.272609
0.434151 -0.108896 -0.264208
0.473748 -0.098089 -0.272521
3.441140 0.715108 -1.806884
3.644505 0.769711 -1.804208
3.879322 0.833519 -1.806546
4.102052 0.893166 -1.792322
4.376805 0.966902 -1.787960
4.701905 1.055044 -1.790583
5.046049 1.147355 -1.784246
5.464445 1.259658 -1.784609
5.921988 1.383440 -1.777745
6.466292 1.529498 -1.772648
7.180428 1.722651 -1.782226
8.207850 1.999130 -1.828039
8.163551 1.984473 -1.613773
8.309738 2.061941 -1.436514
8.295798 2.056985 -1.229625
8.212519 2.031377 -1.014733
8.266109 2.043451 -0.819964
21.032764 5.548856 -1.559656
20.601143 5.423624 -1.030097
0.000604 -0.227921 -0.010969
48.689529 13.106931 -0.065025
48.706707 13.095820 1.107325
0.000604 -0.227921 -0.010969
0.000604 -0.227921 -0.010969
0.000604 -0.227921 -0.010969
0.000604 -0.227921 -0.010969
0.000604 -0.227921 -0.010969
0.000604 -0.227921 -0.010969
0.000604 -0.227921 -0.010969
0.428958 -0.112456 -0.274628
0.438184 -0.110120 -0.266147
0.469373 -0.101805 -0.269674
3.444814 0.695204 -1.805919
3.653709 0.750035 -1.805855
3.883633 0.811083 -1.805659
4.110262 0.870408 -1.793020
4.390812 0.943965 -1.790799
4.712863 1.029296 -1.791872
5.059405 1.120130 -1.786085
5.476630 1.229532 -1.785711
5.931199 1.349703 -1.777645
6.480061 1.493604 -1.773558
7.189676 1.681147 -1.781646
8.247029 1.959232 -1.833758
8.240769 1.954922 -1.626303
11.651333 2.911148 -2.006489
14.515616 3.680804 -2.139824
8.215824 1.981860 -1.013432
20.990000 5.410562 -2.061809
21.081120 5.432157 -1.560482
20.529156 5.277322 -1.024651
0.000604 -0.227533 -0.010950
48.500824 12.755817 -0.064050
48.508320 12.742139 1.101720
0.000604 -0.227533 -0.010950
0.000604 -0.227533 -0.010950
0.000604 -0.227533 -0.010950
0.000604 -0.227533 -0.010950
0.000604 -0.227533 -0.010950
0.000604 -0.227533 -0.010950
0.000604 -0.227533 -0.010950
0.429617 -0.114538 -0.274604
0.432115 -0.114022 -0.262196
0.471791 -0.103682 -0.270590
3.451823 0.676193 -1.806752
3.657562 0.728918 -1.804928
3.893278 0.789326 -1.807216
4.118329 0.847577 -1.793718
4.393909 0.918112 -1.789262
4.725725 1.003129 -1.793845
5.074440 1.093271 -1.788566
5.484956 1.198360 -1.785617
5.946054 1.316318 -1.779203
6.495513 1.458111 -1.774976
7.204659 1.639812 -1.782453
8.275032 1.914569 -1.836967
9.781297 2.301314 -1.925162
11.695940 2.851400 -2.010879
14.693702 3.635772 -2.162316
8.232268 1.935907 -1.013769
20.997101 5.283391 -2.059061
20.680162 5.193552 -1.528307
20.782791 5.217636 -1.035306
0.000605 -0.227146 -0.010931
48.309994 12.398417 -0.063061
48.369385 12.407351 1.097525
0.000605 -0.227146 -0.010931
0.000605 -0.227146 -0.010931
0.000605 -0.227146 -0.010931
0.000605 -0.227146 -0.010931
0.000605 -0.227146 -0.010931
0.000605 -0.227146 -0.010931
0.000605 -0.227146 -0.010931
0.425274 -0.117989 -0.271513
0.441223 -0.114039 -0.267079
0.472520 -0.106092 -0.270564
3.458879 0.656530 -1.807584
3.664938 0.708029 -1.805716
3.895545 0.766368 -1.805514
4.131792 0.825317 -1.796732
4.407884 0.894260 -1.792099
4.721828 0.973504 -1.789646
5.078531 1.062590 -1.787192
5.497047 1.167122 -1.786717
5.954878 1.282449 -1.779102
6.512928 1.421834 -1.776900
7.211543 1.597725 -1.781410
8.308113 1.872540 -1.841431
9.837630 2.255900 -1.933201
11.738887 2.788732 -2.014938
14.723423 3.553462 -2.163217
16.279631 3.947815 -1.990849
20.931095 5.133910 -2.049168
20.784500 5.093552 -1.533385
0.000605 -0.226759 -0.010912
0.000605 -0.226759 -0.010912
48.139668 12.058544 -0.062124
48.201294 12.058772 1.092677
0.000605 -0.226759 -0.010912
0.000605 -0.226759 -0.010912
0.000605 -0.226759 -0.010912
0.000605 -0.226759 -0.010912
0.000605 -0.226759 -0.010912
0.000605 -0.226759 -0.010912
0.000605 -0.226759 -0.010912
0.440918 -0.116287 -0.280686
0.443570 -0.115758 -0.268035
0.473213 -0.108423 -0.270539
3.465675 0.637428 -1.808417
3.670283 0.687295 -1.805648
3.913631 0.747398 -1.811149
4.132434 0.800559 -1.794339
4.410662 0.868337 -1.790562
4.737811 0.948952 -1.792993
5.087741 1.034173 -1.787746
5.514273 1.138127 -1.789611
5.969100 1.249913 -1.780662
6.533596 1.387463 -1.779843
7.237068 1.560288 -1.784997
8.342870 1.830659 -1.846313
9.857516 2.201005 -1.934166
11.782874 2.728178 -2.019327
14.729597 3.465130 -2.160755
16.305353 3.854857 -1.990843
20.967447 5.015120 -2.049427
21.021900 5.025884 -1.548229
34.407326 8.359278 -1.700820
0.000606 -0.226372 -0.010894
48.000019 11.729272 -0.061230
0.000606 -0.226372 -0.010894
0.000606 -0.226372 -0.010894
0.000606 -0.226372 -0.010894
0.000606 -0.226372 -0.010894
0.000606 -0.226372 -0.010894
0.000606 -0.226372 -0.010894
0.000606 -0.226372 -0.010894
0.000606 -0.226372 -0.010894
0.434860 -0.120075 -0.276574
0.437423 -0.119582 -0.264085
0.477334 -0.109909 -0.272395
3.470609 0.617838 -1.808352
3.677270 0.666967 -1.806436
3.908550 0.722649 -1.806185
4.145484 0.778884 -1.797355
4.422356 0.844632 -1.792671
4.750005 0.923365 -1.794967
5.093093 1.004792 -1.787016
5.514633 1.104937 -1.787127
5.977515 1.215891 -1.780563
6.539052 1.349301 -1.778719
7.243484 1.518064 -1.783954
8.367919 1.786174 -1.849105
9.890463 2.149172 -1.937735
11.826562 2.667235 -2.023715
14.729488 3.375462 -2.157452
16.525427 3.809335 -2.014466
20.948954 4.882874 -2.044428
20.763029 4.834732 -1.526838
0.000585 -0.226006 -0.010875
0.000585 -0.226006 -0.010875
0.000585 -0.226006 -0.010875
48.261871 11.484700 1.092252
0.000585 -0.226006 -0.010875
0.000585 -0.226006 -0.010875
0.000585 -0.226006 -0.010875
0.000585 -0.226006 -0.010875
0.000585 -0.226006 -0.010875
0.000585 -0.226006 -0.010875
0.000585 -0.226006 -0.010875
0.438815 -0.121392 -0.278593
0.448199 -0.119302 -0.269949
0.462541 -0.115940 -0.263904
3.482400 0.599889 -1.811882
3.682378 0.646168 -1.806368
3.910432 0.699687 -1.804483
4.154816 0.756230 -1.798825
4.433904 0.820814 -1.794780
4.762048 0.897670 -1.796942
5.105641 0.977124 -1.788855
5.524090 1.073986 -1.787631
5.993233 1.183598 -1.782675
6.555556 1.313760 -1.780645
7.253422 1.476700 -1.783837
8.385101 1.739675 -1.850226
9.913585 2.094815 -1.939443
11.869928 2.605878 -2.028103
14.723055 3.284544 -2.153309
16.407372 3.680907 -1.997146
20.950926 4.756074 -2.041497
20.702560 4.694237 -1.520029
20.477930 4.634338 -1.013251
0.000586 -0.225619 -0.010857
47.990524 11.142266 -0.059741
47.974335 11.123148 1.084837
47.257217 10.938481 2.205406
0.000586 -0.225619 -0.010857
0.000586 -0.225619 -0.010857
0.000586 -0.225619 -0.010857
0.000586 -0.225619 -0.010857
0.000586 -0.225619 -0.010857
0.000586 -0.225619 -0.010857
0.429348 -0.125874 -0.272437
0.445424 -0.122268 -0.267961
0.463152 -0.118232 -0.263879
3.488858 0.580609 -1.812716
3.685587 0.624917 -1.805442
3.924771 0.678904 -1.808486
4.153224 0.731012 -1.795660
4.439881 0.795653 -1.794701
4.763161 0.868523 -1.794799
5.116215 0.948954 -1.790051
5.538943 1.044242 -1.789928
5.999627 1.147961 -1.782020
6.570003 1.277675 -1.782063
7.265324 1.434463 -1.784180
8.408084 1.692889 -1.852597
9.950196 2.041580 -1.943754
11.901441 2.541436 -2.030533
14.724365 3.193034 -2.150282
16.452847 3.592133 -1.999712
20.921095 4.622231 -2.035563
20.758631 4.578004 -1.521702
20.682699 4.557662 -1.021611
0.000586 -0.225232 -0.010838
47.831070 10.805557 -0.058828
47.779762 10.787344 1.079592
0.000586 -0.225232 -0.010838
0.000586 -0.225232 -0.010838
0.000586 -0.225232 -0.010838
0.000586 -0.225232 -0.010838
0.000586 -0.225232 -0.010838
0.000586 -0.225232 -0.010838
0.000586 -0.225232 -0.010838
0.434970 -0.126893 -0.275478
0.451131 -0.123374 -0.270880
3.322153 0.522744 -1.825333
3.490102 0.559487 -1.810851
3.692216 0.604472 -1.806231
3.926372 0.655877 -1.806784
4.162455 0.707553 -1.797129
4.443902 0.770059 -1.793893
4.776726 0.843092 -1.797460
5.122903 0.919849 -1.789963
5.553648 1.014387 -1.792225
6.011224 1.114625 -1.783027
6.580465 1.240629 -1.782464
7.288080 1.395941 -1.787304
8.428228 1.648410 -1.854556
9.983829 1.991053 -1.947698
11.946530 2.477676 -2.035241
14.714844 3.102000 -2.145861
16.488791 3.497884 -2.001102
20.776651 4.459431 -2.018547
20.922192 4.489447 -1.531304
20.467110 4.380427 -1.009419
0.000587 -0.224845 -0.010819
0.000587 -0.224845 -0.010819
0.000587 -0.224845 -0.010819
0.000587 -0.224845 -0.010819
0.000587 -0.224845 -0.010819
0.000587 -0.224845 -0.010819
0.000587 -0.224845 -0.010819
0.000587 -0.224845 -0.010819
0.000587 -0.224845 -0.010819
0.000587 -0.224845 -0.010819
0.437189 -0.128569 -0.276476
0.448279 -0.126262 -0.268893
3.324587 0.504205 -1.824329
3.490962 0.539613 -1.808988
3.698589 0.584628 -1.807021
3.936602 0.635494 -1.809160
4.164027 0.683910 -1.795510
4.451235 0.746018 -1.794545
4.778984 0.816008 -1.796007
5.132947 0.892424 -1.791161
5.567958 0.985358 -1.794524
6.018639 1.081431 -1.782929
6.596128 1.205886 -1.784392
7.291331 1.354366 -1.785801
8.451982 1.604617 -1.857351
10.011436 1.938972 -1.950526
11.984600 2.416419 -2.038979
14.710016 3.015053 -2.142287
16.507412 3.405709 -2.000633
20.921141 4.369762 -2.029705
20.975494 4.378911 -1.532991
20.451551 4.257473 -1.007135
0.000587 -0.224458 -0.010801
0.000587 -0.224458 -0.010801
0.000587 -0.224458 -0.010801
0.000587 -0.224458 -0.010801
0.000587 -0.224458 -0.010801
0.000587 -0.224458 -0.010801
0.000587 -0.224458 -0.010801
0.000587 -0.224458 -0.010801
0.000587 -0.224458 -0.010801
0.000587 -0.224458 -0.010801
0.432735 -0.131909 -0.273385
0.440360 -0.130410 -0.263961
3.337626 0.486113 -1.828966
3.499087 0.519420 -1.810717
3.707002 0.563153 -1.808664
3.938225 0.611066 -1.807454
4.171314 0.659227 -1.796204
4.460730 0.719964 -1.795922
4.792617 0.788740 -1.798663
5.147117 0.863022 -1.793637
5.571527 0.950930 -1.793231
6.032164 1.046225 -1.784484
6.619913 1.169158 -1.788346
7.298971 1.309810 -1.785215
8.482157 1.557371 -1.861388
10.034104 1.880193 -1.952225
12.033339 2.350583 -2.044333
14.708262 2.920989 -2.138976
16.552610 3.310182 -2.003185
20.907953 4.233572 -2.025447
20.903744 4.229911 -1.525462
20.347645 4.105013 -1.000457
0.000584 -0.224066 -0.010782
0.000584 -0.224066 -0.010782
0.000584 -0.224066 -0.010782
0.000584 -0.224066 -0.010782
0.000584 -0.224066 -0.010782
0.000584 -0.224066 -0.010782
0.000584 -0.224066 -0.010782
0.000584 -0.224066 -0.010782
0.000584 -0.224066 -0.010782
0.000584 -0.224066 -0.010782
0.433250 -0.133933 -0.273360
0.445985 -0.131434 -0.266881
3.332929 0.466073 -1.824201
3.506706 0.500982 -1.812451
3.711502 0.542185 -1.808596
3.942852 0.589453 -1.807384
4.179819 0.637054 -1.797677
4.471601 0.695787 -1.798031
4.796384 0.761976 -1.797896
5.157010 0.834497 -1.794834
5.580104 0.919607 -1.793734
6.046716 1.014449 -1.786598
6.635415 1.132936 -1.790271
7.177806 1.242917 -1.753624
8.513382 1.513183 -1.865849
10.061475 1.825889 -1.955049
12.063006 2.286946 -2.046766
14.694605 2.832741 -2.134282
16.548782 3.213235 -2.000144
20.913040 4.113081 -2.023279
20.820873 4.091226 -1.517395
20.351952 3.987650 -0.999222
0.000584 -0.223679 -0.010763
0.000584 -0.223679 -0.010763
0.000584 -0.223679 -0.010763
0.000584 -0.223679 -0.010763
0.000584 -0.223679 -0.010763
0.000584 -0.223679 -0.010763
0.000584 -0.223679 -0.010763
0.000584 -0.223679 -0.010763
0.000584 -0.223679 -0.010763
0.000584 -0.223679 -0.010763
0.435439 -0.135709 -0.274358
0.443103 -0.134293 -0.264893
3.336869 0.447259 -1.824137
3.514351 0.481872 -1.814183
3.714111 0.520843 -1.807670
3.953004 0.567509 -1.809756
4.186534 0.613717 -1.798374
4.473186 0.669675 -1.796494
4.809540 0.735357 -1.800554
5.163048 0.805177 -1.794746
5.594107 0.889332 -1.796031
6.057751 0.979690 -1.787602
6.643155 1.095104 -1.790164
6.839039 1.131851 -1.669261
6.888805 1.139580 -1.509920
10.098557 1.771502 -1.959729
12.104361 2.223286 -2.051151
14.695045 2.742365 -2.131539
16.597527 3.124145 -2.003410
20.933788 3.992167 -2.022605
20.552750 3.909007 -1.495890
20.377836 3.871150 -0.999026
0.000585 -0.223292 -0.010744
28.427917 5.470859 -0.037171
0.000585 -0.223292 -0.010744
28.371298 5.446887 1.312062
0.000585 -0.223292 -0.010744
0.000585 -0.223292 -0.010744
0.000585 -0.223292 -0.010744
0.000585 -0.223292 -0.010744
0.000585 -0.223292 -0.010744
0.000585 -0.223292 -0.010744
0.442709 -0.136583 -0.278420
0.447051 -0.135863 -0.266831
3.342536 0.428165 -1.825014
3.509729 0.459692 -1.809621
3.727221 0.501549 -1.811888
3.961108 0.545823 -1.811315
4.193279 0.589619 -1.799070
4.472798 0.643232 -1.794228
4.809469 0.706961 -1.798414
5.170769 0.776176 -1.795300
5.596709 0.856776 -1.794742
6.064596 0.945167 -1.787503
6.648760 1.056847 -1.789548
6.798983 1.083651 -1.657580
6.842543 1.091147 -1.498120
6.896223 1.099310 -1.340098
12.145802 2.157123 -2.055530
14.696348 2.655016 -2.129083
16.936831 3.088510 -2.041498
20.970201 3.870570 -2.023424
20.560551 3.787893 -1.494466
20.442955 3.758564 -1.000721
0.000586 -0.222905 -0.010725
28.366003 5.289118 -0.036686
0.000586 -0.222905 -0.010725
0.000586 -0.222905 -0.010725
0.000586 -0.222905 -0.010725
0.000586 -0.222905 -0.010725
0.000586 -0.222905 -0.010725
0.000586 -0.222905 -0.010725
0.000586 -0.222905 -0.010725
0.000586 -0.222905 -0.010725
0.431369 -0.140899 -0.271243
0.454384 -0.136674 -0.270731
3.344424 0.409568 -1.824011
3.515270 0.440809 -1.810456
3.729593 0.480142 -1.810962
3.965485 0.523382 -1.811244
4.197776 0.566583 -1.798997
4.485064 0.619231 -1.797066
4.823994 0.681362 -1.801760
5.183920 0.748179 -1.797780
5.617850 0.827707 -1.799429
6.073126 0.910957 -1.787956
6.659839 1.019628 -1.790457
6.793034 1.042379 -1.654230
0.000586 -0.222518 -0.010707
6.873066 1.053035 -1.334032
12.191890 2.095919 -2.060895
14.689366 2.566295 -2.125507
17.191214 3.039063 -2.069539
20.998634 3.754901 -2.023695
20.944033 3.738032 -1.520169
20.474695 3.646577 -1.000912
28.876640 5.225339 -0.719000
28.328480 5.113089 -0.036227
28.182585 5.081901 0.629693
28.228514 5.081754 1.303261
0.000586 -0.222518 -0.010707
0.000586 -0.222518 -0.010707
0.000586 -0.222518 -0.010707
0.000586 -0.222518 -0.010707
0.000586 -0.222518 -0.010707
0.000586 -0.222518 -0.010707
0.438612 -0.141832 -0.275306
0.456589 -0.138682 -0.271688
3.348125 0.390088 -1.823947
3.524431 0.421283 -1.813086
3.735488 0.458705 -1.811750
3.975128 0.501903 -1.813617
4.206038 0.542711 -1.800466
4.493656 0.593648 -1.798444
4.830992 0.654292 -1.802363
5.187736 0.717442 -1.797048
5.618370 0.793724 -1.797541
6.087148 0.877726 -1.790069
6.686162 0.983924 -1.795429
6.804053 1.004312 -1.655047
6.832460 1.007332 -1.492470
6.884186 1.014518 -1.334666
0.000587 -0.222131 -0.010688
14.697414 2.480602 -2.124173
17.243494 2.943477 -2.073258
21.066938 3.638882 -2.027703
21.178436 3.656538 -1.535127
20.725269 3.567091 -1.011623
28.902561 5.053205 -0.718442
0.000587 -0.222131 -0.010688
27.643084 4.811099 0.617140
28.245712 4.912047 1.303025
0.000587 -0.222131 -0.010688
0.000587 -0.222131 -0.010688
0.000587 -0.222131 -0.010688
0.000587 -0.222131 -0.010688
0.000587 -0.222131 -0.010688
0.000587 -0.222131 -0.010688
0.440748 -0.143684 -0.276303
0.443340 -0.143350 -0.263814
3.341205 0.369357 -1.818240
3.529868 0.401684 -1.813919
3.741152 0.437887 -1.812538
3.979265 0.479399 -1.813546
4.206743 0.518209 -1.798847
4.498296 0.568140 -1.798366
4.836000 0.626864 -1.802279
5.200556 0.689257 -1.799528
5.637329 0.764060 -1.801629
6.089613 0.842375 -1.788863
6.696817 0.946439 -1.796338
6.837863 0.970179 -1.661417
6.877976 0.975051 -1.500710
6.929921 0.981956 -1.341995
0.000587 -0.221744 -0.010669
14.691331 2.392500 -2.120878
17.273211 2.846600 -2.074412
21.106478 3.520989 -2.029092
21.931196 3.664384 -1.587365
20.701523 3.440058 -1.009146
29.861830 5.051161 -0.740761
0.000587 -0.221744 -0.010669
27.657829 4.649786 0.617214
28.676220 4.820267 1.322076
0.000587 -0.221744 -0.010669
0.000587 -0.221744 -0.010669
0.000587 -0.221744 -0.010669
0.000587 -0.221744 -0.010669
0.000587 -0.221744 -0.010669
0.000587 -0.221744 -0.010669
0.429346 -0.147853 -0.269127
0.450669 -0.144329 -0.267714
3.344561 0.350480 -1.818178
3.529897 0.381130 -1.812056
3.746690 0.417021 -1.813327
3.979782 0.455558 -1.811843
4.221872 0.496217 -1.803407
4.506467 0.543235 -1.799746
4.839106 0.598215 -1.801510
5.209458 0.660298 -1.800724
5.642920 0.731953 -1.801536
6.103445 0.807912 -1.790973
6.703455 0.908240 -1.796231
6.887050 0.937076 -1.671485
7.365290 1.015265 -1.604548
10.247189 1.496011 -1.977184
0.000588 -0.221356 -0.010651
0.000588 -0.221356 -0.010651
17.304317 2.749805 -2.075800
21.143414 3.402458 -2.030293
22.911562 3.698427 -1.655813
21.155499 3.395225 -1.029722
29.101379 4.744627 -0.721053
0.000588 -0.221356 -0.010651
0.000588 -0.221356 -0.010651
27.928713 4.523570 1.286432
0.000588 -0.221356 -0.010651
0.000588 -0.221356 -0.010651
0.000588 -0.221356 -0.010651
