# This PCD file was generated using the MATLAB® pcwrite function
# from Computer Vision Toolbox®.
# .PCD v.7 - Point Cloud Data file format
VERSION .7
FIELDS x y z
SIZE 4 4 4
TYPE F F F
COUNT 1 1 1
WIDTH 1599
HEIGHT 1
VIEWPOINT 0 0 0 1 0 0 0
POINTS 1599
DATA ascii
2.930250 -20.027664 -2.337164
3.946905 -27.000854 -2.516078
4.761178 -32.625782 -2.273576
4.582618 -31.444294 -1.453632
-0.000229 -0.114831 -0.004861
11.394856 -78.393745 0.064443
11.428396 -78.719284 1.908921
-0.000229 -0.114831 -0.004861
7.460129 -51.677475 3.684170
7.083529 -49.194820 4.665353
-0.000229 -0.114831 -0.004861
-0.000229 -0.114831 -0.004861
-0.000229 -0.114831 -0.004861
-0.000229 -0.114831 -0.004861
-0.000232 -0.114440 -0.004844
-0.000232 -0.114440 -0.004844
-0.000232 -0.114440 -0.004844
0.072726 -0.631443 -0.266426
0.097802 -0.811066 -0.337082
0.109176 -0.892726 -0.353951
0.116914 -0.949950 -0.356384
0.130896 -1.052030 -0.373576
0.744810 -5.448796 -1.959916
0.802099 -5.873638 -1.964004
0.873205 -6.400075 -1.978978
0.960150 -7.034371 -2.001524
1.060162 -7.774614 -2.022076
1.185769 -8.692898 -2.048797
1.341568 -9.844780 -2.083699
1.535384 -11.278927 -2.117955
1.855274 -13.198277 -2.164100
2.238181 -15.917799 -2.233822
2.814969 -20.039879 -2.336743
3.797581 -27.062166 -2.519818
4.557030 -32.491428 -2.262493
4.413524 -31.550871 -1.457451
-0.000232 -0.114440 -0.004844
11.006012 -78.802399 0.064543
-0.000232 -0.114440 -0.004844
-0.000232 -0.114440 -0.004844
7.217353 -52.043995 3.707347
6.838003 -49.440342 4.684919
-0.000232 -0.114440 -0.004844
-0.000232 -0.114440 -0.004844
-0.000232 -0.114440 -0.004844
-0.000232 -0.114440 -0.004844
-0.000232 -0.114053 -0.004827
-0.000232 -0.114053 -0.004827
-0.000232 -0.114053 -0.004827
0.062560 -0.578307 -0.239536
0.094280 -0.814809 -0.338776
0.104314 -0.891161 -0.353125
0.111604 -0.946570 -0.354831
0.125246 -1.050539 -0.372836
0.712149 -5.445286 -1.957185
0.768679 -5.875891 -1.963365
0.836262 -6.398913 -1.977197
0.918053 -7.031949 -1.999328
1.017567 -7.791709 -2.025110
1.134339 -8.695538 -2.047886
1.284079 -9.854114 -2.084124
1.469127 -11.287444 -2.117970
1.780702 -13.214217 -2.165088
-0.000232 -0.114053 -0.004827
2.701522 -20.065205 -2.337933
3.636212 -27.037796 -2.515643
4.443437 -33.100822 -2.303210
4.370931 -32.605015 -1.505065
-0.000232 -0.114053 -0.004827
10.793041 -80.765007 0.066007
-0.000232 -0.114053 -0.004827
-0.000232 -0.114053 -0.004827
6.945607 -52.360439 3.726852
6.546232 -49.487568 4.685547
6.485012 -49.090782 5.816220
-0.000232 -0.114053 -0.004827
-0.000232 -0.114053 -0.004827
-0.000232 -0.114053 -0.004827
-0.000231 -0.113666 -0.004811
-0.000231 -0.113666 -0.004811
-0.000231 -0.113666 -0.004811
0.059789 -0.578300 -0.239521
0.090123 -0.814970 -0.338761
0.099360 -0.887749 -0.351487
0.107136 -0.950491 -0.356355
0.119930 -1.052722 -0.373548
0.681683 -5.450770 -1.957866
0.733999 -5.876206 -1.962088
0.798716 -6.401486 -1.976604
0.878221 -7.036715 -1.999331
0.971759 -7.795301 -2.024610
1.084427 -8.697667 -2.046975
1.228229 -9.862885 -2.084549
1.404774 -11.295319 -2.117985
1.702956 -13.224154 -2.165108
2.048678 -15.906748 -2.228898
2.582852 -20.078518 -2.337742
3.475122 -27.048639 -2.514782
4.398476 -34.251472 -2.381685
4.213206 -32.903458 -1.517758
8.818695 -68.933594 -1.555436
10.835876 -84.791100 0.069265
10.111832 -79.351875 1.919141
-0.000231 -0.113666 -0.004811
-0.000231 -0.113666 -0.004811
6.142845 -48.585770 4.596356
6.103848 -48.412720 5.731147
-0.000231 -0.113666 -0.004811
-0.000231 -0.113666 -0.004811
-0.000231 -0.113666 -0.004811
-0.000230 -0.113278 -0.004794
-0.000230 -0.113278 -0.004794
0.056387 -0.570885 -0.249459
0.058870 -0.592443 -0.246672
0.086210 -0.815072 -0.338746
0.095569 -0.893367 -0.353908
0.102762 -0.954377 -0.357880
0.114679 -1.052998 -0.373534
0.650941 -5.454220 -1.957865
0.702282 -5.883579 -1.963365
0.764061 -6.409247 -1.977793
0.838347 -7.041265 -1.999334
0.929087 -7.802138 -2.025121
1.035443 -8.707250 -2.047902
1.173308 -9.865314 -2.083732
1.343489 -11.312354 -2.119843
1.626938 -13.229443 -2.164484
1.956957 -15.912010 -2.228097
2.469541 -20.106474 -2.339394
3.318013 -27.051994 -2.513370
4.198890 -34.252079 -2.380112
4.175337 -34.158268 -1.574619
-0.000230 -0.113278 -0.004794
9.626539 -78.943596 0.063891
-0.000230 -0.113278 -0.004794
9.663432 -79.589638 3.798208
7.413524 -61.263325 4.356088
6.357574 -52.629807 4.976684
5.878022 -48.810509 5.774318
-0.000230 -0.113278 -0.004794
-0.000230 -0.113278 -0.004794
-0.000230 -0.113278 -0.004794
-0.000229 -0.112891 -0.004777
-0.000229 -0.112891 -0.004777
-0.000229 -0.112891 -0.004777
0.055352 -0.585281 -0.243073
0.081953 -0.813379 -0.337878
0.090664 -0.889875 -0.352270
0.097639 -0.950882 -0.356327
0.102805 -0.997719 -0.351744
0.104693 -1.016727 -0.335069
0.668386 -5.881495 -1.961449
0.727584 -6.411249 -1.977201
0.797787 -7.039852 -1.997689
0.883705 -7.797346 -2.022602
0.985292 -8.706861 -2.046531
1.115203 -9.869775 -2.083329
1.276579 -11.315831 -2.119122
1.553453 -13.235963 -2.164182
1.865967 -15.922606 -2.228126
2.356934 -20.111662 -2.338514
3.171238 -27.101368 -2.516377
4.413872 -37.788837 -2.624501
4.084276 -35.027996 -1.613748
-0.000229 -0.112891 -0.004777
9.315592 -80.229073 0.064748
9.162070 -79.027748 1.908222
-0.000229 -0.112891 -0.004777
7.031707 -61.048977 4.337708
6.204906 -54.048954 5.107611
5.685852 -49.612766 5.865459
-0.000229 -0.112891 -0.004777
-0.000229 -0.112891 -0.004777
-0.000229 -0.112891 -0.004777
-0.000228 -0.112504 -0.004761
-0.000228 -0.112504 -0.004761
-0.000228 -0.112504 -0.004761
0.052163 -0.581650 -0.241266
0.078406 -0.818851 -0.340425
0.085982 -0.888188 -0.351443
0.091458 -0.940040 -0.351697
0.095499 -0.979414 -0.344471
0.095993 -0.985153 -0.323453
0.635819 -5.900032 -1.966558
0.690210 -6.415062 -1.977203
0.758087 -7.045862 -1.998242
0.837884 -7.800147 -2.022103
0.936212 -8.715874 -2.047459
1.058580 -9.871754 -2.082513
1.212465 -11.326520 -2.119876
1.475570 -13.244555 -2.164204
1.774880 -15.932715 -2.228155
2.238002 -20.122944 -2.338326
3.011055 -27.119316 -2.516439
4.209415 -37.926273 -2.632449
3.960775 -35.805794 -1.648584
-0.000228 -0.112504 -0.004761
10.237914 -92.810799 0.075361
8.707421 -79.205551 1.911041
-0.000228 -0.112504 -0.004761
6.773840 -61.938862 4.398132
5.812011 -53.331234 5.036222
5.124377 -47.186905 5.573991
5.255123 -48.465801 6.873493
-0.000228 -0.112504 -0.004761
-0.000228 -0.112504 -0.004761
-0.000227 -0.112117 -0.004744
-0.000227 -0.112117 -0.004744
-0.000227 -0.112117 -0.004744
0.049277 -0.579775 -0.240355
0.074145 -0.817110 -0.339557
0.082468 -0.897376 -0.355489
0.086879 -0.942009 -0.352452
0.088955 -0.964735 -0.338650
0.089213 -0.968475 -0.317297
0.602294 -5.901318 -1.965920
0.654109 -6.420439 -1.977799
0.717965 -7.047801 -1.997697
0.793613 -7.804446 -2.022109
0.886059 -8.714923 -2.046089
1.002569 -9.879243 -2.082940
1.147687 -11.330956 -2.119524
1.399922 -13.252447 -2.164226
1.684819 -15.952111 -2.229568
2.122538 -20.133120 -2.338138
2.836440 -26.955591 -2.499751
3.971077 -37.755035 -2.619039
3.780852 -36.072021 -1.659922
-0.000227 -0.112117 -0.004744
-0.000227 -0.112117 -0.004744
9.671706 -92.872223 2.240441
-0.000227 -0.112117 -0.004744
6.281579 -60.664818 4.304618
5.657550 -54.835072 5.175385
4.867832 -47.357506 5.590716
4.973898 -48.469296 6.869725
-0.000227 -0.112117 -0.004744
-0.000227 -0.112117 -0.004744
-0.000226 -0.111730 -0.004727
-0.000226 -0.111730 -0.004727
-0.000226 -0.111730 -0.004727
0.047124 -0.584997 -0.243027
0.069901 -0.815344 -0.338688
0.078535 -0.904737 -0.358722
0.082471 -0.945775 -0.353976
0.081682 -0.940719 -0.329199
0.083014 -0.957390 -0.313189
0.085591 -0.985043 -0.300407
0.617577 -6.421824 -1.977207
0.676809 -7.051546 -1.997701
0.748934 -7.804645 -2.021106
0.835001 -8.719645 -2.046099
0.944426 -9.882672 -2.082538
1.080539 -11.331310 -2.118435
1.324229 -13.259905 -2.164248
1.590215 -15.955527 -2.228769
2.006221 -20.134733 -2.337029
-0.000226 -0.111730 -0.004727
3.690357 -37.201771 -2.579170
3.822728 -38.599823 -1.775347
-0.000226 -0.111730 -0.004727
-0.000226 -0.111730 -0.004727
-0.000226 -0.111730 -0.004727
-0.000226 -0.111730 -0.004727
6.081302 -62.328789 4.420251
5.370930 -55.259716 5.212360
4.597363 -47.402184 5.592697
4.663371 -48.255142 6.835153
-0.000226 -0.111730 -0.004727
-0.000226 -0.111730 -0.004727
-0.000225 -0.111343 -0.004711
-0.000225 -0.111343 -0.004711
-0.000225 -0.111343 -0.004711
0.044810 -0.590232 -0.245700
0.065676 -0.813553 -0.337820
0.073807 -0.902961 -0.357896
0.076665 -0.936675 -0.350116
0.076038 -0.931519 -0.325556
0.076600 -0.940604 -0.307032
0.078470 -0.962486 -0.292730
0.581589 -6.428685 -1.978398
0.635954 -7.045370 -1.994957
0.704437 -7.806525 -2.020608
0.785076 -8.720035 -2.045189
0.889845 -9.887412 -2.082551
1.018041 -11.338746 -2.118821
1.247317 -13.278926 -2.166207
1.498949 -15.964034 -2.228800
1.888320 -20.155781 -2.338224
2.551625 -27.297430 -2.528780
3.500713 -37.478275 -2.597044
3.772166 -40.527153 -1.863073
-0.000225 -0.111343 -0.004711
-0.000225 -0.111343 -0.004711
5.618965 -60.884445 1.464199
-0.000225 -0.111343 -0.004711
-0.000225 -0.111343 -0.004711
-0.000225 -0.111343 -0.004711
4.706597 -51.603104 6.086525
4.583711 -50.452164 7.143338
-0.000225 -0.111343 -0.004711
-0.000225 -0.111343 -0.004711
-0.000224 -0.110955 -0.004694
-0.000224 -0.110955 -0.004694
-0.000224 -0.110955 -0.004694
0.041970 -0.588316 -0.244789
0.062746 -0.826140 -0.343784
0.068763 -0.897531 -0.355446
0.071403 -0.929357 -0.347025
0.069860 -0.914846 -0.319008
0.070689 -0.927532 -0.302241
0.072741 -0.953106 -0.289523
0.545553 -6.435325 -1.979588
0.596364 -7.052343 -1.996061
0.660461 -7.813906 -2.021624
0.735166 -8.720139 -2.044280
0.831675 -9.890168 -2.082150
0.951425 -11.344186 -2.118838
1.173605 -13.283321 -2.165908
1.407994 -15.975949 -2.229385
1.773900 -20.137926 -2.335045
2.386306 -27.158096 -2.514671
3.382411 -38.600536 -2.673632
3.932213 -44.945671 -2.065337
-0.000224 -0.110955 -0.004694
-0.000224 -0.110955 -0.004694
-0.000224 -0.110955 -0.004694
8.166774 -94.547676 4.496191
5.170948 -60.149914 4.260488
4.383905 -51.220417 4.824930
4.037404 -47.277107 5.571853
4.414955 -51.900017 7.345097
-0.000224 -0.110955 -0.004694
-0.000224 -0.110955 -0.004694
-0.000224 -0.110568 -0.004678
-0.000224 -0.110568 -0.004678
0.036212 -0.550734 -0.239041
0.040168 -0.600644 -0.251045
0.058659 -0.827908 -0.344624
0.063646 -0.890232 -0.352184
0.065350 -0.914657 -0.340856
0.062976 -0.888858 -0.308832
0.063536 -0.897579 -0.291308
0.066390 -0.936117 -0.283761
0.507868 -6.436162 -1.978997
0.557139 -7.064871 -1.998814
0.614435 -7.813448 -2.020622
0.685898 -8.727712 -2.045208
0.775495 -9.896366 -2.082578
0.886574 -11.347125 -2.118488
1.095283 -13.287683 -2.165608
1.315958 -15.975508 -2.228310
1.653255 -20.125919 -2.332557
2.219917 -27.099930 -2.508110
-0.000224 -0.110568 -0.004678
3.697212 -45.348152 -2.082931
-0.000224 -0.110568 -0.004678
-0.000224 -0.110568 -0.004678
-0.000224 -0.110568 -0.004678
4.139828 -51.536068 2.444906
4.620123 -57.626949 4.079163
4.435692 -55.573421 5.233649
3.780912 -47.594910 5.606586
3.877717 -48.917686 6.918487
-0.000224 -0.110568 -0.004678
-0.000224 -0.110568 -0.004678
-0.000223 -0.110181 -0.004661
-0.000223 -0.110181 -0.004661
0.033961 -0.554060 -0.240900
0.036262 -0.586209 -0.243863
0.054124 -0.822429 -0.342047
0.059015 -0.888380 -0.351358
0.058348 -0.883339 -0.327764
0.057230 -0.872099 -0.302284
0.058319 -0.888153 -0.287881
0.059648 -0.909646 -0.274806
0.472137 -6.448123 -1.981971
0.516534 -7.059886 -1.996620
0.569792 -7.812603 -2.019619
0.636261 -8.731135 -2.045219
0.718723 -9.894406 -2.081349
0.822131 -11.355587 -2.119244
1.019228 -13.291420 -2.165310
1.225035 -15.988356 -2.229172
1.537200 -20.124817 -2.331451
2.071280 -27.201241 -2.516462
3.146825 -41.361713 -2.862670
3.436017 -45.360340 -2.082689
3.866508 -51.265404 -1.152556
3.864578 -51.358643 0.038561
3.854425 -51.462814 1.234283
3.855195 -51.714077 2.452161
3.854279 -51.823040 3.665312
-0.000223 -0.110181 -0.004661
3.512182 -47.680904 5.614176
3.619811 -49.254837 6.963153
-0.000223 -0.110181 -0.004661
-0.000223 -0.110181 -0.004661
-0.000226 -0.109790 -0.004644
-0.000226 -0.109790 -0.004644
-0.000226 -0.109790 -0.004644
0.034536 -0.600281 -0.251014
0.049887 -0.820540 -0.341178
0.054538 -0.888307 -0.351343
0.053003 -0.870369 -0.322365
0.051940 -0.859005 -0.297188
0.053051 -0.876835 -0.283772
0.054256 -0.898242 -0.270959
0.436954 -6.469382 -1.987916
0.476118 -7.056588 -1.994977
0.525049 -7.809554 -2.018112
0.586618 -8.734250 -2.045229
0.662232 -9.896036 -2.080949
0.757102 -11.355809 -2.118526
0.943440 -13.298648 -2.165658
1.134275 -16.004637 -2.230590
1.421924 -20.132931 -2.331498
1.915806 -27.220255 -2.517268
-0.000226 -0.109790 -0.004644
3.493018 -49.907097 -2.290690
-0.000226 -0.109790 -0.004644
-0.000226 -0.109790 -0.004644
4.335704 -62.701641 1.504631
-0.000226 -0.109790 -0.004644
4.484357 -65.342285 4.622675
3.518115 -51.549641 4.849243
3.256610 -47.971447 5.646094
3.340305 -49.327858 6.970572
-0.000226 -0.109790 -0.004644
-0.000226 -0.109790 -0.004644
-0.000225 -0.109403 -0.004627
-0.000225 -0.109403 -0.004627
0.029181 -0.558943 -0.243682
0.032177 -0.607222 -0.254583
0.046369 -0.829462 -0.345435
0.048995 -0.871807 -0.344021
0.047679 -0.855535 -0.316196
0.046329 -0.838438 -0.289189
0.048518 -0.874862 -0.283076
0.049487 -0.894361 -0.269668
0.054732 -0.982322 -0.276751
0.436713 -7.068420 -1.997730
0.481308 -7.821716 -2.020645
0.536933 -8.737108 -2.045240
0.605623 -9.895397 -2.080135
0.692467 -11.361540 -2.118913
0.866836 -13.293617 -2.164070
1.042612 -16.008522 -2.230347
1.306208 -20.134449 -2.330854
1.760686 -27.246344 -2.518810
-0.000225 -0.109403 -0.004627
3.417529 -53.209755 -2.441530
-0.000225 -0.109403 -0.004627
-0.000225 -0.109403 -0.004627
-0.000225 -0.109403 -0.004627
3.613655 -57.346840 2.717875
-0.000225 -0.109403 -0.004627
3.418902 -54.716560 5.146011
2.989904 -48.133755 5.663037
3.072462 -49.598911 7.006272
-0.000225 -0.109403 -0.004627
-0.000225 -0.109403 -0.004627
-0.000224 -0.109016 -0.004611
-0.000224 -0.109016 -0.004611
0.029653 -0.609851 -0.270853
0.029524 -0.610581 -0.256359
0.041921 -0.823898 -0.342857
0.044147 -0.866229 -0.341571
0.042627 -0.842512 -0.310796
0.043091 -0.855064 -0.295708
0.044288 -0.880394 -0.285109
0.045711 -0.907510 -0.274125
0.047982 -0.951710 -0.267230
0.395298 -7.068593 -1.997187
0.436458 -7.816237 -2.018633
0.485636 -8.737803 -2.044792
0.547237 -9.892558 -2.078907
0.625698 -11.365058 -2.118932
0.790788 -13.296023 -2.163773
0.947897 -16.008118 -2.229551
1.190288 -20.131325 -2.329749
1.604271 -27.253649 -2.518696
-0.000224 -0.109016 -0.004611
3.173838 -54.289223 -2.490364
-0.000224 -0.109016 -0.004611
-0.000224 -0.109016 -0.004611
3.516682 -61.051960 1.463443
3.485740 -60.884586 2.884985
3.652020 -64.174530 4.536178
3.077112 -54.423401 5.116425
-0.000224 -0.109016 -0.004611
2.849420 -50.875381 7.184485
-0.000224 -0.109016 -0.004611
-0.000224 -0.109016 -0.004611
-0.000223 -0.108628 -0.004594
-0.000223 -0.108628 -0.004594
0.027810 -0.630809 -0.282088
0.026353 -0.606796 -0.254553
0.037198 -0.814722 -0.338572
0.039003 -0.851495 -0.335062
0.037409 -0.825770 -0.303858
0.037983 -0.841895 -0.290612
0.039662 -0.876485 -0.283730
0.040210 -0.892221 -0.269001
0.042091 -0.934440 -0.261869
0.354945 -7.064582 -1.995543
0.390520 -7.814445 -2.017632
0.435658 -8.734221 -2.043425
0.491079 -9.899073 -2.079751
0.560290 -11.356297 -2.116740
0.712759 -13.304026 -2.164444
0.856331 -16.012917 -2.229585
1.071144 -20.131702 -2.329106
1.443716 -27.272242 -2.519687
-0.000223 -0.108628 -0.004594
2.999004 -57.093933 -2.618365
3.174820 -60.838448 -1.366094
3.169600 -60.942074 0.045858
-0.000223 -0.108628 -0.004594
-0.000223 -0.108628 -0.004594
3.038410 -59.420345 4.197757
2.746618 -54.093838 5.083652
2.463594 -48.866951 5.745578
2.566529 -51.080456 7.211216
-0.000223 -0.108628 -0.004594
-0.000223 -0.108628 -0.004594
-0.000222 -0.108241 -0.004577
-0.000222 -0.108241 -0.004577
0.024969 -0.634108 -0.283948
0.023743 -0.611908 -0.257225
0.033810 -0.828994 -0.345391
0.033877 -0.833053 -0.326928
0.032589 -0.810836 -0.297689
0.033605 -0.837976 -0.289146
0.035250 -0.876305 -0.283715
0.035600 -0.890172 -0.268348
0.036908 -0.924739 -0.258884
0.315059 -7.069964 -1.996648
0.346143 -7.816177 -2.017640
0.386061 -8.738152 -2.043896
0.434538 -9.897424 -2.078938
0.495507 -11.358953 -2.116760
0.636570 -13.303578 -2.163825
0.764544 -16.013231 -2.229067
0.956586 -20.153013 -2.330997
1.285940 -27.251865 -2.517181
-0.000222 -0.108241 -0.004577
2.634591 -56.337513 -2.583116
-0.000222 -0.108241 -0.004577
-0.000222 -0.108241 -0.004577
-0.000222 -0.108241 -0.004577
-0.000222 -0.108241 -0.004577
2.776746 -61.196274 4.322223
2.450276 -54.432625 5.114043
2.190466 -49.052586 5.765789
2.198895 -49.434212 6.976164
-0.000222 -0.108241 -0.004577
-0.000222 -0.108241 -0.004577
-0.000222 -0.107854 -0.004561
-0.000222 -0.107854 -0.004561
0.022252 -0.640905 -0.287683
0.020545 -0.604504 -0.253627
0.028623 -0.803483 -0.333419
0.028654 -0.807279 -0.315546
0.028171 -0.801398 -0.293828
0.029325 -0.835912 -0.288406
0.030517 -0.868603 -0.280971
0.031177 -0.891868 -0.268973
0.032587 -0.934090 -0.261841
0.274814 -7.067432 -1.995555
0.301842 -7.819574 -2.018153
0.336215 -8.735946 -2.042989
0.378230 -9.901336 -2.079368
0.430871 -11.365151 -2.117518
0.560738 -13.310584 -2.164497
0.672699 -16.011036 -2.228272
0.841135 -20.157804 -2.331047
1.124475 -27.135061 -2.505836
-0.000222 -0.107854 -0.004561
-0.000222 -0.107854 -0.004561
-0.000222 -0.107854 -0.004561
-0.000222 -0.107854 -0.004561
-0.000222 -0.107854 -0.004561
-0.000222 -0.107854 -0.004561
2.315773 -58.461910 4.127390
2.122561 -54.069416 5.078459
2.039140 -52.414310 6.160525
1.908453 -49.283436 6.953061
-0.000222 -0.107854 -0.004561
-0.000222 -0.107854 -0.004561
-0.000221 -0.107467 -0.004544
-0.000221 -0.107467 -0.004544
0.019382 -0.645928 -0.290481
0.018133 -0.616740 -0.259883
0.024031 -0.786991 -0.325717
0.024372 -0.799735 -0.312283
0.024367 -0.806703 -0.296122
0.025320 -0.841278 -0.290570
0.025948 -0.862736 -0.278910
0.026536 -0.887857 -0.267681
0.027964 -0.937691 -0.263015
0.234811 -7.070421 -1.996111
0.257037 -7.809197 -2.015133
0.286595 -8.739292 -2.043460
0.321507 -9.893184 -2.077312
0.365918 -11.363119 -2.116802
0.484566 -13.309248 -2.163878
0.581030 -16.012283 -2.228031
0.725966 -20.169847 -2.332017
0.979023 -27.425289 -2.532243
-0.000221 -0.107467 -0.004544
-0.000221 -0.107467 -0.004544
-0.000221 -0.107467 -0.004544
-0.000221 -0.107467 -0.004544
-0.000221 -0.107467 -0.004544
-0.000221 -0.107467 -0.004544
1.980524 -58.499836 4.129048
1.621518 -48.414635 4.544731
1.777608 -53.621891 6.301425
1.628271 -49.386253 6.966073
-0.000221 -0.107467 -0.004544
-0.000221 -0.107467 -0.004544
-0.000220 -0.107080 -0.004527
-0.000220 -0.107080 -0.004527
0.017039 -0.670366 -0.303591
0.015644 -0.630738 -0.267036
0.020057 -0.784933 -0.324848
0.020625 -0.812288 -0.317953
0.020347 -0.806439 -0.296108
0.020998 -0.837287 -0.289103
0.021514 -0.864377 -0.279578
0.021998 -0.885706 -0.267029
0.023166 -0.937469 -0.263002
0.193439 -7.069385 -1.995568
0.213062 -7.823697 -2.018677
0.235326 -8.738504 -2.043013
0.263466 -9.894507 -2.077328
0.299018 -11.360782 -2.116085
0.408836 -13.321300 -2.165519
0.486909 -16.022966 -2.229175
0.611383 -20.205082 -2.335753
0.815812 -27.235016 -2.514270
-0.000220 -0.107080 -0.004527
-0.000220 -0.107080 -0.004527
2.180810 -74.784500 -1.678133
-0.000220 -0.107080 -0.004527
-0.000220 -0.107080 -0.004527
-0.000220 -0.107080 -0.004527
1.646983 -58.974854 4.161755
1.329993 -48.247871 4.528093
1.471306 -53.702362 6.309684
1.344714 -49.723297 7.012397
-0.000220 -0.107080 -0.004527
-0.000220 -0.107080 -0.004527
-0.000219 -0.106693 -0.004511
-0.000219 -0.106693 -0.004511
0.013481 -0.661240 -0.298888
0.012320 -0.621498 -0.262541
0.016077 -0.786464 -0.325688
0.016316 -0.801034 -0.313067
0.016010 -0.798794 -0.293016
0.016528 -0.831434 -0.286911
0.017027 -0.858462 -0.277516
0.017420 -0.887333 -0.267653
0.018122 -0.931468 -0.261205
0.153400 -7.071906 -1.996125
0.167203 -7.820558 -2.017676
0.185579 -8.737381 -2.042566
0.207182 -9.899386 -2.078173
0.234059 -11.354053 -2.114632
0.330143 -13.311254 -2.163611
0.395151 -16.021154 -2.228658
0.492028 -20.203995 -2.335343
0.653604 -27.187208 -2.509556
-0.000219 -0.106693 -0.004511
-0.000219 -0.106693 -0.004511
-0.000219 -0.106693 -0.004511
-0.000219 -0.106693 -0.004511
-0.000219 -0.106693 -0.004511
-0.000219 -0.106693 -0.004511
-0.000219 -0.106693 -0.004511
1.068816 -48.990921 4.597287
1.091879 -50.858150 5.973620
-0.000219 -0.106693 -0.004511
-0.000219 -0.106693 -0.004511
-0.000219 -0.106693 -0.004511
-0.000218 -0.106305 -0.004494
-0.000218 -0.106305 -0.004494
0.010279 -0.660931 -0.298874
0.009190 -0.612236 -0.258046
0.012198 -0.787965 -0.326528
0.012308 -0.800740 -0.313053
0.011816 -0.785550 -0.287616
0.012421 -0.834856 -0.288349
0.012705 -0.858155 -0.277502
0.012949 -0.888938 -0.268278
0.013376 -0.931170 -0.261191
0.113253 -7.070368 -1.995582
0.122840 -7.824877 -2.018696
0.135868 -8.735950 -2.042118
0.150815 -9.901988 -2.078605
0.169259 -11.352858 -2.114285
0.254141 -13.314514 -2.163961
0.303508 -16.022768 -2.228695
0.375999 -20.190203 -2.333552
0.496835 -27.146332 -2.505579
-0.000218 -0.106305 -0.004494
-0.000218 -0.106305 -0.004494
-0.000218 -0.106305 -0.004494
-0.000218 -0.106305 -0.004494
-0.000218 -0.106305 -0.004494
-0.000218 -0.106305 -0.004494
1.030481 -62.737293 4.426564
-0.000218 -0.106305 -0.004494
0.809252 -51.478897 6.045974
-0.000218 -0.106305 -0.004494
-0.000218 -0.106305 -0.004494
-0.000218 -0.106305 -0.004494
-0.000217 -0.105918 -0.004478
-0.000217 -0.105918 -0.004478
0.007241 -0.672968 -0.305422
0.006483 -0.627986 -0.266095
0.008280 -0.787632 -0.326514
0.008254 -0.794919 -0.310602
0.007903 -0.785222 -0.287602
0.008196 -0.832675 -0.287609
0.008442 -0.865368 -0.280219
0.008411 -0.884813 -0.266987
0.008595 -0.928949 -0.260583
0.073155 -7.070510 -1.995589
0.078324 -7.817317 -2.016686
0.086200 -8.740103 -2.043051
0.094343 -9.894467 -2.076964
0.104527 -11.357191 -2.115044
0.177992 -13.309452 -2.163022
0.211950 -16.031784 -2.229840
0.260480 -20.203571 -2.334986
0.341975 -27.216045 -2.511917
-0.000217 -0.105918 -0.004478
-0.000217 -0.105918 -0.004478
-0.000217 -0.105918 -0.004478
-0.000217 -0.105918 -0.004478
-0.000217 -0.105918 -0.004478
-0.000217 -0.105918 -0.004478
-0.000217 -0.105918 -0.004478
0.537847 -52.111340 4.889871
0.521740 -52.320496 6.144521
-0.000217 -0.105918 -0.004478
-0.000217 -0.105918 -0.004478
-0.000217 -0.105918 -0.004478
-0.000216 -0.105531 -0.004461
-0.000216 -0.105531 -0.004461
0.003999 -0.674372 -0.306345
0.003409 -0.618694 -0.261601
0.004339 -0.785478 -0.325645
0.004282 -0.794574 -0.310588
0.003988 -0.786732 -0.288357
0.003997 -0.828590 -0.286143
0.004073 -0.865015 -0.280205
0.003911 -0.882572 -0.266334
0.003855 -0.926681 -0.259975
0.033072 -7.074271 -1.996696
0.033863 -7.805643 -2.013666
0.036475 -8.736162 -2.042145
0.037960 -9.894472 -2.076982
0.039722 -11.355257 -2.114698
0.101945 -13.307889 -2.162728
0.120154 -16.020460 -2.228217
0.144640 -20.190439 -2.333426
0.186041 -27.245052 -2.514572
-0.000216 -0.105531 -0.004461
-0.000216 -0.105531 -0.004461
0.140792 -23.657192 -0.532386
-0.000216 -0.105531 -0.004461
-0.000216 -0.105531 -0.004461
-0.000216 -0.105531 -0.004461
-0.000216 -0.105531 -0.004461
0.230345 -50.376896 4.726313
-0.000216 -0.105531 -0.004461
-0.000216 -0.105531 -0.004461
-0.000216 -0.105531 -0.004461
-0.000216 -0.105531 -0.004461
-0.000220 -0.105140 -0.004444
-0.000220 -0.105140 -0.004444
0.000729 -0.670447 -0.304454
0.000454 -0.612940 -0.258897
0.000432 -0.776039 -0.321359
0.000195 -0.799680 -0.313010
0.000070 -0.790039 -0.289881
-0.000155 -0.831923 -0.287580
-0.000415 -0.860856 -0.278825
-0.000569 -0.893560 -0.270152
-0.000883 -0.926305 -0.259961
-0.008260 -7.070092 -1.995605
-0.010471 -7.809171 -2.014686
-0.014741 -8.737784 -2.042618
-0.020099 -9.888249 -2.075757
-0.027029 -11.358824 -2.115458
0.025922 -13.305876 -2.162435
0.025724 -16.022478 -2.228534
0.028977 -20.178602 -2.332097
0.029694 -27.205456 -2.510968
-0.000220 -0.105140 -0.004444
-0.000220 -0.105140 -0.004444
0.005137 -23.527241 -0.529538
-0.000220 -0.105140 -0.004444
-0.000220 -0.105140 -0.004444
-0.039689 -61.066574 2.887182
-0.061220 -61.240383 4.319567
-0.067897 -50.325218 4.721279
-0.000220 -0.105140 -0.004444
-0.000220 -0.105140 -0.004444
-0.000220 -0.105140 -0.004444
-0.000220 -0.105140 -0.004444
-0.000219 -0.104753 -0.004427
-0.000219 -0.104753 -0.004427
-0.002724 -0.691264 -0.315690
-0.002573 -0.614343 -0.259779
-0.003445 -0.777458 -0.322199
-0.003807 -0.801104 -0.313807
-0.003971 -0.787784 -0.289098
-0.004363 -0.833401 -0.288292
-0.004787 -0.862344 -0.279494
-0.005036 -0.881785 -0.266306
-0.005603 -0.927790 -0.260541
-0.048319 -7.061855 -1.993414
-0.054901 -7.818271 -2.017222
-0.064449 -8.737166 -2.042632
-0.074670 -9.881715 -2.074531
-0.089864 -11.360053 -2.115850
-0.052402 -13.307377 -2.162787
-0.065892 -16.012062 -2.227189
-0.089986 -20.146248 -2.328465
-0.131118 -27.208744 -2.511415
-0.000219 -0.104753 -0.004427
-0.127174 -23.813505 -1.091204
-0.129522 -23.482519 -0.528618
-0.000219 -0.104753 -0.004427
-0.000219 -0.104753 -0.004427
-0.000219 -0.104753 -0.004427
-0.418187 -61.958832 4.370306
-0.355861 -51.400921 4.822484
-0.000219 -0.104753 -0.004427
-0.000219 -0.104753 -0.004427
-0.000219 -0.104753 -0.004427
-0.000219 -0.104753 -0.004427
-0.000218 -0.104366 -0.004411
-0.000218 -0.104366 -0.004411
-0.005943 -0.685551 -0.312863
-0.005294 -0.601423 -0.253492
-0.007478 -0.791515 -0.329019
-0.007708 -0.791539 -0.309733
-0.007792 -0.787373 -0.289084
-0.008573 -0.834834 -0.289004
-0.009196 -0.865680 -0.280845
-0.009517 -0.881364 -0.266292
-0.010370 -0.929273 -0.261122
-0.088292 -7.055290 -1.991772
-0.099264 -7.813564 -2.016222
-0.114177 -8.738205 -2.043106
-0.132743 -9.886567 -2.075792
-0.156648 -11.358939 -2.115873
-0.125998 -13.292678 -2.160558
-0.157510 -16.013006 -2.227505
-0.201761 -20.131138 -2.326906
-0.245973 -23.704325 -2.187470
-0.000218 -0.104366 -0.004411
-0.257745 -23.644236 -1.083578
-0.000218 -0.104366 -0.004411
-0.000218 -0.104366 -0.004411
-0.000218 -0.104366 -0.004411
-0.000218 -0.104366 -0.004411
-0.000218 -0.104366 -0.004411
-0.000218 -0.104366 -0.004411
-0.000218 -0.104366 -0.004411
-0.000218 -0.104366 -0.004411
-0.000218 -0.104366 -0.004411
-0.000218 -0.104366 -0.004411
-0.000217 -0.103978 -0.004394
-0.000217 -0.103978 -0.004394
-0.008900 -0.653336 -0.295973
-0.008411 -0.611719 -0.258853
-0.011675 -0.798307 -0.332422
-0.011699 -0.792929 -0.310531
-0.011832 -0.786917 -0.289069
-0.012831 -0.830648 -0.287538
-0.013414 -0.855830 -0.277418
-0.014191 -0.884696 -0.267556
-0.015244 -0.926916 -0.260514
-0.128458 -7.061969 -1.993979
-0.144894 -7.806650 -2.014718
-0.163873 -8.736995 -2.043119
-0.188958 -9.879383 -2.074568
-0.221366 -11.353518 -2.115159
-0.204330 -13.297223 -2.161557
-0.249055 -16.007481 -2.226991
-0.320359 -20.115292 -2.325348
-0.398214 -24.448784 -2.256618
-0.387362 -23.532846 -1.624386
-0.396572 -23.591961 -1.081355
-0.405949 -23.658558 -0.532786
-0.000217 -0.103978 -0.004394
-0.000217 -0.103978 -0.004394
-0.000217 -0.103978 -0.004394
-0.000217 -0.103978 -0.004394
-0.000217 -0.103978 -0.004394
-0.000217 -0.103978 -0.004394
-0.000217 -0.103978 -0.004394
-0.000217 -0.103978 -0.004394
-0.000217 -0.103978 -0.004394
-0.000216 -0.103591 -0.004377
-0.000216 -0.103591 -0.004377
-0.012234 -0.661702 -0.300646
-0.011048 -0.598752 -0.252566
-0.015474 -0.788805 -0.328136
-0.015664 -0.792463 -0.310517
-0.015677 -0.782758 -0.287516
-0.017103 -0.833904 -0.288976
-0.017878 -0.860997 -0.279452
-0.018647 -0.882326 -0.266903
-0.020028 -0.928338 -0.261095
-0.168244 -7.049191 -1.990689
-0.189381 -7.811095 -2.016244
-0.213681 -8.739412 -2.044053
-0.245160 -9.873843 -2.073758
-0.286155 -11.351681 -2.115183
-0.280297 -13.295432 -2.161587
-0.340427 -15.995497 -2.225647
-0.434933 -20.082920 -2.321947
-0.594653 -26.990194 -2.492126
-0.522620 -23.545782 -1.625556
-0.549870 -24.385859 -1.117972
-0.000216 -0.103591 -0.004377
-0.000216 -0.103591 -0.004377
-0.000216 -0.103591 -0.004377
-0.000216 -0.103591 -0.004377
-0.000216 -0.103591 -0.004377
-0.000216 -0.103591 -0.004377
-0.000216 -0.103591 -0.004377
-0.000216 -0.103591 -0.004377
-0.000216 -0.103591 -0.004377
-0.000216 -0.103591 -0.004377
-0.000215 -0.103204 -0.004361
-0.000215 -0.103204 -0.004361
-0.016031 -0.682433 -0.311882
-0.013963 -0.600096 -0.253447
-0.019668 -0.797353 -0.332393
-0.019799 -0.793796 -0.311314
-0.019603 -0.782286 -0.287502
-0.021310 -0.833410 -0.288962
-0.022311 -0.858608 -0.278755
-0.023287 -0.887493 -0.268806
-0.024653 -0.923996 -0.259892
-0.209496 -7.049594 -1.991247
-0.233747 -7.809474 -2.016255
-0.264786 -8.733705 -2.043148
-0.303106 -9.871811 -2.073776
-0.352932 -11.351344 -2.115576
-0.356158 -13.289271 -2.160973
-0.434702 -15.992798 -2.225688
-0.549915 -20.077696 -2.321772
-0.615648 -22.184307 -2.047843
-0.624841 -22.235525 -1.535263
-0.000215 -0.103204 -0.004361
-0.000215 -0.103204 -0.004361
-0.000215 -0.103204 -0.004361
-0.000215 -0.103204 -0.004361
-0.000215 -0.103204 -0.004361
-0.000215 -0.103204 -0.004361
-0.000215 -0.103204 -0.004361
-0.000215 -0.103204 -0.004361
-0.000215 -0.103204 -0.004361
-0.000215 -0.103204 -0.004361
-0.000215 -0.103204 -0.004361
-0.000214 -0.102817 -0.004344
-0.000214 -0.102817 -0.004344
-0.018889 -0.664295 -0.302492
-0.016299 -0.581738 -0.244473
-0.024017 -0.807673 -0.337505
-0.024533 -0.815214 -0.321045
-0.023623 -0.781764 -0.287488
-0.025377 -0.829156 -0.287496
-0.026729 -0.859963 -0.279424
-0.027673 -0.883175 -0.267514
-0.029514 -0.927272 -0.261067
-0.249559 -7.049804 -1.991806
-0.278051 -7.805679 -2.015762
-0.314276 -8.725821 -2.041784
-0.357432 -9.863709 -2.072552
-0.415890 -11.352747 -2.116338
-0.434764 -13.298359 -2.162940
-0.526198 -15.989641 -2.225729
-0.667894 -20.057814 -2.319985
-0.822027 -24.409086 -2.254252
-0.747329 -22.085592 -1.525255
-0.000214 -0.102817 -0.004344
-0.000214 -0.102817 -0.004344
-0.000214 -0.102817 -0.004344
-0.000214 -0.102817 -0.004344
-0.000214 -0.102817 -0.004344
-0.000214 -0.102817 -0.004344
-0.000214 -0.102817 -0.004344
-0.000214 -0.102817 -0.004344
-0.000214 -0.102817 -0.004344
-0.000214 -0.102817 -0.004344
-0.000214 -0.102817 -0.004344
-0.000213 -0.102430 -0.004327
-0.000213 -0.102430 -0.004327
-0.021668 -0.654956 -0.297789
-0.018979 -0.581260 -0.244458
-0.028232 -0.810766 -0.339199
-0.029059 -0.825621 -0.325903
-0.027638 -0.786772 -0.289782
-0.029575 -0.828629 -0.287482
-0.031085 -0.859407 -0.279410
-0.032085 -0.880720 -0.266862
-0.034485 -0.932413 -0.262836
-0.289725 -7.051713 -1.992914
-0.322067 -7.795815 -2.013753
-0.363675 -8.717641 -2.040421
-0.415093 -9.855166 -2.071329
-0.482864 -11.355566 -2.117469
-0.508517 -13.297308 -2.163294
-0.617220 -15.974086 -2.224110
-0.779078 -20.047421 -2.319350
-0.000213 -0.102430 -0.004327
-0.872896 -22.054630 -1.523526
-0.881437 -22.171629 -1.017218
-0.000213 -0.102430 -0.004327
-0.000213 -0.102430 -0.004327
-0.000213 -0.102430 -0.004327
-0.000213 -0.102430 -0.004327
-0.000213 -0.102430 -0.004327
-0.000213 -0.102430 -0.004327
-0.000213 -0.102430 -0.004327
-0.000213 -0.102430 -0.004327
-0.000213 -0.102430 -0.004327
-0.000213 -0.102430 -0.004327
-0.000212 -0.102043 -0.004311
-0.000212 -0.102043 -0.004311
-0.023453 -0.620910 -0.279961
-0.022463 -0.595042 -0.251611
-0.032748 -0.817412 -0.342602
-0.033400 -0.828718 -0.327514
-0.032457 -0.802804 -0.296693
-0.033697 -0.824319 -0.286016
-0.035339 -0.856936 -0.278714
-0.036780 -0.882014 -0.267487
-0.039787 -0.939457 -0.265200
-0.329823 -7.051457 -1.993473
-0.368181 -7.803060 -2.016290
-0.413364 -8.716949 -2.040895
-0.471339 -9.854178 -2.071763
-0.547365 -11.346312 -2.116387
-0.586871 -13.295629 -2.163649
-0.709395 -15.987681 -2.226643
-0.896516 -20.022219 -2.317102
-0.998521 -22.117304 -2.043244
-0.000212 -0.102043 -0.004311
-0.000212 -0.102043 -0.004311
-0.000212 -0.102043 -0.004311
-0.000212 -0.102043 -0.004311
-0.000212 -0.102043 -0.004311
-0.000212 -0.102043 -0.004311
-0.000212 -0.102043 -0.004311
-0.000212 -0.102043 -0.004311
-0.000212 -0.102043 -0.004311
-0.000212 -0.102043 -0.004311
-0.000212 -0.102043 -0.004311
-0.000212 -0.102043 -0.004311
-0.000212 -0.101655 -0.004294
-0.000212 -0.101655 -0.004294
-0.024735 -0.586848 -0.262132
-0.024485 -0.578449 -0.243532
-0.036549 -0.813212 -0.340880
-0.038516 -0.846375 -0.335621
-0.037347 -0.818809 -0.303603
-0.038210 -0.833036 -0.289632
-0.039692 -0.856341 -0.278700
-0.041340 -0.885202 -0.268751
-0.045456 -0.957892 -0.271129
-0.369813 -7.049031 -1.993482
-0.411876 -7.813998 -2.019837
-0.463383 -8.721813 -2.042749
-0.525452 -9.845125 -2.070539
-0.610580 -11.350551 -2.117888
-0.663437 -13.303473 -2.165617
-0.800964 -15.984921 -2.226962
-1.011921 -20.030218 -2.318773
-1.127932 -22.162510 -2.048100
-0.000212 -0.101655 -0.004294
-0.000212 -0.101655 -0.004294
-0.000212 -0.101655 -0.004294
-0.000212 -0.101655 -0.004294
-0.000212 -0.101655 -0.004294
-0.000212 -0.101655 -0.004294
-0.000212 -0.101655 -0.004294
-3.052092 -57.431034 5.396165
-0.000212 -0.101655 -0.004294
-0.000212 -0.101655 -0.004294
-0.000212 -0.101655 -0.004294
-0.000212 -0.101655 -0.004294
-0.000211 -0.101268 -0.004278
-0.000211 -0.101268 -0.004278
-0.025540 -0.551035 -0.243365
-0.026643 -0.568994 -0.239037
-0.040853 -0.816217 -0.342574
-0.043530 -0.858523 -0.341291
-0.042318 -0.832934 -0.309745
-0.043818 -0.856605 -0.299057
-0.044261 -0.859474 -0.280051
-0.046753 -0.897793 -0.273208
-0.051315 -0.970561 -0.275276
-0.409825 -7.046411 -1.993492
-0.457507 -7.809094 -2.019344
-0.514281 -8.714630 -2.041846
-0.584714 -9.837435 -2.069730
-0.677069 -11.342410 -2.117176
-0.737259 -13.301147 -2.165973
-0.892515 -15.981618 -2.227281
-1.122280 -20.007982 -2.316986
-1.524801 -26.981064 -2.495381
-0.000211 -0.101268 -0.004278
-0.000211 -0.101268 -0.004278
-0.000211 -0.101268 -0.004278
-0.000211 -0.101268 -0.004278
-4.223825 -72.541374 1.735723
-3.490382 -59.602089 2.820751
-3.539919 -60.264832 4.256171
-3.394938 -57.457264 5.400276
-0.000211 -0.101268 -0.004278
-0.000211 -0.101268 -0.004278
-0.000211 -0.101268 -0.004278
-0.000211 -0.101268 -0.004278
-0.000210 -0.100881 -0.004261
-0.000210 -0.100881 -0.004261
-0.000210 -0.100881 -0.004261
-0.029830 -0.573787 -0.241710
-0.045334 -0.817375 -0.343415
-0.048839 -0.868795 -0.346150
-0.048564 -0.859929 -0.321273
-0.049853 -0.878252 -0.307756
-0.049484 -0.868175 -0.283451
-0.052715 -0.914127 -0.278944
-0.057622 -0.985101 -0.280017
-0.452095 -7.041457 -1.992951
-0.504208 -7.799988 -2.017842
-0.566490 -8.705110 -2.040483
-0.644166 -9.833292 -2.069750
-0.745825 -11.339622 -2.117570
-0.817739 -13.294032 -2.165683
-0.989366 -15.973501 -2.227047
-1.244472 -20.010286 -2.318197
-1.690950 -27.002661 -2.498414
-0.000210 -0.100881 -0.004261
-0.000210 -0.100881 -0.004261
-0.000210 -0.100881 -0.004261
-0.000210 -0.100881 -0.004261
-0.000210 -0.100881 -0.004261
-4.709326 -72.784729 3.447709
-3.903341 -60.179996 4.251588
-3.742123 -57.387405 5.395579
-0.000210 -0.100881 -0.004261
-0.000210 -0.100881 -0.004261
-0.000210 -0.100881 -0.004261
-0.000210 -0.100881 -0.004261
-0.000213 -0.100490 -0.004244
-0.000213 -0.100490 -0.004244
-0.030352 -0.544637 -0.240522
-0.031986 -0.566087 -0.238111
-0.049471 -0.818534 -0.344255
-0.053754 -0.877231 -0.350196
-0.053299 -0.868462 -0.325106
-0.055234 -0.892448 -0.313551
-0.055481 -0.891883 -0.292311
-0.058711 -0.936133 -0.286596
-0.063867 -1.005325 -0.286541
-0.491514 -7.048010 -1.995710
-0.546668 -7.808331 -2.020885
-0.613574 -8.709282 -2.042337
-0.697354 -9.837065 -2.071428
-0.809714 -11.350582 -2.120547
-0.891781 -13.294752 -2.166684
-1.078643 -15.977198 -2.228475
-1.356834 -20.020456 -2.320330
-1.842083 -27.006287 -2.499790
-0.000213 -0.100490 -0.004244
-0.000213 -0.100490 -0.004244
-0.000213 -0.100490 -0.004244
-0.000213 -0.100490 -0.004244
-5.101560 -73.111465 1.750208
-4.208939 -60.033455 2.842959
-4.294855 -60.950912 4.307639
-4.041730 -57.079227 5.368408
-4.027272 -56.733528 6.678668
-0.000213 -0.100490 -0.004244
-0.000213 -0.100490 -0.004244
-0.000213 -0.100490 -0.004244
-0.000212 -0.100103 -0.004227
-0.000212 -0.100103 -0.004227
-0.000212 -0.100103 -0.004227
-0.034210 -0.558362 -0.234512
-0.053050 -0.808819 -0.339969
-0.058648 -0.882006 -0.352619
-0.059376 -0.887999 -0.333557
-0.061183 -0.908436 -0.320072
-0.061293 -0.908016 -0.298441
-0.063658 -0.935374 -0.286582
-0.484625 -6.446526 -1.985086
-0.533276 -7.067688 -2.002318
-0.000212 -0.100103 -0.004227
-0.663278 -8.707150 -2.042813
-0.000212 -0.100103 -0.004227
-0.875092 -11.353179 -2.122049
-0.970339 -13.292777 -2.167364
-0.000212 -0.100103 -0.004227
-1.472502 -19.977982 -2.316472
-2.000072 -26.972656 -2.497849
-0.000212 -0.100103 -0.004227
-0.000212 -0.100103 -0.004227
-0.000212 -0.100103 -0.004227
-0.000212 -0.100103 -0.004227
-0.000212 -0.100103 -0.004227
-4.519575 -59.417427 2.814726
-4.551824 -59.701435 4.220703
-0.000212 -0.100103 -0.004227
-0.000212 -0.100103 -0.004227
-0.000212 -0.100103 -0.004227
-0.000212 -0.100103 -0.004227
-0.000212 -0.100103 -0.004227
-0.000211 -0.099716 -0.004211
-0.000211 -0.099716 -0.004211
-0.000211 -0.099716 -0.004211
-0.036982 -0.559546 -0.235393
-0.057285 -0.811720 -0.341664
-0.062702 -0.875797 -0.350169
-0.065682 -0.909323 -0.342776
-0.067517 -0.929999 -0.328772
-0.067794 -0.929767 -0.306619
-0.069708 -0.951621 -0.292318
-0.000211 -0.099716 -0.004211
-0.573860 -7.069860 -2.003978
-0.634595 -7.791094 -2.018385
-0.712998 -8.704745 -2.043289
-0.806768 -9.816045 -2.068983
-0.938568 -11.355561 -2.123551
-1.046600 -13.290508 -2.168043
-1.261111 -15.958990 -2.228009
-1.588841 -19.992535 -2.319297
-2.150323 -26.904703 -2.492774
-0.000211 -0.099716 -0.004211
-0.000211 -0.099716 -0.004211
-0.000211 -0.099716 -0.004211
-0.000211 -0.099716 -0.004211
-5.109822 -62.693485 1.500768
-0.000211 -0.099716 -0.004211
-4.891427 -59.630116 4.217390
-0.000211 -0.099716 -0.004211
-0.000211 -0.099716 -0.004211
-0.000211 -0.099716 -0.004211
-0.000211 -0.099716 -0.004211
-0.000211 -0.099716 -0.004211
-0.000210 -0.099328 -0.004194
-0.000210 -0.099328 -0.004194
-0.000210 -0.099328 -0.004194
-0.038646 -0.548269 -0.230002
-0.061081 -0.807396 -0.339942
-0.068269 -0.887782 -0.355840
-0.071643 -0.925120 -0.349688
-0.073567 -0.944044 -0.334567
-0.074184 -0.947683 -0.313432
-0.076107 -0.967821 -0.298054
-0.000210 -0.099328 -0.004194
-0.613313 -7.058389 -2.001789
-0.678529 -7.783062 -2.017388
-0.762179 -8.696213 -2.042386
-0.865275 -9.820449 -2.071076
-1.005502 -11.351357 -2.123946
-1.120586 -13.288012 -2.168723
-1.354105 -15.970813 -2.230823
-1.702444 -20.012657 -2.322814
-2.293336 -26.814503 -2.485673
-0.000210 -0.099328 -0.004194
-0.000210 -0.099328 -0.004194
-0.000210 -0.099328 -0.004194
-5.449092 -62.674526 0.042451
-5.418639 -62.197491 1.489335
-5.581877 -63.809559 3.025847
-0.000210 -0.099328 -0.004194
-4.975142 -56.428555 5.313870
-0.000210 -0.099328 -0.004194
-0.000210 -0.099328 -0.004194
-0.000210 -0.099328 -0.004194
-0.000210 -0.099328 -0.004194
-0.000210 -0.098941 -0.004177
-0.000210 -0.098941 -0.004177
-0.000210 -0.098941 -0.004177
-0.041457 -0.549414 -0.230883
-0.064953 -0.803038 -0.338219
-0.073452 -0.892440 -0.358263
-0.077054 -0.929812 -0.351983
-0.080144 -0.959923 -0.341089
-0.081140 -0.967438 -0.320928
-0.082315 -0.978291 -0.301874
-0.593094 -6.424615 -1.981543
-0.655845 -7.067636 -2.005648
-0.726444 -7.803537 -2.023967
-0.813177 -8.691157 -2.042403
-0.923290 -9.818634 -2.071926
-1.072054 -11.342844 -2.123605
-1.198443 -13.276793 -2.168112
-1.449155 -15.971975 -2.232252
-1.821819 -20.015656 -2.324488
-2.448166 -26.760372 -2.482074
-0.000210 -0.098941 -0.004177
-0.000210 -0.098941 -0.004177
-0.000210 -0.098941 -0.004177
-5.819357 -62.630737 0.042217
-5.799256 -62.295250 1.492271
-5.580781 -59.725185 2.832923
-5.569452 -59.379406 4.203568
-5.774440 -61.329929 5.779556
-6.705911 -71.072845 8.386008
-0.000210 -0.098941 -0.004177
-0.000210 -0.098941 -0.004177
-0.000210 -0.098941 -0.004177
-0.000209 -0.098554 -0.004161
-0.000209 -0.098554 -0.004161
-0.000209 -0.098554 -0.004161
-0.043968 -0.547007 -0.229972
-0.069832 -0.809451 -0.341622
-0.078542 -0.897062 -0.360686
-0.083610 -0.945489 -0.358895
-0.087080 -0.977588 -0.348336
-0.088180 -0.987151 -0.328424
-0.090707 -1.009453 -0.312721
-0.632496 -6.439586 -1.987495
-0.695178 -7.055680 -2.003459
-0.771761 -7.794857 -2.022971
-0.862624 -8.685925 -2.042420
-0.980423 -9.824447 -2.074434
-1.136374 -11.332168 -2.122895
-1.276981 -13.272982 -2.168792
-1.540911 -15.966909 -2.232851
-1.941303 -20.017939 -2.326162
-2.599715 -26.677591 -2.475895
-0.000209 -0.098554 -0.004161
-6.532100 -66.521896 -3.067536
-0.000209 -0.098554 -0.004161
-6.263021 -63.441673 0.042614
-6.264356 -63.228325 1.515367
-5.840462 -58.746380 2.787755
-5.784832 -58.083416 4.113690
-6.133347 -61.358692 5.785325
-0.000209 -0.098554 -0.004161
-0.000209 -0.098554 -0.004161
-0.000209 -0.098554 -0.004161
-0.000209 -0.098554 -0.004161
-0.000208 -0.098167 -0.004144
-0.000208 -0.098167 -0.004144
-0.000208 -0.098167 -0.004144
-0.000208 -0.098167 -0.004144
-0.073160 -0.801439 -0.338191
-0.082396 -0.888953 -0.357424
-0.087898 -0.939087 -0.356573
-0.094263 -0.997064 -0.356310
-0.094078 -0.993722 -0.331141
-0.612375 -5.918506 -1.976910
-0.668401 -6.429754 -1.985720
-0.735225 -7.051169 -2.003470
-0.816684 -7.795672 -2.024500
-0.912279 -8.682376 -2.042897
-1.037028 -9.824078 -2.075698
-1.201882 -11.332866 -2.124398
-1.352434 -13.261103 -2.168181
-1.632263 -15.957380 -2.232897
-2.055169 -19.998137 -2.325302
-2.743296 -26.570667 -2.467503
-3.251452 -31.420580 -2.183056
-0.000208 -0.098167 -0.004144
-0.000208 -0.098167 -0.004144
-7.373857 -70.531219 0.047621
-0.000208 -0.098167 -0.004144
-6.312802 -59.988895 2.848386
-0.000208 -0.098167 -0.004144
-6.229949 -58.904247 5.556482
-0.000208 -0.098167 -0.004144
-0.000208 -0.098167 -0.004144
-0.000208 -0.098167 -0.004144
-0.000208 -0.098167 -0.004144
-0.000207 -0.097780 -0.004127
-0.000207 -0.097780 -0.004127
-0.000207 -0.097780 -0.004127
-0.000207 -0.097780 -0.004127
-0.077419 -0.802432 -0.339032
-0.086746 -0.886260 -0.356598
-0.093352 -0.943693 -0.358869
-0.103935 -1.036867 -0.372272
-0.107296 -1.065649 -0.357752
-0.644615 -5.903182 -1.973083
-0.705485 -6.431108 -1.987512
-0.776756 -7.059822 -2.007330
-0.860988 -7.790445 -2.024513
-0.961038 -8.670779 -2.041535
-1.092155 -9.809790 -2.074063
-1.267223 -11.331233 -2.125532
-1.428424 -13.254666 -2.168540
-1.724411 -15.955192 -2.234050
-2.169506 -19.983591 -2.325133
-2.884004 -26.447138 -2.457637
-3.426125 -31.349377 -2.179573
-6.900060 -62.835026 -2.901472
-0.000207 -0.097780 -0.004127
-7.610873 -68.962494 0.046244
-0.000207 -0.097780 -0.004127
-6.484699 -58.396503 2.774080
-6.189037 -55.648739 3.945239
-6.486257 -58.130871 5.486618
-0.000207 -0.097780 -0.004127
-0.000207 -0.097780 -0.004127
-0.000207 -0.097780 -0.004127
-0.000207 -0.097780 -0.004127
-0.000206 -0.097393 -0.004111
-0.000206 -0.097393 -0.004111
-0.000206 -0.097393 -0.004111
-0.000206 -0.097393 -0.004111
-0.081890 -0.805183 -0.340727
-0.091278 -0.885355 -0.356585
-0.099268 -0.951909 -0.362703
-0.109129 -1.034019 -0.371533
-0.123516 -1.156117 -0.391191
-0.676937 -5.889576 -1.969895
-0.741710 -6.424644 -1.986926
-0.817045 -7.056742 -2.007891
-0.904802 -7.781110 -2.023517
-1.010824 -8.668558 -2.042472
-1.149212 -9.812665 -2.076157
-1.331648 -11.321394 -2.125191
-1.503488 -13.239944 -2.167607
-1.817285 -15.958389 -2.236035
-2.283530 -19.966429 -2.324734
-3.023135 -26.320873 -2.447586
-0.000206 -0.097393 -0.004111
-0.000206 -0.097393 -0.004111
-0.000206 -0.097393 -0.004111
-7.221920 -62.166664 0.041073
-7.366635 -63.216793 1.517254
-0.000206 -0.097393 -0.004111
-6.518651 -55.695038 3.950955
-8.163911 -69.516716 6.567993
-0.000206 -0.097393 -0.004111
-0.000206 -0.097393 -0.004111
-0.000206 -0.097393 -0.004111
-0.000206 -0.097393 -0.004111
-0.000205 -0.097006 -0.004094
-0.000205 -0.097006 -0.004094
-0.000205 -0.097006 -0.004094
-0.054715 -0.547886 -0.231705
-0.085306 -0.798923 -0.338150
-0.094940 -0.877180 -0.353323
-0.105097 -0.958284 -0.365768
-0.114977 -1.036693 -0.372972
-0.655709 -5.456060 -1.964776
-0.710286 -5.885201 -1.969902
-0.779298 -6.429356 -1.989906
-0.856154 -7.043887 -2.005702
-0.949991 -7.783074 -2.025552
-1.060652 -8.666079 -2.043409
-1.205135 -9.805492 -2.076179
-1.395521 -11.307287 -2.124113
-1.579134 -13.230665 -2.167642
-1.907871 -15.941357 -2.235250
-2.401010 -19.978199 -2.327794
-3.162133 -26.203787 -2.438456
-4.517890 -37.342289 -2.600512
-0.000205 -0.097006 -0.004094
-0.000205 -0.097006 -0.004094
-7.557925 -61.948963 0.040715
-7.653656 -62.549774 1.501991
-7.134086 -58.140713 2.765229
-6.816566 -55.476006 3.937922
-6.852059 -55.603054 5.254228
-0.000205 -0.097006 -0.004094
-0.000205 -0.097006 -0.004094
-0.000205 -0.097006 -0.004094
-0.000205 -0.097006 -0.004094
-0.000204 -0.096618 -0.004078
-0.000204 -0.096618 -0.004078
-0.000204 -0.096618 -0.004078
-0.058432 -0.556045 -0.236171
-0.089794 -0.801614 -0.339844
-0.100023 -0.879838 -0.354933
-0.110503 -0.960923 -0.367293
-0.120149 -1.033781 -0.372233
-0.686543 -5.444236 -1.962050
-0.742872 -5.874978 -1.967991
-0.815008 -6.418683 -1.988132
-0.898336 -7.045920 -2.007913
-0.993975 -7.775156 -2.025061
-1.111222 -8.657316 -2.042968
-1.262189 -9.793880 -2.075372
-1.462270 -11.300377 -2.124510
-1.654733 -13.220958 -2.167678
-2.004072 -15.947045 -2.237790
-2.513719 -19.949858 -2.326243
-0.000204 -0.096618 -0.004078
-4.687393 -36.910660 -2.572476
-2.850531 -22.451902 -1.038882
-0.000204 -0.096618 -0.004078
-7.995260 -62.452148 0.040878
-8.210797 -64.043205 1.538890
-8.190237 -63.705666 3.032717
-7.284791 -56.516499 4.014810
-7.397338 -57.229687 5.412210
-0.000204 -0.096618 -0.004078
-0.000204 -0.096618 -0.004078
-0.000204 -0.096618 -0.004078
-0.000204 -0.096618 -0.004078
-0.000203 -0.096231 -0.004061
-0.000203 -0.096231 -0.004061
-0.000203 -0.096231 -0.004061
-0.063275 -0.571257 -0.244221
-0.094221 -0.802483 -0.340685
-0.104412 -0.877020 -0.354107
-0.112703 -0.937917 -0.358046
-0.127194 -1.043750 -0.376577
-0.715990 -5.422899 -1.955911
-0.779415 -5.886984 -1.973748
-0.852762 -6.415246 -1.988736
-0.938002 -7.028645 -2.004625
-1.039003 -7.764908 -2.024065
-1.161981 -8.650169 -2.042986
-1.319712 -9.785842 -2.075396
-1.528711 -11.291107 -2.124539
-1.734130 -13.222264 -2.169652
-2.098342 -15.936451 -2.238114
-2.631460 -19.934193 -2.326307
-2.922878 -22.071922 -2.056440
-0.000203 -0.096231 -0.004061
-0.000203 -0.096231 -0.004061
-0.000203 -0.096231 -0.004061
-8.353405 -62.316010 0.040579
-0.000203 -0.096231 -0.004061
-0.000203 -0.096231 -0.004061
-7.613311 -56.426437 4.011356
-7.674209 -56.726650 5.368565
-0.000203 -0.096231 -0.004061
-0.000203 -0.096231 -0.004061
-0.000203 -0.096231 -0.004061
-0.000203 -0.096231 -0.004061
-0.000203 -0.095844 -0.004044
-0.000203 -0.095844 -0.004044
-0.061094 -0.536829 -0.240343
-0.070810 -0.605912 -0.262128
-0.097159 -0.794386 -0.337254
-0.109536 -0.881479 -0.356531
-0.117907 -0.940543 -0.359572
-0.131696 -1.037089 -0.374386
-0.747813 -5.433328 -1.961378
-0.811190 -5.878379 -1.972477
-0.887484 -6.406197 -1.987555
-0.977225 -7.026708 -2.005736
-1.082057 -7.760490 -2.024584
-1.209450 -8.641226 -2.042544
-1.374608 -9.783728 -2.076661
-1.592022 -11.287835 -2.125674
-1.807934 -13.215893 -2.170334
-2.187047 -15.926068 -2.238439
-2.742742 -19.922731 -2.326831
-3.573820 -25.863972 -2.412540
-3.059036 -22.095066 -1.541395
-3.056853 -22.050722 -1.022055
-0.000203 -0.095844 -0.004044
-0.000203 -0.095844 -0.004044
-0.000203 -0.095844 -0.004044
-0.000203 -0.095844 -0.004044
-7.949768 -56.538738 4.022278
-8.369547 -59.367939 5.623308
-0.000203 -0.095844 -0.004044
-0.000203 -0.095844 -0.004044
-0.000203 -0.095844 -0.004044
-0.000203 -0.095844 -0.004044
-0.000202 -0.095457 -0.004028
-0.000202 -0.095457 -0.004028
-0.000202 -0.095457 -0.004028
-0.082791 -0.667041 -0.293479
-0.102083 -0.798784 -0.339803
-0.113784 -0.878629 -0.355705
-0.122926 -0.939453 -0.359559
-0.137829 -1.039607 -0.375826
-0.779077 -5.432264 -1.962748
-0.845475 -5.873068 -1.972484
-0.925749 -6.406110 -1.989348
-1.015439 -7.009157 -2.002449
-1.127515 -7.753550 -2.024599
-1.259200 -8.637574 -2.043482
-1.430386 -9.775275 -2.076685
-1.655007 -11.268373 -2.123859
-1.886589 -13.210406 -2.171340
