# This PCD file was generated using the MATLAB® pcwrite function
# from Computer Vision Toolbox®.
# .PCD v.7 - Point Cloud Data file format
VERSION .7
FIELDS x y z
SIZE 4 4 4
TYPE F F F
COUNT 1 1 1
WIDTH 1613
HEIGHT 1
VIEWPOINT 0 0 0 1 0 0 0
POINTS 1613
DATA ascii
-0.000070 -0.125679 -0.004773
0.201131 -0.672125 -0.332102
0.215797 -0.712289 -0.337285
0.225630 -0.739618 -0.333349
0.244807 -0.792503 -0.341191
0.272991 -0.870064 -0.357980
0.295302 -0.931318 -0.363389
0.333693 -1.037038 -0.383984
1.869107 -5.234929 -1.986160
2.019499 -5.648955 -1.993237
2.196704 -6.140145 -2.004200
2.397045 -6.695786 -2.011711
2.646513 -7.383449 -2.028787
2.947191 -8.216769 -2.046947
3.363785 -9.370500 -2.097919
3.866361 -10.763228 -2.139621
4.611842 -12.643857 -2.199314
5.541762 -15.184151 -2.263147
6.306735 -17.272024 -2.141719
-0.000070 -0.125679 -0.004773
20.054117 -54.764736 -4.086438
-0.000070 -0.125679 -0.004773
-0.000070 -0.125679 -0.004773
25.439837 -69.625977 -0.019592
-0.000070 -0.125679 -0.004773
-0.000070 -0.125679 -0.004773
-0.000070 -0.125679 -0.004773
-0.000070 -0.125679 -0.004773
-0.000070 -0.125679 -0.004773
-0.000070 -0.125679 -0.004773
8.048931 -22.258583 3.859680
7.190847 -19.909803 3.956970
-0.000085 -0.125316 -0.004759
0.197891 -0.672926 -0.332088
0.212926 -0.714830 -0.338209
0.223198 -0.743930 -0.335130
0.242062 -0.796978 -0.342888
0.266222 -0.864373 -0.354709
0.290515 -0.932680 -0.363374
0.328907 -1.040382 -0.384697
1.841556 -5.250538 -1.988196
1.987949 -5.664052 -1.994502
2.157750 -6.143715 -2.001202
2.361123 -6.714524 -2.013349
2.602755 -7.396820 -2.028262
2.902514 -8.238722 -2.048314
3.312473 -9.394856 -2.099149
3.806999 -10.790511 -2.140715
4.540172 -12.678041 -2.200593
5.465714 -15.245239 -2.267587
6.213656 -17.333052 -2.144718
-0.000085 -0.125316 -0.004759
19.919746 -55.380074 -4.123760
-0.000085 -0.125316 -0.004759
-0.000085 -0.125316 -0.004759
25.168369 -70.130447 -0.019628
-0.000085 -0.125316 -0.004759
-0.000085 -0.125316 -0.004759
-0.000085 -0.125316 -0.004759
-0.000085 -0.125316 -0.004759
-0.000085 -0.125316 -0.004759
-0.000085 -0.125316 -0.004759
7.921992 -22.306057 3.860027
7.091823 -20.003580 3.967350
-0.000078 -0.124932 -0.004745
0.191820 -0.665464 -0.327173
0.208926 -0.714016 -0.337255
0.217835 -0.739781 -0.332422
0.236494 -0.792834 -0.340306
0.265013 -0.874124 -0.358764
0.283411 -0.926993 -0.360274
0.322569 -1.038297 -0.383226
1.810767 -5.257128 -1.986811
1.957633 -5.676459 -1.995126
2.126012 -6.160693 -2.002974
2.323771 -6.729451 -2.013884
2.564664 -7.418174 -2.030273
2.863469 -8.276968 -2.053834
3.261301 -9.414681 -2.099548
3.751294 -10.822341 -2.142920
4.473082 -12.718487 -2.203171
5.385161 -15.294764 -2.270354
6.154935 -17.482395 -2.158871
-0.000078 -0.124932 -0.004745
-0.000078 -0.124932 -0.004745
-0.000078 -0.124932 -0.004745
22.094078 -62.639301 -1.557359
-0.000078 -0.124932 -0.004745
-0.000078 -0.124932 -0.004745
-0.000078 -0.124932 -0.004745
-0.000078 -0.124932 -0.004745
-0.000078 -0.124932 -0.004745
-0.000078 -0.124932 -0.004745
31.996555 -91.264977 13.550929
-0.000078 -0.124932 -0.004745
6.978741 -20.036942 3.966262
-0.000071 -0.124549 -0.004730
0.188804 -0.666144 -0.327158
0.206218 -0.716462 -0.338180
0.216166 -0.745669 -0.335100
0.233366 -0.795464 -0.341147
0.259612 -0.871778 -0.357122
0.280730 -0.933430 -0.362573
0.317453 -1.039717 -0.383211
1.782063 -5.266798 -1.986795
1.925971 -5.685146 -1.994469
2.091648 -6.170290 -2.002361
2.284335 -6.734685 -2.011660
2.524523 -7.433837 -2.030762
2.819795 -8.297982 -2.055202
3.213193 -9.443471 -2.102027
3.692121 -10.844617 -2.143273
4.405913 -12.752227 -2.204775
5.308198 -15.346652 -2.273678
6.076217 -17.568630 -2.165355
-0.000071 -0.124549 -0.004730
-0.000071 -0.124549 -0.004730
-0.000071 -0.124549 -0.004730
-0.000071 -0.124549 -0.004730
31.349741 -90.531311 -0.023785
31.343254 -90.614670 2.199561
31.349110 -90.682610 4.445121
31.365936 -90.833618 6.687567
31.368313 -90.891830 8.935573
31.373291 -91.008919 11.219512
31.357943 -91.067406 13.495389
-0.000071 -0.124549 -0.004730
6.861038 -20.056641 3.962584
-0.000068 -0.124161 -0.004715
0.177675 -0.643788 -0.313423
0.200989 -0.712277 -0.335347
0.210734 -0.741492 -0.332393
0.230427 -0.799917 -0.342844
0.255770 -0.874642 -0.357920
0.274138 -0.929458 -0.360244
0.307652 -1.028914 -0.378101
1.753344 -5.282222 -1.988831
1.892578 -5.698215 -1.995092
2.053442 -6.178963 -2.001151
2.248163 -6.756835 -2.014401
2.480455 -7.450561 -2.031251
2.772504 -8.317861 -2.056106
3.158715 -9.469953 -2.103673
3.629085 -10.874033 -2.144736
4.331552 -12.779621 -2.205080
5.223541 -15.394367 -2.276166
6.065728 -17.876560 -2.199024
-0.000068 -0.124161 -0.004715
-0.000068 -0.124161 -0.004715
-0.000068 -0.124161 -0.004715
21.237268 -62.527283 -1.548244
30.775393 -90.605530 -0.023710
30.771048 -90.696426 2.197128
30.790216 -90.856895 4.444430
30.805349 -90.953529 6.682889
30.819702 -91.100212 8.937479
30.834755 -91.249275 11.225826
30.861567 -91.380936 13.514622
-0.000068 -0.124161 -0.004715
6.749846 -20.129452 3.968897
-0.000061 -0.123777 -0.004700
0.174691 -0.644414 -0.313408
0.198717 -0.716401 -0.337211
0.208876 -0.747406 -0.335071
0.224805 -0.795719 -0.340261
0.251887 -0.877508 -0.358719
0.267163 -0.923640 -0.357145
0.301273 -1.026744 -0.376631
1.722105 -5.290383 -1.988130
1.862237 -5.714042 -1.996997
2.022156 -6.201178 -2.004711
2.209365 -6.771513 -2.014935
2.440035 -7.469871 -2.032755
2.723830 -8.333797 -2.056088
3.106273 -9.497445 -2.105736
3.567088 -10.900598 -2.145829
4.257959 -12.802118 -2.204736
5.135351 -15.432236 -2.277261
6.015794 -18.067150 -2.218287
-0.000061 -0.123777 -0.004700
15.946631 -47.797997 -3.529980
-0.000061 -0.123777 -0.004700
20.873714 -62.636810 -1.547923
30.356897 -91.142883 -0.023734
-0.000061 -0.123777 -0.004700
-0.000061 -0.123777 -0.004700
-0.000061 -0.123777 -0.004700
32.766472 -98.768715 9.672042
32.449959 -97.872803 12.019002
32.122280 -96.998848 14.318514
-0.000061 -0.123777 -0.004700
6.643796 -20.195593 3.974468
-0.000076 -0.123415 -0.004686
0.165590 -0.626862 -0.302613
0.193552 -0.712152 -0.334378
0.204623 -0.746551 -0.334158
0.220937 -0.796621 -0.340246
0.244696 -0.869889 -0.354635
0.265853 -0.935362 -0.361757
0.297219 -1.031637 -0.378072
1.693489 -5.303409 -1.989482
1.830592 -5.726103 -1.997621
1.987125 -6.212342 -2.004694
2.171031 -6.783762 -2.014919
2.398291 -7.485258 -2.033244
2.680113 -8.360075 -2.058840
3.055089 -9.517986 -2.106550
3.508063 -10.923711 -2.146552
4.186985 -12.839894 -2.206988
5.052660 -15.478121 -2.279749
5.987372 -18.339930 -2.247541
-0.000076 -0.123415 -0.004686
-0.000076 -0.123415 -0.004686
22.851706 -69.854012 -3.441231
-0.000076 -0.123415 -0.004686
-0.000076 -0.123415 -0.004686
-0.000076 -0.123415 -0.004686
-0.000076 -0.123415 -0.004686
32.431862 -99.555962 7.288018
-0.000076 -0.123415 -0.004686
31.804667 -97.806473 11.988214
31.463997 -96.874840 14.273263
7.299623 -22.583103 3.870508
6.518378 -20.203238 3.968572
-0.000069 -0.123031 -0.004672
0.163860 -0.630708 -0.304558
0.189723 -0.711163 -0.333424
0.201132 -0.747315 -0.334144
0.219284 -0.804376 -0.343655
0.243323 -0.879562 -0.358690
0.260199 -0.932930 -0.360200
0.289698 -1.025870 -0.375146
1.663944 -5.310635 -1.988781
1.797711 -5.734378 -1.996964
1.953768 -6.228765 -2.006465
2.134388 -6.797234 -2.015453
2.357033 -7.502254 -2.034240
2.635253 -8.378246 -2.059744
3.005084 -9.548101 -2.109445
3.447580 -10.948986 -2.147645
4.120139 -12.875857 -2.209241
4.974134 -15.528337 -2.283072
-0.000069 -0.123031 -0.004672
-0.000069 -0.123031 -0.004672
-0.000069 -0.123031 -0.004672
22.591551 -70.383392 -3.461022
-0.000069 -0.123031 -0.004672
-0.000069 -0.123031 -0.004672
-0.000069 -0.123031 -0.004672
-0.000069 -0.123031 -0.004672
31.790915 -99.469124 7.268599
31.463509 -98.564232 9.616538
31.156387 -97.720802 11.955570
30.846148 -96.807129 14.237741
7.185136 -22.671398 3.878628
6.412159 -20.270042 3.974514
-0.000062 -0.122647 -0.004657
0.155663 -0.614655 -0.294744
0.186869 -0.713548 -0.334348
0.196463 -0.744671 -0.332333
0.213709 -0.800095 -0.341073
0.238830 -0.880615 -0.358675
0.255517 -0.934052 -0.360185
0.284510 -1.027130 -0.375130
1.634836 -5.325405 -1.990817
1.766507 -5.747869 -1.998228
1.917428 -6.235896 -2.005256
2.096472 -6.814907 -2.017090
2.314475 -7.515349 -2.034222
2.587370 -8.397090 -2.060650
2.951437 -9.572861 -2.111091
3.382689 -10.967007 -2.147255
4.047214 -12.900884 -2.209545
4.889203 -15.577978 -2.286117
-0.000062 -0.122647 -0.004657
-0.000062 -0.122647 -0.004657
15.194966 -48.301216 -3.547224
22.459787 -71.378929 -3.503547
-0.000062 -0.122647 -0.004657
-0.000062 -0.122647 -0.004657
-0.000062 -0.122647 -0.004657
-0.000062 -0.122647 -0.004657
31.120907 -99.400520 7.250015
30.802660 -98.505569 9.592865
30.522629 -97.670723 11.927798
30.214607 -96.804703 14.210836
-0.000062 -0.122647 -0.004657
6.293705 -20.298729 3.973058
-0.000076 -0.122285 -0.004643
0.148091 -0.600210 -0.285909
0.183874 -0.715964 -0.335273
0.194366 -0.750560 -0.335012
0.209158 -0.799241 -0.340202
0.235015 -0.883332 -0.359474
0.251256 -0.936927 -0.360941
0.279119 -1.028445 -0.375116
1.604285 -5.332567 -1.990116
1.733086 -5.757885 -1.998211
1.879432 -6.241320 -2.003450
2.059582 -6.832011 -2.018728
2.272836 -7.535975 -2.036232
2.540250 -8.413329 -2.061093
2.898092 -9.593080 -2.111905
3.323623 -10.997211 -2.149460
3.973651 -12.931844 -2.210824
4.807745 -15.630083 -2.289719
-0.000076 -0.122285 -0.004643
-0.000076 -0.122285 -0.004643
14.791767 -47.981541 -3.517388
22.182718 -71.983963 -3.526703
-0.000076 -0.122285 -0.004643
29.808098 -96.866226 -0.024556
-0.000076 -0.122285 -0.004643
-0.000076 -0.122285 -0.004643
30.456656 -99.278297 7.228232
30.147943 -98.395378 9.565116
29.855965 -97.564835 11.893069
-0.000076 -0.122285 -0.004643
-0.000076 -0.122285 -0.004643
6.184772 -20.371069 3.980110
-0.000069 -0.121901 -0.004628
0.135204 -0.567313 -0.266294
0.179935 -0.714951 -0.334319
0.188137 -0.742754 -0.330509
0.204726 -0.798334 -0.339331
0.227305 -0.873861 -0.354576
0.246557 -0.937987 -0.360926
0.273913 -1.029644 -0.375101
1.574957 -5.347026 -1.992153
1.702234 -5.772845 -2.000116
1.847467 -6.262628 -2.007010
2.019739 -6.843730 -2.018710
2.231222 -7.552261 -2.037228
2.492118 -8.431615 -2.061998
2.843528 -9.615355 -2.113135
3.261284 -11.023898 -2.150923
3.899240 -12.952250 -2.210479
4.724831 -15.688296 -2.294158
-0.000069 -0.121901 -0.004628
6.516197 -21.630465 -2.105796
14.471111 -47.947788 -3.508538
-0.000069 -0.121901 -0.004628
-0.000069 -0.121901 -0.004628
30.171482 -100.150642 -0.025135
30.189348 -100.272972 2.403388
30.158154 -100.295914 4.853429
29.790766 -99.200874 7.209650
29.498426 -98.352829 9.543856
-0.000069 -0.121901 -0.004628
-0.000069 -0.121901 -0.004628
-0.000069 -0.121901 -0.004628
6.073691 -20.424801 3.983833
-0.000062 -0.121518 -0.004614
0.127102 -0.549340 -0.255499
0.176929 -0.717312 -0.335243
0.184956 -0.745199 -0.331392
0.200830 -0.799122 -0.339316
0.225580 -0.883524 -0.358630
0.242749 -0.942606 -0.362454
0.266557 -1.023695 -0.372175
1.543788 -5.352015 -1.990767
1.668062 -5.776717 -1.998177
1.810445 -6.267301 -2.005204
1.980451 -6.853028 -2.018140
2.188926 -7.566479 -2.037717
2.445864 -8.451056 -2.063364
2.790465 -9.630710 -2.113116
3.202006 -11.047222 -2.152016
3.828106 -12.991802 -2.213380
4.643000 -15.741450 -2.298038
5.824057 -19.739761 -2.398219
6.384496 -21.655010 -2.104468
6.332214 -21.492384 -1.567618
-0.000062 -0.121518 -0.004614
29.513983 -99.920288 -2.441237
29.513884 -100.048080 -0.025017
29.516453 -100.185333 2.397096
29.532711 -100.304688 4.845604
29.157122 -99.157967 7.194268
-0.000062 -0.121518 -0.004614
-0.000062 -0.121518 -0.004614
-0.000062 -0.121518 -0.004614
-0.000062 -0.121518 -0.004614
5.961652 -20.476028 3.987187
-0.000055 -0.121134 -0.004599
-0.000055 -0.121134 -0.004599
0.174578 -0.721312 -0.337107
0.181474 -0.745842 -0.331377
0.197936 -0.803359 -0.341013
0.219782 -0.879144 -0.356174
0.235591 -0.934711 -0.358583
0.261877 -1.026626 -0.372887
1.516098 -5.365614 -1.992803
1.637032 -5.791323 -2.000082
1.775536 -6.279096 -2.005783
1.943346 -6.865466 -2.018675
2.147625 -7.584156 -2.039219
2.399852 -8.466070 -2.063807
2.737825 -9.653752 -2.114761
3.140123 -11.068872 -2.152737
3.760032 -13.025868 -2.215631
4.566209 -15.802895 -2.303313
5.785403 -20.015759 -2.427935
6.224699 -21.554184 -2.091226
6.194417 -21.463802 -1.562976
-0.000055 -0.121134 -0.004599
28.985985 -100.251480 -2.445155
29.012039 -100.406937 -0.024995
29.033772 -100.613297 2.403511
-0.000055 -0.121134 -0.004599
-0.000055 -0.121134 -0.004599
-0.000055 -0.121134 -0.004599
-0.000055 -0.121134 -0.004599
-0.000055 -0.121134 -0.004599
6.515371 -22.820749 3.870656
5.835115 -20.477531 3.980922
-0.000070 -0.120771 -0.004585
-0.000070 -0.120771 -0.004585
0.169664 -0.716839 -0.334275
0.178861 -0.749928 -0.333157
0.192029 -0.797155 -0.337575
0.215281 -0.880057 -0.356159
0.231409 -0.937449 -0.359339
0.256667 -1.027733 -0.372872
1.485993 -5.377739 -1.994155
1.606424 -5.807558 -2.002626
1.742122 -6.296185 -2.008149
1.904865 -6.882044 -2.020312
2.105140 -7.597878 -2.039708
2.351869 -8.485410 -2.065172
2.681720 -9.671357 -2.115159
3.076167 -11.090722 -2.153459
3.684570 -13.043132 -2.214962
4.473621 -15.831240 -2.303569
5.674537 -20.061743 -2.429538
6.131100 -21.694651 -2.101440
-0.000070 -0.120771 -0.004585
14.945292 -52.814278 -2.569523
-0.000070 -0.120771 -0.004585
-0.000070 -0.120771 -0.004585
-0.000070 -0.120771 -0.004585
-0.000070 -0.120771 -0.004585
-0.000070 -0.120771 -0.004585
-0.000070 -0.120771 -0.004585
-0.000070 -0.120771 -0.004585
-0.000070 -0.120771 -0.004585
6.402435 -22.936531 3.883960
5.722032 -20.525560 3.983906
-0.000063 -0.120388 -0.004570
-0.000063 -0.120388 -0.004570
0.168028 -0.724254 -0.338017
0.176552 -0.755775 -0.335836
0.190057 -0.804847 -0.340984
0.209937 -0.877377 -0.354517
0.227043 -0.940218 -0.360096
0.251938 -1.030613 -0.373585
1.455670 -5.385854 -1.994138
1.573140 -5.814512 -2.001968
1.707033 -6.307580 -2.008728
1.865364 -6.890690 -2.019742
2.063051 -7.613249 -2.040704
2.305196 -8.504077 -2.066539
2.629393 -9.689567 -2.115972
3.014851 -11.107358 -2.153439
3.610476 -13.073894 -2.216564
4.384121 -15.860188 -2.304104
5.558247 -20.102335 -2.430443
5.989646 -21.682314 -2.096761
6.043162 -21.889668 -1.588808
14.600335 -52.786144 -2.563869
-0.000063 -0.120388 -0.004570
-0.000063 -0.120388 -0.004570
19.416382 -70.396111 1.673972
-0.000063 -0.120388 -0.004570
-0.000063 -0.120388 -0.004570
-0.000063 -0.120388 -0.004570
-0.000063 -0.120388 -0.004570
-0.000063 -0.120388 -0.004570
-0.000063 -0.120388 -0.004570
5.605453 -20.561600 3.984670
-0.000056 -0.120004 -0.004556
-0.000056 -0.120004 -0.004556
0.165103 -0.726524 -0.338942
0.170662 -0.747747 -0.331332
0.186248 -0.805506 -0.340969
0.206653 -0.881698 -0.356130
0.221998 -0.939296 -0.359309
0.248298 -1.037037 -0.375754
1.428220 -5.400765 -1.996858
1.541309 -5.822837 -2.001951
1.673434 -6.320339 -2.009903
1.829540 -6.908036 -2.021931
2.022193 -7.627998 -2.041699
2.259847 -8.522088 -2.067904
2.577936 -9.711287 -2.117617
2.953446 -11.123644 -2.153419
3.544826 -13.118234 -2.220763
4.302416 -15.906962 -2.307426
5.454378 -20.161451 -2.433903
-0.000056 -0.120004 -0.004556
-0.000056 -0.120004 -0.004556
14.286624 -52.795155 -2.560367
-0.000056 -0.120004 -0.004556
-0.000056 -0.120004 -0.004556
-0.000056 -0.120004 -0.004556
-0.000056 -0.120004 -0.004556
-0.000056 -0.120004 -0.004556
-0.000056 -0.120004 -0.004556
-0.000056 -0.120004 -0.004556
-0.000056 -0.120004 -0.004556
-0.000056 -0.120004 -0.004556
5.494798 -20.605474 3.987284
-0.000053 -0.119616 -0.004541
-0.000053 -0.119616 -0.004541
0.159135 -0.718596 -0.334230
0.165911 -0.744934 -0.329522
0.181130 -0.802752 -0.339242
0.202006 -0.882552 -0.356114
0.216503 -0.938482 -0.358523
0.241266 -1.032747 -0.373555
1.394968 -5.405381 -1.995472
1.507880 -5.837271 -2.003855
1.635050 -6.328207 -2.009289
1.787545 -6.916848 -2.021361
1.978735 -7.649200 -2.044215
2.210964 -8.544750 -2.070193
2.519802 -9.728356 -2.118013
2.888651 -11.150614 -2.155252
3.463319 -13.131643 -2.219443
4.205887 -15.932579 -2.307404
5.351249 -20.266951 -2.442707
5.680943 -21.538406 -2.076231
5.686469 -21.574322 -1.560917
13.958991 -52.859795 -2.559295
-0.000053 -0.119616 -0.004541
-0.000053 -0.119616 -0.004541
-0.000053 -0.119616 -0.004541
-0.000053 -0.119616 -0.004541
-0.000053 -0.119616 -0.004541
-0.000053 -0.119616 -0.004541
-0.000053 -0.119616 -0.004541
-0.000053 -0.119616 -0.004541
-0.000053 -0.119616 -0.004541
5.374539 -20.657288 3.991009
-0.000068 -0.119254 -0.004527
-0.000068 -0.119254 -0.004527
0.154457 -0.713970 -0.331398
0.161969 -0.743742 -0.328609
0.178541 -0.808668 -0.341795
0.197284 -0.881523 -0.355286
0.213312 -0.944662 -0.360822
0.236464 -1.035553 -0.374268
1.365897 -5.414530 -1.996139
1.474939 -5.845470 -2.003838
1.598801 -6.335284 -2.008675
1.750507 -6.930079 -2.022446
1.934872 -7.658205 -2.043689
2.164363 -8.558472 -2.070635
2.464407 -9.742346 -2.117994
2.827993 -11.178117 -2.157455
3.391591 -13.154223 -2.220071
4.120998 -15.968861 -2.309332
5.243135 -20.313454 -2.444773
5.608212 -21.750614 -2.093705
-0.000068 -0.119254 -0.004527
13.641219 -52.847584 -2.554950
-0.000068 -0.119254 -0.004527
-0.000068 -0.119254 -0.004527
-0.000068 -0.119254 -0.004527
-0.000068 -0.119254 -0.004527
-0.000068 -0.119254 -0.004527
-0.000068 -0.119254 -0.004527
-0.000068 -0.119254 -0.004527
-0.000068 -0.119254 -0.004527
-0.000068 -0.119254 -0.004527
5.255693 -20.685608 3.990664
-0.000061 -0.118870 -0.004512
-0.000061 -0.118870 -0.004512
0.149729 -0.709337 -0.328565
0.160129 -0.751215 -0.332185
0.173691 -0.805794 -0.340068
0.193655 -0.885843 -0.356898
0.208106 -0.943708 -0.360036
0.232099 -1.040130 -0.375709
1.334455 -5.422162 -1.996122
1.442842 -5.857185 -2.005102
1.564365 -6.349570 -2.010445
1.709608 -6.938091 -2.021876
1.891407 -7.668859 -2.043671
2.114721 -8.572676 -2.071077
2.407730 -9.758328 -2.118391
2.765192 -11.205750 -2.159659
3.319386 -13.184631 -2.221997
4.027851 -15.996501 -2.309867
5.121858 -20.323689 -2.442424
5.563692 -22.098755 -2.124211
5.482971 -21.811724 -1.573456
13.316769 -52.843540 -2.550979
-0.000061 -0.118870 -0.004512
-0.000061 -0.118870 -0.004512
16.584753 -66.024139 1.560234
-0.000061 -0.118870 -0.004512
-0.000061 -0.118870 -0.004512
-0.000061 -0.118870 -0.004512
-0.000061 -0.118870 -0.004512
-0.000061 -0.118870 -0.004512
5.744125 -23.131575 3.887654
5.132875 -20.698000 3.987361
-0.000054 -0.118486 -0.004498
-0.000054 -0.118486 -0.004498
0.144524 -0.702985 -0.324793
0.156363 -0.751787 -0.332170
0.170170 -0.808157 -0.340909
0.189231 -0.886573 -0.356884
0.202773 -0.942754 -0.359250
0.225467 -1.035637 -0.373510
1.304339 -5.431207 -1.996789
1.409331 -5.863171 -2.004443
1.528894 -6.359969 -2.011024
1.675309 -6.968009 -2.027927
1.851106 -7.692409 -2.047201
2.067841 -8.591903 -2.072904
2.354321 -9.773148 -2.118788
2.708804 -11.243567 -2.164087
3.243213 -13.209476 -2.222950
3.941571 -16.040209 -2.312910
5.003776 -20.361071 -2.443329
5.530024 -22.523476 -2.161976
5.565782 -22.685175 -1.634284
12.978347 -52.818451 -2.545978
-0.000054 -0.118486 -0.004498
-0.000054 -0.118486 -0.004498
16.251041 -66.355980 1.565855
-0.000054 -0.118486 -0.004498
-0.000054 -0.118486 -0.004498
-0.000054 -0.118486 -0.004498
-0.000054 -0.118486 -0.004498
-0.000054 -0.118486 -0.004498
5.609905 -23.139912 3.883794
5.023558 -20.765049 3.994784
-0.000069 -0.118124 -0.004484
-0.000069 -0.118124 -0.004484
0.142924 -0.710263 -0.328535
0.152818 -0.752280 -0.332156
0.164503 -0.801719 -0.337470
0.182678 -0.878384 -0.352799
0.198156 -0.943507 -0.359235
0.219316 -1.032916 -0.372039
1.273705 -5.438268 -1.996772
1.377107 -5.874497 -2.005707
1.493811 -6.372006 -2.012198
1.634065 -6.969671 -2.025702
1.807001 -7.700691 -2.046675
2.019903 -8.607083 -2.073808
2.297457 -9.788461 -2.119184
2.641819 -11.255258 -2.163325
3.169575 -13.225101 -2.222604
3.850742 -16.066114 -2.313444
4.889243 -20.382534 -2.442606
5.490169 -22.907900 -2.196018
5.525759 -23.090868 -1.661258
-0.000069 -0.118124 -0.004484
18.532492 -77.341713 -1.863501
-0.000069 -0.118124 -0.004484
15.847818 -66.307259 1.562637
-0.000069 -0.118124 -0.004484
-0.000069 -0.118124 -0.004484
-0.000069 -0.118124 -0.004484
-0.000069 -0.118124 -0.004484
-0.000069 -0.118124 -0.004484
-0.000069 -0.118124 -0.004484
4.914108 -20.833406 4.002579
-0.000062 -0.117740 -0.004469
-0.000062 -0.117740 -0.004469
0.137370 -0.702146 -0.323824
0.149479 -0.754521 -0.333038
0.161268 -0.805827 -0.339168
0.180377 -0.887943 -0.356854
0.193263 -0.944284 -0.359220
0.215574 -1.041086 -0.374936
1.243467 -5.446971 -1.997439
1.343336 -5.884054 -2.006330
1.457975 -6.385959 -2.013968
1.594563 -6.978606 -2.025684
1.762853 -7.714669 -2.047670
1.971841 -8.622007 -2.074713
2.241266 -9.799265 -2.118748
2.579407 -11.277568 -2.164787
3.093566 -13.250975 -2.223881
3.758838 -16.087641 -2.313421
4.773473 -20.430136 -2.444903
5.406694 -23.160713 -2.217213
-0.000062 -0.117740 -0.004469
-0.000062 -0.117740 -0.004469
-0.000062 -0.117740 -0.004469
-0.000062 -0.117740 -0.004469
15.685426 -67.388962 1.586076
-0.000062 -0.117740 -0.004469
-0.000062 -0.117740 -0.004469
-0.000062 -0.117740 -0.004469
-0.000062 -0.117740 -0.004469
-0.000062 -0.117740 -0.004469
-0.000062 -0.117740 -0.004469
4.777393 -20.802458 3.991137
-0.000055 -0.117357 -0.004454
-0.000055 -0.117357 -0.004454
0.130851 -0.688779 -0.316295
0.143408 -0.744551 -0.327637
0.158091 -0.809908 -0.340865
0.175521 -0.886822 -0.356025
0.187683 -0.941405 -0.357663
0.209841 -1.040117 -0.374193
1.213177 -5.455493 -1.998105
1.311797 -5.898693 -2.008874
1.421437 -6.392004 -2.013354
1.555881 -6.991039 -2.026768
1.720785 -7.731859 -2.049679
1.922415 -8.630934 -2.074231
2.186772 -9.817351 -2.119976
2.516820 -11.299527 -2.166249
3.019629 -13.275905 -2.225157
3.665909 -16.104794 -2.312840
4.658614 -20.466606 -2.446040
6.666694 -29.284695 -2.801551
-0.000055 -0.117357 -0.004454
-0.000055 -0.117357 -0.004454
-0.000055 -0.117357 -0.004454
-0.000055 -0.117357 -0.004454
-0.000055 -0.117357 -0.004454
-0.000055 -0.117357 -0.004454
-0.000055 -0.117357 -0.004454
-0.000055 -0.117357 -0.004454
-0.000055 -0.117357 -0.004454
-0.000055 -0.117357 -0.004454
-0.000055 -0.117357 -0.004454
-0.000055 -0.117357 -0.004454
-0.000048 -0.116973 -0.004440
-0.000048 -0.116973 -0.004440
0.121805 -0.663283 -0.302191
0.142126 -0.755456 -0.333009
0.153711 -0.808662 -0.339994
0.170964 -0.887461 -0.356010
0.182123 -0.938504 -0.356106
0.204119 -1.039116 -0.373450
1.183098 -5.469565 -2.000825
1.279295 -5.909476 -2.010138
1.384846 -6.397865 -2.012740
1.514655 -6.997894 -2.026198
1.675651 -7.735602 -2.048140
1.873100 -8.647532 -2.075597
2.131261 -9.839341 -2.122037
2.451271 -11.317719 -2.166969
2.944661 -13.296547 -2.225784
3.574411 -16.141365 -2.315046
4.548679 -20.525690 -2.449963
6.337705 -28.599138 -2.732268
12.058364 -54.397190 -3.903216
-0.000048 -0.116973 -0.004440
-0.000048 -0.116973 -0.004440
-0.000048 -0.116973 -0.004440
-0.000048 -0.116973 -0.004440
14.682803 -66.648621 3.159904
-0.000048 -0.116973 -0.004440
-0.000048 -0.116973 -0.004440
-0.000048 -0.116973 -0.004440
-0.000048 -0.116973 -0.004440
-0.000048 -0.116973 -0.004440
4.548497 -20.899513 3.999698
-0.000062 -0.116610 -0.004426
-0.000062 -0.116610 -0.004426
0.111070 -0.629114 -0.283391
0.138333 -0.755913 -0.332994
0.149235 -0.807406 -0.339123
0.166508 -0.888072 -0.355995
0.178419 -0.944598 -0.358404
0.198633 -1.039945 -0.373436
1.150665 -5.468570 -1.998070
1.244094 -5.912895 -2.008839
1.348766 -6.411180 -2.014510
1.475394 -7.008015 -2.026731
1.632831 -7.756394 -2.051162
1.825175 -8.663495 -2.076961
2.073599 -9.843425 -2.120352
2.386712 -11.331285 -2.166948
2.868921 -13.324978 -2.227710
3.483755 -16.169039 -2.316137
4.427494 -20.551950 -2.449937
6.119332 -28.408150 -2.710456
11.970155 -55.504780 -3.977733
-0.000062 -0.116610 -0.004426
14.947095 -69.513718 -1.666007
14.822149 -68.991753 -0.017753
-0.000062 -0.116610 -0.004426
14.358559 -67.064346 3.175638
-0.000062 -0.116610 -0.004426
-0.000062 -0.116610 -0.004426
-0.000062 -0.116610 -0.004426
-0.000062 -0.116610 -0.004426
-0.000062 -0.116610 -0.004426
4.424288 -20.921907 3.998985
-0.000055 -0.116227 -0.004411
-0.000055 -0.116227 -0.004411
0.104847 -0.613811 -0.274922
0.135028 -0.758060 -0.333877
0.145992 -0.811420 -0.340820
0.162824 -0.892207 -0.357608
0.174412 -0.948841 -0.359931
0.194084 -1.044335 -0.374876
1.120586 -5.478416 -1.999422
1.209918 -5.915876 -2.007540
1.315211 -6.431556 -2.018665
1.437236 -7.023559 -2.028920
1.588798 -7.765300 -2.051143
1.777882 -8.683031 -2.079250
2.019136 -9.862489 -2.121997
2.322886 -11.348311 -2.167668
2.795240 -13.352499 -2.229636
3.394113 -16.202023 -2.318064
4.310957 -20.582561 -2.450608
5.965700 -28.487381 -2.714707
-0.000055 -0.116227 -0.004411
-0.000055 -0.116227 -0.004411
11.633968 -55.683846 -1.333212
-0.000055 -0.116227 -0.004411
13.597536 -65.232002 1.527444
-0.000055 -0.116227 -0.004411
16.335190 -78.546593 5.582486
-0.000055 -0.116227 -0.004411
-0.000055 -0.116227 -0.004411
-0.000055 -0.116227 -0.004411
-0.000055 -0.116227 -0.004411
4.315141 -20.998629 4.009000
-0.000048 -0.115843 -0.004396
-0.000048 -0.115843 -0.004396
0.092756 -0.569067 -0.250487
0.130598 -0.754963 -0.332067
0.141983 -0.811876 -0.340805
0.156391 -0.883834 -0.353524
0.168501 -0.944039 -0.357603
0.187258 -1.037752 -0.371949
1.088015 -5.480897 -1.998035
1.176114 -5.920521 -2.006881
1.277298 -6.431168 -2.016262
1.396609 -7.033469 -2.029453
1.544722 -7.773944 -2.051124
1.726629 -8.691148 -2.078769
1.962424 -9.879674 -2.123225
2.255410 -11.357678 -2.166906
2.722931 -13.387331 -2.232859
3.298991 -16.223450 -2.318319
4.197801 -20.630020 -2.453369
5.836474 -28.688681 -2.730685
5.928476 -29.190735 -2.084952
-0.000048 -0.115843 -0.004396
11.296599 -55.665310 -1.331153
-0.000048 -0.115843 -0.004396
-0.000048 -0.115843 -0.004396
13.776791 -68.164398 3.220287
14.997659 -74.327667 5.275609
-0.000048 -0.115843 -0.004396
-0.000048 -0.115843 -0.004396
-0.000048 -0.115843 -0.004396
-0.000048 -0.115843 -0.004396
4.188222 -20.990005 4.002738
-0.000063 -0.115481 -0.004382
-0.000063 -0.115481 -0.004382
-0.000063 -0.115481 -0.004382
0.127155 -0.757100 -0.332950
0.137847 -0.812334 -0.340791
0.152189 -0.886160 -0.354323
0.162167 -0.937393 -0.354503
0.182853 -1.043965 -0.374118
1.058335 -5.497946 -2.002124
1.144203 -5.940036 -2.011348
1.239432 -6.436388 -2.015648
1.356636 -7.046926 -2.031089
1.499625 -7.784496 -2.051612
1.675719 -8.700861 -2.078749
1.904075 -9.888854 -2.122788
2.189793 -11.376270 -2.167997
2.646447 -13.414487 -2.234784
3.203736 -16.244310 -2.318573
4.078703 -20.667831 -2.454968
5.158777 -26.157658 -2.486229
5.708255 -28.984278 -2.067714
10.933000 -55.458088 -2.645708
10.952481 -55.658398 -1.329373
13.307671 -67.726250 -0.017296
12.878046 -65.603569 1.532663
14.456763 -73.767128 3.481739
14.452714 -73.882408 5.237823
-0.000063 -0.115481 -0.004382
14.880834 -76.278236 9.055934
-0.000063 -0.115481 -0.004382
-0.000063 -0.115481 -0.004382
4.070292 -21.044979 4.008684
-0.000060 -0.115093 -0.004367
-0.000060 -0.115093 -0.004367
-0.000060 -0.115093 -0.004367
0.122213 -0.750401 -0.329344
0.132607 -0.805589 -0.337351
0.148020 -0.886584 -0.354307
0.159312 -0.946961 -0.358344
0.176978 -1.040915 -0.372647
1.028847 -5.501361 -2.001421
1.110602 -5.940356 -2.009407
1.204112 -6.442826 -2.015629
1.318766 -7.051880 -2.030518
1.456765 -7.792374 -2.051592
1.630698 -8.717062 -2.080575
1.851895 -9.902473 -2.123600
2.129936 -11.393356 -2.169087
-0.000060 -0.115093 -0.004367
3.119059 -16.274633 -2.320500
3.967239 -20.707460 -2.457031
5.100114 -26.637403 -2.529200
5.527146 -28.885036 -2.058449
10.610966 -55.451176 -2.642478
10.626325 -55.635841 -1.327359
-0.000060 -0.115093 -0.004367
12.533489 -65.786011 1.535343
-0.000060 -0.115093 -0.004367
14.041846 -73.898369 5.233569
14.504762 -76.475510 7.232447
14.432309 -76.238762 9.041614
-0.000060 -0.115093 -0.004367
-0.000060 -0.115093 -0.004367
3.953357 -21.066988 4.008712
-0.000053 -0.114709 -0.004353
-0.000053 -0.114709 -0.004353
-0.000053 -0.114709 -0.004353
0.119548 -0.755975 -0.332022
0.129285 -0.809523 -0.339048
0.143441 -0.887071 -0.354292
0.154517 -0.947489 -0.358329
0.171972 -1.043384 -0.373360
0.996177 -5.503306 -2.000035
1.077019 -5.946295 -2.009389
1.167292 -6.447412 -2.015015
1.277587 -7.059201 -2.030499
1.413229 -7.804061 -2.052587
1.580683 -8.731950 -2.081939
1.793083 -9.909064 -2.122747
2.064374 -11.413169 -2.170548
2.495404 -13.442902 -2.234739
3.023106 -16.292488 -2.320475
3.849665 -20.735455 -2.457701
5.024979 -27.082928 -2.568820
5.336274 -28.809065 -2.050723
5.511133 -29.778036 -1.416977
5.511158 -29.835772 -0.711783
5.504485 -29.857637 -0.009985
5.509148 -29.911644 0.693525
5.505528 -29.950285 1.404831
5.504361 -30.002251 2.115051
5.500145 -30.037819 2.828390
5.506962 -30.104147 3.555567
5.502993 -30.141390 4.280116
5.501575 -30.192705 5.013423
3.834755 -21.100622 4.010959
-0.000046 -0.114325 -0.004338
-0.000046 -0.114325 -0.004338
-0.000046 -0.114325 -0.004338
0.115745 -0.756292 -0.332007
0.124839 -0.808123 -0.338177
0.139318 -0.889302 -0.355091
0.150219 -0.951653 -0.359856
0.164821 -1.034838 -0.369706
0.966440 -5.515986 -2.002754
1.041398 -5.946610 -2.007449
1.131040 -6.461362 -2.017380
1.237219 -7.064188 -2.029929
1.367921 -7.813833 -2.053074
1.530345 -8.736703 -2.080996
1.738011 -9.926555 -2.124391
1.998936 -11.422548 -2.170156
2.418736 -13.470688 -2.236988
2.933062 -16.326788 -2.322959
3.728645 -20.765381 -2.458603
4.950666 -27.588127 -2.614024
5.198835 -28.994083 -2.061741
5.380578 -30.063505 -1.429010
9.947116 -55.592190 -1.323376
-0.000046 -0.114325 -0.004338
12.098309 -67.793243 1.579111
-0.000046 -0.114325 -0.004338
13.143147 -73.860344 5.219776
-0.000046 -0.114325 -0.004338
13.529794 -76.336990 9.034085
-0.000046 -0.114325 -0.004338
-0.000046 -0.114325 -0.004338
3.711180 -21.128447 4.012096
-0.000039 -0.113942 -0.004323
-0.000039 -0.113942 -0.004323
-0.000039 -0.113942 -0.004323
0.113889 -0.767135 -0.337378
0.120838 -0.808457 -0.338162
0.133280 -0.880723 -0.351007
0.144440 -0.946681 -0.357528
0.161102 -1.044577 -0.373330
0.935322 -5.521077 -2.002736
1.007791 -5.952134 -2.007431
1.095116 -6.471156 -2.018554
1.198144 -7.076512 -2.031565
1.323545 -7.821217 -2.053055
1.481647 -8.750752 -2.082361
1.681137 -9.934100 -2.123954
1.933771 -11.433500 -2.170134
2.344491 -13.499576 -2.239562
2.840326 -16.346933 -2.323492
3.612052 -20.799820 -2.460202
-0.000039 -0.113942 -0.004323
5.057059 -29.164686 -2.071780
5.351631 -30.920309 -1.468262
9.617860 -55.593033 -1.322017
-0.000039 -0.113942 -0.004323
11.648397 -67.514664 1.571062
-0.000039 -0.113942 -0.004323
12.723968 -73.967857 5.222202
13.202696 -76.906242 7.250620
13.356627 -77.963928 9.217841
-0.000039 -0.113942 -0.004323
-0.000039 -0.113942 -0.004323
3.589116 -21.143269 4.011014
-0.000054 -0.113579 -0.004309
-0.000054 -0.113579 -0.004309
-0.000054 -0.113579 -0.004309
0.110124 -0.767404 -0.337363
0.116845 -0.808756 -0.338147
0.129778 -0.886497 -0.353434
0.139643 -0.947121 -0.357513
0.155132 -1.041431 -0.371859
0.905410 -5.533406 -2.005456
0.975078 -5.963078 -2.009335
1.057852 -6.473220 -2.017344
1.158972 -7.088607 -2.033201
1.280400 -7.835968 -2.055063
1.432500 -8.762621 -2.083264
1.624233 -9.941311 -2.123517
1.869829 -11.451825 -2.171595
2.267697 -13.514420 -2.239864
2.747114 -16.364605 -2.323745
3.491842 -20.814049 -2.459477
4.790554 -28.573376 -2.702196
-0.000054 -0.113579 -0.004309
5.148008 -30.794584 -1.460838
-0.000054 -0.113579 -0.004309
12.899199 -77.236275 -0.018722
11.267603 -67.625595 1.572180
-0.000054 -0.113579 -0.004309
-0.000054 -0.113579 -0.004309
12.570417 -75.837280 7.142771
12.890211 -77.931389 9.205149
-0.000054 -0.113579 -0.004309
-0.000054 -0.113579 -0.004309
3.468906 -21.169027 4.012153
-0.000047 -0.113196 -0.004295
-0.000047 -0.113196 -0.004295
-0.000047 -0.113196 -0.004295
0.106072 -0.765885 -0.336451
0.113124 -0.810829 -0.338989
0.125601 -0.888674 -0.354233
0.133674 -0.940236 -0.354413
0.150376 -1.045613 -0.373300
0.873872 -5.536307 -2.004754
0.941671 -5.970092 -2.009957
1.022111 -6.484488 -2.019113
1.120308 -7.104275 -2.035940
1.236828 -7.848562 -2.056563
1.383278 -8.774195 -2.084167
1.568215 -9.953995 -2.124329
1.804190 -11.460088 -2.171202
2.192066 -13.536623 -2.241463
2.655711 -16.393456 -2.325671
3.374801 -20.847166 -2.461076
4.635509 -28.655149 -2.707375
5.168122 -31.969469 -2.266985
4.936419 -30.608389 -1.450609
15.337366 -95.070190 -2.255167
-0.000047 -0.113196 -0.004295
11.324459 -70.458595 1.636852
-0.000047 -0.113196 -0.004295
-0.000047 -0.113196 -0.004295
12.078391 -75.559998 7.110017
-0.000047 -0.113196 -0.004295
-0.000047 -0.113196 -0.004295
-0.000047 -0.113196 -0.004295
3.350361 -21.205750 4.015510
-0.000040 -0.112812 -0.004280
-0.000040 -0.112812 -0.004280
-0.000040 -0.112812 -0.004280
0.100081 -0.752000 -0.329254
0.109382 -0.812881 -0.339830
0.121009 -0.889018 -0.354218
0.129766 -0.946081 -0.356711
0.145009 -1.046083 -0.373284
0.841389 -5.539163 -2.004051
0.908797 -5.980655 -2.011860
0.985706 -6.491765 -2.019690
1.079092 -7.112328 -2.036473
1.191952 -7.853278 -2.056037
1.332745 -8.787644 -2.085531
1.510383 -9.966622 -2.125140
1.737704 -11.476060 -2.172293
2.115326 -13.552556 -2.242090
2.559671 -16.412468 -2.326203
3.257488 -20.879616 -2.462674
4.471048 -28.681000 -2.707342
5.015018 -32.229832 -2.283315
4.747159 -30.549086 -1.446459
-0.000040 -0.112812 -0.004280
-0.000040 -0.112812 -0.004280
-0.000040 -0.112812 -0.004280
-0.000040 -0.112812 -0.004280
-0.000040 -0.112812 -0.004280
-0.000040 -0.112812 -0.004280
-0.000040 -0.112812 -0.004280
-0.000040 -0.112812 -0.004280
-0.000040 -0.112812 -0.004280
3.233581 -21.255411 4.021458
-0.000055 -0.112449 -0.004266
-0.000055 -0.112449 -0.004266
-0.000055 -0.112449 -0.004266
0.095494 -0.746898 -0.326546
0.104692 -0.809562 -0.338103
0.116523 -0.889338 -0.354203
0.124271 -0.942811 -0.355154
0.139184 -1.044717 -0.372542
0.810395 -5.545406 -2.004717
0.873975 -5.985555 -2.011842
0.947542 -6.495250 -2.019076
1.037078 -7.106632 -2.033144
1.145719 -7.857923 -2.055511
1.282208 -8.790936 -2.084587
1.453897 -9.976712 -2.125535
1.672241 -11.485493 -2.172270
2.036433 -13.570340 -2.243040
2.466921 -16.434410 -2.327293
3.135389 -20.906057 -2.463574
4.305296 -28.732254 -2.709728
4.819581 -32.188759 -2.278384
4.770828 -31.939598 -1.510960
-0.000055 -0.112449 -0.004266
-0.000055 -0.112449 -0.004266
-0.000055 -0.112449 -0.004266
11.211039 -75.529488 3.537452
-0.000055 -0.112449 -0.004266
11.269198 -76.193703 7.157056
-0.000055 -0.112449 -0.004266
-0.000055 -0.112449 -0.004266
-0.000055 -0.112449 -0.004266
3.105505 -21.256342 4.018157
-0.000048 -0.112066 -0.004251
-0.000048 -0.112066 -0.004251
-0.000048 -0.112066 -0.004251
0.085951 -0.706379 -0.305884
0.101714 -0.816928 -0.341512
0.112327 -0.891409 -0.355001
0.120278 -0.948612 -0.357452
0.133806 -1.045132 -0.372527
0.779354 -5.551470 -2.005384
0.839318 -5.984500 -2.009902
0.911855 -6.507774 -2.021441
0.996782 -7.112110 -2.033124
1.101912 -7.869757 -2.057011
1.233280 -8.805523 -2.086413
1.397867 -9.990373 -2.126763
1.608905 -11.510131 -2.175214
1.959181 -13.583414 -2.243340
2.374019 -16.455809 -2.328383
3.017009 -20.933222 -2.464708
4.140122 -28.754213 -2.709508
4.667826 -32.444672 -2.294574
4.581748 -31.926626 -1.509054
-0.000048 -0.112066 -0.004251
-0.000048 -0.112066 -0.004251
-0.000048 -0.112066 -0.004251
-0.000048 -0.112066 -0.004251
10.857049 -76.251060 5.359722
-0.000048 -0.112066 -0.004251
-0.000048 -0.112066 -0.004251
-0.000048 -0.112066 -0.004251
-0.000048 -0.112066 -0.004251
2.984246 -21.277376 4.018926
-0.000041 -0.111682 -0.004237
-0.000041 -0.111682 -0.004237
-0.000041 -0.111682 -0.004237
0.067297 -0.596726 -0.250210
0.096898 -0.811765 -0.338929
0.107082 -0.886241 -0.352545
0.115200 -0.947092 -0.356666
0.127419 -1.038124 -0.369600
0.748790 -5.561069 -2.007418
0.805991 -5.992621 -2.011165
0.874735 -6.510663 -2.020827
0.957748 -7.126882 -2.035863
1.057215 -7.875598 -2.056992
1.182410 -8.806314 -2.085008
1.340424 -9.994005 -2.125909
1.544278 -11.526630 -2.176674
1.881817 -13.596071 -2.243642
2.276847 -16.447252 -2.325291
2.898403 -20.959721 -2.465841
3.977820 -28.796940 -2.711335
4.666830 -33.808556 -2.389232
4.757658 -34.552547 -1.631914
-0.000041 -0.111682 -0.004237
11.376305 -82.782616 -0.019343
-0.000041 -0.111682 -0.004237
10.389308 -76.001228 3.553916
7.568646 -55.468941 3.892572
-0.000041 -0.111682 -0.004237
-0.000041 -0.111682 -0.004237
-0.000041 -0.111682 -0.004237
-0.000041 -0.111682 -0.004237
2.870733 -21.356152 4.030793
-0.000034 -0.111298 -0.004222
-0.000034 -0.111298 -0.004222
-0.000034 -0.111298 -0.004222
0.060721 -0.568396 -0.235833
0.092864 -0.811935 -0.338914
0.103445 -0.893727 -0.355785
0.110377 -0.947375 -0.356651
0.122814 -1.044004 -0.371768
0.715690 -5.559466 -2.005347
0.771626 -5.993020 -2.009865
0.838863 -6.522782 -2.023192
0.915840 -7.130175 -2.035292
1.012985 -7.885016 -2.057985
1.130801 -8.812798 -2.084988
1.282281 -10.005273 -2.126720
1.478524 -11.550817 -2.179617
1.805175 -13.614129 -2.244916
2.180132 -16.462067 -2.325544
2.779347 -20.983555 -2.466741
3.817267 -28.854528 -2.714652
4.589666 -34.762878 -2.454794
4.552689 -34.529476 -1.629538
11.652995 -88.443588 -2.088883
-0.000034 -0.111298 -0.004222
-0.000034 -0.111298 -0.004222
-0.000034 -0.111298 -0.004222
7.155232 -54.863602 3.846983
-0.000034 -0.111298 -0.004222
-0.000034 -0.111298 -0.004222
-0.000034 -0.111298 -0.004222
-0.000034 -0.111298 -0.004222
2.747814 -21.368074 4.030082
-0.000049 -0.110936 -0.004208
-0.000049 -0.110936 -0.004208
-0.000049 -0.110936 -0.004208
0.057570 -0.564813 -0.234022
0.088699 -0.812103 -0.338899
0.097887 -0.886699 -0.352515
0.105432 -0.947621 -0.356636
0.117985 -1.049874 -0.373937
0.683122 -5.561368 -2.004644
0.736705 -5.997125 -2.009846
0.800804 -6.527270 -2.023173
0.874183 -7.135100 -2.035273
0.966837 -7.890516 -2.057965
1.078665 -8.815120 -2.084044
1.223782 -10.014279 -2.127115
1.411591 -11.566804 -2.181077
1.725279 -13.626176 -2.245217
2.082077 -16.466475 -2.324403
2.656933 -21.011143 -2.468106
3.646884 -28.878281 -2.714803
4.291881 -34.060726 -2.403282
4.453456 -35.387993 -1.668780
11.045970 -87.854179 -2.073322
-0.000049 -0.110936 -0.004208
10.420838 -83.238052 1.925809
9.610766 -76.993004 3.595073
6.970387 -56.029278 3.926076
6.938312 -55.930042 5.233343
-0.000049 -0.110936 -0.004208
-0.000049 -0.110936 -0.004208
-0.000049 -0.110936 -0.004208
2.616128 -21.338739 4.021603
-0.000046 -0.110548 -0.004193
-0.000046 -0.110548 -0.004193
-0.000046 -0.110548 -0.004193
0.056537 -0.577165 -0.240291
0.085007 -0.813988 -0.339740
0.093764 -0.888670 -0.353313
0.099866 -0.940493 -0.353536
0.110959 -1.035341 -0.368099
0.653335 -5.570319 -2.006679
0.703603 -5.998874 -2.009187
0.764715 -6.529379 -2.022558
0.834926 -7.139503 -2.035253
0.923129 -7.893505 -2.057439
1.030273 -8.822548 -2.084485
1.168904 -10.024467 -2.127925
1.348270 -11.579988 -2.182166
1.650010 -13.637175 -2.245517
1.993080 -16.497133 -2.327164
2.542561 -21.044991 -2.470399
3.492163 -28.947226 -2.719422
4.461216 -37.056831 -2.613189
4.303249 -35.800690 -1.687071
-0.000046 -0.110548 -0.004193
-0.000046 -0.110548 -0.004193
-0.000046 -0.110548 -0.004193
-0.000046 -0.110548 -0.004193
6.651176 -56.009476 3.922095
6.421196 -54.237213 5.071148
-0.000046 -0.110548 -0.004193
-0.000046 -0.110548 -0.004193
-0.000046 -0.110548 -0.004193
2.509002 -21.450247 4.040130
-0.000039 -0.110164 -0.004179
-0.000039 -0.110164 -0.004179
-0.000039 -0.110164 -0.004179
0.054388 -0.582435 -0.242969
0.080626 -0.812307 -0.338869
0.089281 -0.888820 -0.353298
0.095768 -0.948037 -0.356606
0.099976 -0.987491 -0.349161
0.099431 -0.984020 -0.324466
0.669716 -6.011984 -2.012371
0.727040 -6.537223 -2.023731
0.794649 -7.145725 -2.035785
0.877813 -7.906142 -2.059446
0.980298 -8.829894 -2.084925
1.111135 -10.024825 -2.126655
1.281752 -11.583282 -2.181402
1.569944 -13.648310 -2.245817
1.898680 -16.507957 -2.327138
2.418752 -21.063278 -2.470834
3.316203 -28.925528 -2.715478
4.236736 -36.980457 -2.606015
4.224422 -36.986336 -1.741742
-0.000039 -0.110164 -0.004179
-0.000039 -0.110164 -0.004179
9.401463 -82.813416 1.913473
-0.000039 -0.110164 -0.004179
-0.000039 -0.110164 -0.004179
5.914066 -52.541424 4.908951
-0.000039 -0.110164 -0.004179
-0.000039 -0.110164 -0.004179
-0.000039 -0.110164 -0.004179
2.385169 -21.489773 4.044970
-0.000032 -0.109781 -0.004164
-0.000032 -0.109781 -0.004164
-0.000032 -0.109781 -0.004164
0.051472 -0.580589 -0.242057
0.076785 -0.814172 -0.339709
0.084806 -0.888934 -0.353283
0.089749 -0.937188 -0.351964
0.093531 -0.974699 -0.344051
0.092980 -0.971128 -0.319661
0.636928 -6.026670 -2.016195
0.690640 -6.546606 -2.025500
0.754125 -7.149799 -2.035765
0.832261 -7.904941 -2.057905
0.930056 -8.835025 -2.084905
1.054019 -10.030680 -2.126633
1.216290 -11.595947 -2.182491
1.492362 -13.660693 -2.246443
1.804848 -16.524158 -2.327948
2.297596 -21.072542 -2.470340
3.152568 -28.965549 -2.717490
4.109130 -37.781330 -2.660801
3.998573 -36.886543 -1.735903
9.664098 -89.283104 -2.102559
8.982200 -83.125267 -0.018986
-0.000032 -0.109781 -0.004164
-0.000032 -0.109781 -0.004164
-0.000032 -0.109781 -0.004164
5.598243 -52.445518 4.896950
-0.000032 -0.109781 -0.004164
-0.000032 -0.109781 -0.004164
-0.000032 -0.109781 -0.004164
2.261596 -21.498859 4.044260
-0.000046 -0.109418 -0.004150
-0.000046 -0.109418 -0.004150
-0.000046 -0.109418 -0.004150
0.048015 -0.573397 -0.238451
0.073274 -0.819630 -0.342263
0.080170 -0.889058 -0.353268
0.085743 -0.944651 -0.355033
0.086086 -0.950751 -0.334574
0.086344 -0.956328 -0.314171
0.603404 -6.035531 -2.018099
0.652767 -6.542520 -2.023097
0.712910 -7.159519 -2.037401
0.787357 -7.909224 -2.057885
0.878262 -8.840016 -2.084884
0.995334 -10.038322 -2.127028
1.148113 -11.602583 -2.182468
1.415313 -13.678504 -2.248042
1.708030 -16.540115 -2.328757
2.176020 -21.077135 -2.469381
2.971372 -28.838255 -2.703866
3.955264 -38.481434 -2.708454
3.911866 -38.124817 -1.793095
-0.000046 -0.109418 -0.004150
8.459345 -82.882263 -0.018858
-0.000046 -0.109418 -0.004150
8.596083 -84.655899 3.943868
5.888453 -58.225933 4.070187
5.284199 -52.443760 4.893851
-0.000046 -0.109418 -0.004150
-0.000046 -0.109418 -0.004150
-0.000046 -0.109418 -0.004150
-0.000046 -0.109418 -0.004150
-0.000039 -0.109035 -0.004135
-0.000039 -0.109035 -0.004135
-0.000039 -0.109035 -0.004135
0.045625 -0.576838 -0.240231
0.069894 -0.826849 -0.345671
0.076730 -0.900048 -0.358136
0.079548 -0.931905 -0.349620
0.079433 -0.932329 -0.327281
0.080217 -0.943329 -0.309365
0.082885 -0.972818 -0.297515
0.616082 -6.549586 -2.024269
0.672653 -7.166965 -2.038485
0.743350 -7.922872 -2.060399
0.828696 -8.852305 -2.086709
0.940414 -10.049197 -2.128254
1.084078 -11.610410 -2.182816
1.334386 -13.682357 -2.247368
1.613962 -16.555208 -2.329567
2.050391 -21.077454 -2.467958
2.800454 -28.851048 -2.703459
4.076061 -42.017937 -2.955971
3.800108 -39.322178 -1.848322
-0.000039 -0.109035 -0.004135
-0.000039 -0.109035 -0.004135
-0.000039 -0.109035 -0.004135
6.255290 -65.365196 3.041410
5.636716 -59.128441 4.131196
5.484142 -57.636234 5.376957
4.921991 -51.930168 6.073931
-0.000039 -0.109035 -0.004135
-0.000039 -0.109035 -0.004135
-0.000039 -0.109035 -0.004135
-0.000032 -0.108651 -0.004121
-0.000032 -0.108651 -0.004121
-0.000032 -0.108651 -0.004121
0.043659 -0.583836 -0.243808
0.065920 -0.828666 -0.346512
0.071676 -0.894640 -0.355680
0.074121 -0.922764 -0.345749
0.073185 -0.915690 -0.320716
0.073369 -0.920953 -0.301137
0.076724 -0.959689 -0.293016
0.579151 -6.554549 -2.024846
0.632335 -7.174175 -2.039568
0.698660 -7.930519 -2.061393
0.777983 -8.852678 -2.085765
0.880892 -10.048385 -2.126984
1.015635 -11.614309 -2.182422
1.260201 -13.706906 -2.250265
1.520113 -16.573725 -2.330934
1.931975 -21.074358 -2.466302
-0.000032 -0.108651 -0.004121
3.845708 -42.161537 -2.964457
3.654224 -40.144218 -1.885967
-0.000032 -0.108651 -0.004121
-0.000032 -0.108651 -0.004121
-0.000032 -0.108651 -0.004121
5.702152 -63.431862 2.949677
4.904235 -54.783775 3.824818
4.863400 -54.541405 5.084769
4.625064 -51.975071 6.076072
-0.000032 -0.108651 -0.004121
-0.000032 -0.108651 -0.004121
1.891563 -21.531643 4.043980
-0.000047 -0.108288 -0.004107
-0.000047 -0.108288 -0.004107
-0.000047 -0.108288 -0.004107
0.041139 -0.587276 -0.245588
0.061037 -0.821458 -0.343073
0.066680 -0.889204 -0.353224
0.069899 -0.930183 -0.348819
0.066968 -0.899038 -0.314151
0.068071 -0.913480 -0.298384
0.070086 -0.940869 -0.286595
0.541212 -6.561300 -2.026019
0.591629 -7.177325 -2.039548
0.652404 -7.936070 -2.061879
0.728083 -8.862467 -2.087128
0.823630 -10.052918 -2.126962
0.949043 -11.615661 -2.181658
1.179660 -13.715734 -2.250565
1.425789 -16.587732 -2.331743
1.806002 -21.067261 -2.464180
-0.000047 -0.108288 -0.004107
3.541809 -41.463028 -2.913781
3.545973 -41.681641 -1.957181
-0.000047 -0.108288 -0.004107
-0.000047 -0.108288 -0.004107
-0.000047 -0.108288 -0.004107
5.285126 -62.974468 2.926906
4.572747 -54.613911 3.811095
-0.000047 -0.108288 -0.004107
4.310457 -51.920067 6.066616
-0.000047 -0.108288 -0.004107
-0.000047 -0.108288 -0.004107
1.766178 -21.563665 4.048080
-0.000040 -0.107905 -0.004092
-0.000040 -0.107905 -0.004092
-0.000040 -0.107905 -0.004092
0.038232 -0.585352 -0.244676
0.057063 -0.823231 -0.343915
0.062199 -0.889182 -0.353208
0.062976 -0.902602 -0.337236
0.060963 -0.880447 -0.306857
0.061351 -0.887269 -0.288789
0.063951 -0.923889 -0.280815
0.504173 -6.565849 -2.026596
0.550313 -7.172569 -2.037322
0.607611 -7.943178 -2.062872
0.677670 -8.866120 -2.087107
0.766483 -10.059078 -2.127357
0.882585 -11.618617 -2.181264
1.100635 -13.714057 -2.249241
1.330999 -16.597284 -2.331995
1.686057 -21.086840 -2.465312
2.322361 -29.130219 -2.725500
3.290557 -41.319283 -2.902267
3.392614 -42.784386 -2.008006
-0.000040 -0.107905 -0.004092
-0.000040 -0.107905 -0.004092
5.070178 -64.595718 1.486498
4.912071 -62.864059 2.920471
4.665764 -59.850395 4.175767
-0.000040 -0.107905 -0.004092
3.981957 -51.555450 6.021206
-0.000040 -0.107905 -0.004092
-0.000040 -0.107905 -0.004092
1.644238 -21.594658 4.052181
-0.000033 -0.107521 -0.004077
-0.000033 -0.107521 -0.004077
-0.000033 -0.107521 -0.004077
0.036826 -0.602992 -0.253638
0.052936 -0.823177 -0.343900
0.056757 -0.878228 -0.348310
0.056911 -0.882330 -0.328738
0.055421 -0.865549 -0.301020
0.056177 -0.879748 -0.286036
0.057609 -0.901186 -0.273113
0.468348 -6.587311 -2.032537
0.508519 -7.177253 -2.037853
0.562341 -7.944236 -2.062345
0.625818 -8.871563 -2.087547
0.707435 -10.063061 -2.127334
0.814143 -11.621300 -2.180869
1.022706 -13.725689 -2.250190
1.233418 -16.608475 -2.332525
1.565069 -21.093834 -2.465049
2.155018 -29.140762 -2.725277
-0.000033 -0.107521 -0.004077
3.288183 -44.721527 -2.098012
-0.000033 -0.107521 -0.004077
-0.000033 -0.107521 -0.004077
4.656135 -64.039185 1.473061
4.556921 -62.978600 2.924618
-0.000033 -0.107521 -0.004077
4.025094 -56.182034 5.231063
3.697794 -51.747555 6.041208
-0.000033 -0.107521 -0.004077
-0.000033 -0.107521 -0.004077
1.521581 -21.619070 4.055172
-0.000026 -0.107137 -0.004063
-0.000026 -0.107137 -0.004063
0.030730 -0.554588 -0.242632
0.034111 -0.606409 -0.255419
0.048211 -0.814064 -0.339604
0.052184 -0.876351 -0.347481
0.051578 -0.871219 -0.324096
0.050185 -0.852462 -0.295910
0.051734 -0.879677 -0.286021
0.052273 -0.889791 -0.269255
0.058999 -0.994824 -0.281835
0.468301 -7.187361 -2.040040
0.517439 -7.950842 -2.063338
0.576233 -8.888228 -2.090756
0.651295 -10.058690 -2.125648
0.749943 -11.627264 -2.181217
0.941590 -13.727221 -2.249516
1.139334 -16.628738 -2.334448
1.440785 -21.106337 -2.465482
1.982430 -29.148689 -2.724868
2.958491 -43.557667 -3.056995
3.354198 -49.623333 -2.327065
-0.000026 -0.107137 -0.004063
-0.000026 -0.107137 -0.004063
4.256034 -63.756065 1.465984
3.717350 -55.845055 2.591355
-0.000026 -0.107137 -0.004063
3.438798 -52.076160 4.845960
3.525465 -53.668545 6.263711
-0.000026 -0.107137 -0.004063
-0.000026 -0.107137 -0.004063
1.398949 -21.646702 4.058903
-0.000041 -0.106775 -0.004049
-0.000041 -0.106775 -0.004049
0.030125 -0.584331 -0.258584
0.031669 -0.611556 -0.258097
0.044689 -0.822987 -0.343870
0.047194 -0.867139 -0.343397
0.046276 -0.854550 -0.317140
0.045195 -0.841215 -0.291528
0.046940 -0.873957 -0.283953
0.047647 -0.887813 -0.268599
0.052836 -0.977630 -0.276456
0.427295 -7.185715 -2.038916
0.472253 -7.953319 -2.063318
