# This PCD file was generated using the MATLAB® pcwrite function
# from Computer Vision Toolbox®.
# .PCD v.7 - Point Cloud Data file format
VERSION .7
FIELDS x y z
SIZE 4 4 4
TYPE F F F
COUNT 1 1 1
WIDTH 1596
HEIGHT 1
VIEWPOINT 0 0 0 1 0 0 0
POINTS 1596
DATA ascii
-2.844488 -1.837771 -1.893080
-3.015424 -1.945298 -1.898917
-3.194758 -2.057273 -1.899285
-3.398390 -2.184430 -1.904287
-3.634437 -2.332751 -1.915385
-3.860639 -2.473797 -1.908343
-4.159725 -2.660613 -1.921798
-4.474956 -2.858398 -1.926813
-3.547486 -2.271773 -1.418124
-3.509105 -2.245889 -1.295256
-3.553473 -2.272962 -1.205270
-3.560576 -2.275706 -1.102423
-3.863521 -2.465303 -1.082593
-3.109299 -1.989617 -0.781809
-3.119485 -1.994502 -0.695258
-3.127443 -2.017813 -0.609583
-3.115454 -2.009464 -0.519589
-3.130562 -2.017506 -0.433903
-3.135506 -2.019099 -0.347422
-3.318877 -2.134253 -0.275859
-3.160251 -2.032442 -0.175621
-3.765466 -2.412880 -0.104656
-3.228996 -2.073508 -0.001302
0.000060 -0.036296 -0.001464
-3.379054 -2.164898 0.184946
-3.710811 -2.372979 0.305372
-5.258605 -3.345050 0.578445
0.000060 -0.036296 -0.001464
-14.977636 -9.449361 2.485475
-14.821034 -9.343750 2.874648
-14.703325 -9.262700 3.269799
-0.519095 -0.360784 -0.364609
-2.853336 -1.820061 -1.892085
-3.021877 -1.924720 -1.896086
-3.198768 -2.033738 -1.894784
-3.404569 -2.160620 -1.900850
-3.643353 -2.307876 -1.912930
-3.882441 -2.456029 -1.912183
-4.170023 -2.633282 -1.919602
-4.491618 -2.831419 -1.926799
-3.587663 -2.267959 -1.428992
-3.552576 -2.244417 -1.306560
-3.609153 -2.277849 -1.219587
-3.836396 -2.418077 -1.183436
-3.872903 -2.438882 -1.081196
-3.110850 -1.964567 -0.779299
-3.124363 -1.971441 -0.693762
-3.125409 -1.991013 -0.606976
-3.110296 -1.980055 -0.516791
-3.131802 -1.992743 -0.432497
-3.135060 -1.993263 -0.346108
-3.316025 -2.104637 -0.274590
-3.146276 -1.997987 -0.174210
-3.770618 -2.385505 -0.104410
-3.215559 -2.038079 -0.001289
-3.408553 -2.157423 0.091935
-3.384470 -2.140807 0.184587
-3.800858 -2.397923 0.311668
-5.332277 -3.347026 0.584407
-4.958562 -3.113773 0.681299
-15.146010 -9.429904 2.504141
-14.998458 -9.331156 2.898336
-5.249507 -3.288045 1.162308
-0.513685 -0.352795 -0.359493
-2.863881 -1.802735 -1.892071
-3.025512 -1.901743 -1.891377
-3.213607 -2.016222 -1.896564
-3.414042 -2.138117 -1.899125
-3.651710 -2.283611 -1.910476
-3.888879 -2.427747 -1.908315
-4.183776 -2.607146 -1.918860
-4.512441 -2.808078 -1.928837
0.000055 -0.035552 -0.001434
-3.782049 -2.355690 -1.385769
-3.735090 -2.325998 -1.257605
-3.868625 -2.406031 -1.188993
-3.866766 -2.403970 -1.075649
-3.110241 -1.939112 -0.776375
-3.122052 -1.944845 -0.690786
-3.128562 -1.966880 -0.605341
-3.111336 -1.955503 -0.515108
-3.131516 -1.966448 -0.430859
-3.143238 -1.972172 -0.345722
-3.319399 -2.079907 -0.273878
-3.156157 -1.977857 -0.174103
-3.769156 -2.353281 -0.103979
-3.203203 -2.004510 -0.001276
-3.400646 -2.124238 0.091391
-3.384976 -2.112994 0.183949
-3.824620 -2.381897 0.312519
-5.403880 -3.348140 0.590183
0.000055 -0.035552 -0.001434
-15.652535 -9.619307 2.578772
-15.161176 -9.311200 2.919429
-5.362616 -3.313869 1.183064
-0.521386 -0.353045 -0.363559
-2.872522 -1.784932 -1.891077
-3.040740 -1.886677 -1.894180
-3.226488 -1.998239 -1.897447
-3.425722 -2.118636 -1.899110
-3.670839 -2.265963 -1.913715
-3.902592 -2.404938 -1.908301
-4.198065 -2.583361 -1.918846
-4.521909 -2.777776 -1.926087
-4.880185 -2.993917 -1.929565
-3.855376 -2.370770 -1.407795
-3.779459 -2.322983 -1.268063
-3.871852 -2.377988 -1.185940
-3.867013 -2.373227 -1.071947
-3.107411 -1.913226 -0.773035
-3.112464 -1.914802 -0.686329
-3.126153 -1.940243 -0.602733
-3.113882 -1.932024 -0.513702
-3.130703 -1.940774 -0.429222
-3.142418 -1.946410 -0.344408
-3.320897 -2.054172 -0.273028
-3.157040 -1.953044 -0.173530
-3.770096 -2.324574 -0.103641
-3.204217 -1.979418 -0.001262
-3.381840 -2.085582 0.090569
-3.408479 -2.100925 0.184616
-3.822696 -2.350141 0.311277
-5.476825 -3.350550 0.596144
0.000063 -0.035169 -0.001418
-18.504202 -11.218932 3.038192
-18.467796 -11.192555 3.544412
-5.395982 -3.292633 1.186411
-0.530528 -0.354197 -0.368645
-2.883735 -1.769381 -1.892042
-3.048002 -1.867470 -1.892288
-3.231261 -1.976124 -1.893844
-3.440781 -2.100378 -1.900808
-3.678920 -2.241587 -1.911260
-3.911026 -2.379896 -1.905975
-4.211071 -2.557810 -1.918104
-4.537631 -2.751317 -1.926073
-4.893894 -2.963445 -1.928271
0.000050 -0.034808 -0.001404
-3.871794 -2.348138 -1.294507
-3.891943 -2.359263 -1.187952
-3.885423 -2.353531 -1.073316
-3.120196 -1.895398 -0.773436
-3.113438 -1.889896 -0.684093
-3.126611 -1.916289 -0.600774
-3.124746 -1.913677 -0.513687
-3.131086 -1.916752 -0.427816
-3.144512 -1.923335 -0.343465
-3.317058 -2.025384 -0.271758
-3.153995 -1.926787 -0.172771
-3.805514 -2.315814 -0.104229
-3.187912 -1.944118 -0.001249
-3.401818 -2.071427 0.090815
-3.396311 -2.066522 0.183325
-3.823991 -2.320561 0.310314
-18.463923 -11.062601 2.005957
0.000050 -0.034808 -0.001404
-5.514153 -3.324316 0.901262
-18.454004 -11.034907 3.529179
-5.461932 -3.289299 1.196795
-0.529450 -0.348906 -0.366589
-2.893985 -1.751875 -1.892028
-3.060333 -1.849872 -1.893212
-3.244260 -1.957455 -1.894727
-3.448308 -2.076786 -1.898226
-3.688428 -2.218134 -1.909620
-3.929641 -2.359097 -1.908273
-4.222768 -2.530518 -1.916636
-4.548350 -2.721902 -1.924008
-4.909554 -2.933019 -1.927617
-5.372261 -3.203670 -1.947444
-3.901612 -2.335193 -1.300004
-6.176081 -3.673524 -1.877685
-3.881938 -2.320860 -1.068691
-3.125792 -1.874038 -0.772175
-3.124074 -1.871564 -0.684079
-3.129219 -1.892276 -0.599139
-3.125306 -1.889221 -0.512004
-3.131943 -1.891683 -0.426411
-3.145372 -1.898167 -0.342336
-3.318172 -1.999778 -0.270908
-3.154854 -1.901563 -0.172198
-3.739809 -2.245998 -0.102083
-3.190240 -1.920258 -0.001235
-3.388034 -2.035593 0.090132
-3.403164 -2.042931 0.183059
-3.821622 -2.288997 0.309072
0.000059 -0.034426 -0.001388
0.000059 -0.034426 -0.001388
-5.471575 -3.255965 0.891252
-5.483973 -3.260690 1.044228
-5.484550 -3.258463 1.197550
-0.517897 -0.337650 -0.357393
-2.902311 -1.733913 -1.891034
-3.066173 -1.829175 -1.890381
-3.256826 -1.939270 -1.895610
-3.461564 -2.057422 -1.899068
-3.700952 -2.196491 -1.909606
-3.942953 -2.336044 -1.908259
-4.240275 -2.507646 -1.918076
-4.562130 -2.694345 -1.923310
-4.929430 -2.906222 -1.928883
-5.388790 -3.171359 -1.946835
-3.921435 -2.316170 -1.302195
-6.191910 -3.634595 -1.876152
-3.886640 -2.293213 -1.066372
-3.117737 -1.844834 -0.767587
-3.119308 -1.844295 -0.680733
-3.124559 -1.864887 -0.596207
-3.125687 -1.864816 -0.510320
-3.132315 -1.867235 -0.425006
-3.147459 -1.874621 -0.341394
-3.319105 -1.974224 -0.270057
-3.162105 -1.880974 -0.171998
-3.325939 -1.975115 -0.090623
-3.183778 -1.891406 -0.001222
-3.396046 -2.013657 0.090053
-3.409499 -2.019910 0.182793
-3.819021 -2.257537 0.307830
-5.461543 -3.211275 0.588379
0.000067 -0.034043 -0.001373
-5.481463 -3.219037 0.889874
-5.481986 -3.216791 1.040350
-5.489416 -3.218547 1.194601
-0.530069 -0.340326 -0.364519
-2.912072 -1.716817 -1.891020
-3.071865 -1.808455 -1.887550
-3.263102 -1.917430 -1.892903
-3.470037 -2.035283 -1.897343
-3.713342 -2.174766 -1.909592
-3.956151 -2.312932 -1.908245
-4.251217 -2.480948 -1.916607
-4.577363 -2.667642 -1.923296
-4.936045 -2.871756 -1.925029
-5.406752 -3.139884 -1.946821
-3.931193 -2.291274 -1.301079
-4.202096 -2.444899 -1.269443
-3.894510 -2.267502 -1.064975
-3.111141 -1.816748 -0.763416
-3.117730 -1.819076 -0.678127
-3.126506 -1.841545 -0.594572
-3.122459 -1.838480 -0.508080
-3.130770 -1.841828 -0.423368
-3.139044 -1.845151 -0.339337
-3.319858 -1.948724 -0.269206
-3.162306 -1.856374 -0.171425
-3.326674 -1.949574 -0.090331
-3.180564 -1.864691 -0.001208
-3.407390 -1.993691 0.090067
-3.384495 -1.978951 0.180849
-3.828319 -2.233159 0.307564
0.000054 -0.033682 -0.001358
-5.536312 -3.209302 0.745288
-5.549543 -3.215610 0.897962
-5.560155 -3.219124 1.051715
-5.569086 -3.221671 1.207948
-2.786331 -1.623713 -1.903859
-2.917171 -1.697051 -1.888067
-3.082043 -1.790369 -1.887536
-3.272350 -1.897355 -1.891992
-3.479927 -2.013990 -1.896473
-3.722437 -2.151167 -1.907951
-3.966001 -2.287911 -1.906689
-4.260380 -2.453290 -1.914411
-4.585911 -2.637144 -1.920546
-4.950651 -2.841965 -1.924375
-5.419571 -3.105499 -1.945020
-4.002668 -2.301391 -1.320356
-4.214220 -2.419323 -1.268923
-3.128225 -1.803749 -0.852883
-3.114549 -1.794577 -0.761739
-3.122833 -1.797822 -0.677002
-3.128288 -1.818239 -0.592937
-3.120765 -1.813231 -0.506118
-3.130776 -1.817492 -0.421963
-3.142504 -1.822729 -0.338580
-3.315222 -1.920312 -0.267937
-3.158867 -1.829865 -0.170666
-3.332422 -1.927030 -0.090177
-3.171921 -1.835096 -0.001195
-3.397759 -1.961821 0.089523
-3.406070 -1.964966 0.181423
-3.811413 -2.193969 0.305205
-3.815348 -2.194447 0.407931
-18.416632 -10.456491 2.474226
-18.422077 -10.455351 2.974205
-18.410446 -10.440316 3.474086
-18.416990 -10.435556 3.984732
-2.801443 -1.610646 -1.907925
-2.923647 -1.678123 -1.886093
-3.090561 -1.771341 -1.886583
-3.283031 -1.878106 -1.891978
-3.486546 -1.990885 -1.893892
-3.733332 -2.127762 -1.907123
-3.977300 -2.263747 -1.905904
-4.272642 -2.427450 -1.913670
-3.232035 -1.842788 -1.349422
0.000050 -0.032939 -0.001328
-5.433851 -3.072008 -1.943816
-4.047951 -2.295054 -1.330815
-4.175537 -2.365399 -1.253210
-3.121670 -1.775286 -0.848258
-3.116391 -1.770917 -0.759645
-3.116078 -1.769320 -0.673286
-3.128201 -1.794013 -0.590978
-3.122631 -1.789443 -0.504712
-3.132357 -1.794204 -0.420789
-3.145815 -1.800327 -0.337823
-3.319401 -1.896326 -0.267365
-3.153479 -1.802467 -0.169814
-3.329339 -1.899627 -0.089793
-3.180806 -1.814887 -0.001181
-3.405307 -1.939879 0.089445
-3.392724 -1.931281 0.180132
-3.815465 -2.166078 0.304521
-3.817668 -2.165562 0.406830
-18.403522 -10.309215 2.464475
-18.410959 -10.304957 2.962521
-18.408081 -10.294945 3.462096
-18.402754 -10.287785 3.968817
-2.810751 -1.593619 -1.907910
-2.937938 -1.662918 -1.889018
-3.103922 -1.754324 -1.888446
-3.297045 -1.859949 -1.893759
-3.502852 -1.972424 -1.896445
-3.743745 -2.104978 -1.906296
-3.988855 -2.238844 -1.905119
-4.285132 -2.400770 -1.912929
-3.229236 -1.816493 -1.343936
-3.856790 -2.161424 -1.489680
-3.868571 -2.166172 -1.379700
-4.084482 -2.284325 -1.338518
-4.143533 -2.314991 -1.239522
-3.126545 -1.754096 -0.846861
-3.119493 -1.748795 -0.757968
-3.124318 -1.750038 -0.672902
-3.133412 -1.772166 -0.589991
-3.125776 -1.767220 -0.503585
-3.137525 -1.772307 -0.420079
-3.142299 -1.773523 -0.336323
-3.316111 -1.869067 -0.266235
-3.160420 -1.781409 -0.169614
-3.329854 -1.873657 -0.089501
-3.175281 -1.787475 -0.001168
-3.393823 -1.906714 0.088854
-3.393439 -1.904956 0.179586
-3.815458 -2.136950 0.303558
-3.817685 -2.136445 0.405543
-18.396294 -10.162072 2.455422
-18.400408 -10.160178 2.951394
-18.399452 -10.151308 3.449457
-18.384058 -10.134504 3.951789
-2.827242 -1.581170 -1.912997
-2.948817 -1.646444 -1.889983
-3.109148 -1.733512 -1.885616
-3.301234 -1.837121 -1.890155
-3.510780 -1.950099 -1.894719
-3.758815 -2.084751 -1.907908
-3.999871 -2.214575 -1.904335
-4.297064 -2.374787 -1.912187
-3.236162 -1.795700 -1.342554
0.000045 -0.032195 -0.001298
-3.862333 -2.133434 -1.373133
-3.881195 -2.142828 -1.267951
-3.906707 -2.154935 -1.165064
-3.117594 -1.725469 -0.841775
-3.122447 -1.726693 -0.756291
-3.122057 -1.725078 -0.670296
-3.126075 -1.744244 -0.586735
-3.125279 -1.743098 -0.501901
-3.140516 -1.750017 -0.419137
-3.143550 -1.750261 -0.335380
-3.356407 -1.865834 -0.268592
-3.154671 -1.754203 -0.168762
-3.329867 -1.848328 -0.089208
-3.169528 -1.760165 -0.001154
-3.395772 -1.881972 0.088636
-3.391884 -1.878323 0.178948
-3.809977 -2.105020 0.302177
-3.822733 -2.110237 0.404814
-18.384520 -10.017672 2.446137
-18.397511 -10.020586 2.941659
-18.389767 -10.008093 3.436819
-18.376274 -9.992496 3.937724
-2.817940 -1.554652 -1.900741
-2.954989 -1.627390 -1.888010
-3.123556 -1.717713 -1.888418
-3.309995 -1.816844 -1.889243
-3.528136 -1.932900 -1.898127
-3.765756 -2.060098 -1.905454
-4.004262 -2.186763 -1.900467
-4.303924 -2.346095 -1.909264
-3.229711 -1.767754 -1.335700
-5.017836 -2.726596 -1.925600
0.000049 -0.031808 -0.001283
-5.985642 -3.242320 -1.948666
-3.872827 -2.107347 -1.151376
-3.122146 -1.704346 -0.840378
-3.121816 -1.702772 -0.753782
-3.119627 -1.700203 -0.667690
-3.132406 -1.723949 -0.586072
-3.124627 -1.719045 -0.500217
-3.141628 -1.726815 -0.417964
-3.142880 -1.726082 -0.334252
-3.391493 -1.859333 -0.270529
-3.155744 -1.730892 -0.168282
-3.331464 -1.823999 -0.088962
-3.174132 -1.738649 -0.001140
-3.429256 -1.874294 0.089255
-3.388370 -1.850807 0.178216
-3.818333 -2.080771 0.301912
-3.813567 -2.076503 0.402598
-18.373438 -9.874662 2.437084
-18.388384 -9.878553 2.931088
-18.382532 -9.867188 3.424828
-18.357059 -9.845334 3.921437
-2.828199 -1.538851 -1.901747
-2.965658 -1.610782 -1.888975
-3.131637 -1.698476 -1.887465
-3.320234 -1.797392 -1.889229
-3.531054 -1.907944 -1.893835
-3.778980 -2.038853 -1.906253
-4.021495 -2.165888 -1.902765
-4.322114 -2.323510 -1.911432
-3.229692 -1.743471 -1.331582
-5.021560 -2.691081 -1.921106
-5.475911 -2.929277 -1.934230
0.000058 -0.031426 -0.001267
-3.891565 -2.088258 -1.153388
-3.126561 -1.683232 -0.838980
-3.117547 -1.677087 -0.750442
-3.122220 -1.678158 -0.666194
-3.133401 -1.700877 -0.584438
-3.129055 -1.697861 -0.499368
-3.140806 -1.702711 -0.416558
-3.140260 -1.701018 -0.332937
-3.435451 -1.857202 -0.273165
-3.154878 -1.706681 -0.167709
-3.332889 -1.799713 -0.088716
-3.175076 -1.715281 -0.001126
-3.478690 -1.874746 0.090292
-3.404098 -1.833704 0.178510
-3.819489 -2.052772 0.301088
-3.816491 -2.049490 0.401682
-18.363062 -9.733030 2.428263
-18.378250 -9.736978 2.920518
-18.362072 -9.720256 3.410568
-18.355902 -9.708824 3.909224
-2.833788 -1.520565 -1.899693
-2.970079 -1.590877 -1.886022
-3.138072 -1.678412 -1.885573
-3.330339 -1.777858 -1.889215
-3.538601 -1.885527 -1.892110
-3.787254 -2.015000 -1.904613
-4.025540 -2.138035 -1.898898
-4.326991 -2.293894 -1.907781
-3.234495 -1.721851 -1.329516
-5.040154 -2.663498 -1.922372
-5.494196 -2.898197 -1.934812
-6.020518 -3.171527 -1.948089
-3.896484 -2.061862 -1.151349
-3.125679 -1.659443 -0.836200
-3.121753 -1.656008 -0.749181
-3.119461 -1.653443 -0.663589
-3.132485 -1.676927 -0.582479
-3.128083 -1.673917 -0.497684
-3.141596 -1.679618 -0.415385
-3.149837 -1.682543 -0.332924
-3.488315 -1.859233 -0.276497
-3.150319 -1.680700 -0.166950
-3.397946 -1.808856 -0.090139
-3.172317 -1.690107 -0.001112
-3.542418 -1.882092 0.091701
-3.465781 -1.840509 0.181228
-3.823999 -2.026682 0.300544
-3.819222 -2.022499 0.400767
-18.362261 -9.597373 2.420837
-18.379383 -9.602237 2.911896
-18.375547 -9.592102 3.402794
-18.336365 -9.563608 3.893307
-2.834669 -1.499876 -1.894577
-2.979007 -1.573366 -1.886008
-3.142797 -1.657499 -1.882742
-3.346705 -1.761572 -1.892790
-3.554027 -1.867221 -1.894663
-3.800233 -1.993614 -1.905412
-4.040888 -2.116137 -1.900425
-4.343265 -2.270273 -1.909223
-3.230834 -1.695952 -1.324031
-5.051860 -2.632319 -1.921079
-5.508931 -2.865273 -1.934204
-6.023114 -3.128511 -1.943115
-3.892623 -2.031052 -1.146777
-3.133259 -1.640137 -0.835725
-3.129331 -1.636746 -0.748751
-3.118241 -1.629678 -0.661353
-3.134895 -1.654846 -0.581168
-3.125175 -1.649119 -0.495722
-3.143978 -1.657469 -0.414443
-3.148679 -1.658512 -0.331795
-3.330400 -1.751723 -0.263237
-3.157996 -1.661242 -0.166843
0.000053 -0.030682 -0.001237
-3.174721 -1.667781 -0.001099
-3.597448 -1.884172 0.092877
-3.531201 -1.848482 0.184133
-3.814150 -1.993307 0.298882
-3.818225 -1.993716 0.399480
-18.344616 -9.453882 2.411319
-18.145254 -9.347487 2.866244
-18.344282 -9.441615 3.386911
-18.333239 -9.427880 3.881094
-2.841557 -1.482376 -1.893543
-2.987845 -1.555815 -1.885994
-3.161556 -1.643820 -1.888361
-3.350233 -1.738633 -1.889187
-3.559714 -1.843889 -1.892082
-3.813434 -1.971478 -1.906212
-4.052839 -2.092465 -1.900412
-4.354418 -2.243994 -1.908481
-3.237299 -1.674669 -1.322648
-5.061691 -2.600235 -1.919145
-5.520050 -2.830528 -1.932403
-6.037963 -3.090610 -1.941999
-3.897173 -2.004727 -1.144737
-3.139279 -1.619382 -0.834789
-3.131822 -1.614244 -0.747074
-3.131185 -1.612548 -0.662080
-3.131894 -1.630107 -0.578885
-3.125897 -1.625665 -0.494316
-3.140913 -1.632647 -0.412806
-3.149129 -1.635453 -0.330852
-3.312105 -1.717068 -0.260991
-3.160213 -1.639029 -0.166457
0.000040 -0.030321 -0.001223
-3.171896 -1.642195 -0.001085
-3.661552 -1.890223 0.094286
-3.568352 -1.841320 0.185545
-3.818611 -1.966656 0.298338
-3.817372 -1.964352 0.398193
-18.341871 -9.318980 2.403891
-17.961662 -9.118580 2.828666
-18.350483 -9.307285 3.377840
-18.308121 -9.281876 3.864436
-2.843971 -1.462016 -1.889448
-2.990623 -1.534561 -1.882061
-3.164757 -1.621478 -1.884592
-3.360329 -1.718369 -1.889173
-3.572030 -1.823174 -1.892924
-3.819648 -1.946650 -1.903758
-4.063334 -2.067160 -1.899626
-4.364153 -2.216084 -1.907013
-3.241670 -1.653096 -1.320582
-5.076849 -2.569781 -1.919131
-5.538274 -2.798204 -1.932986
-6.045173 -3.050261 -1.938679
-3.891503 -1.972548 -1.139659
-3.132715 -1.593091 -0.830625
-3.119888 -1.585338 -0.742071
-3.124413 -1.586230 -0.658734
-3.136048 -1.608464 -0.577898
-3.126194 -1.602818 -0.492911
-3.143270 -1.610044 -0.411865
-3.147917 -1.610999 -0.329724
-3.312861 -1.693126 -0.260281
-3.157203 -1.613604 -0.165791
-3.335501 -1.701579 -0.087687
-3.172190 -1.619052 -0.001072
-3.722576 -1.893135 0.095602
-3.620130 -1.840289 0.187704
-3.811848 -1.935332 0.296956
-3.815989 -1.935744 0.396905
-18.332682 -9.177679 2.395535
-17.955215 -8.985435 2.819488
-18.329426 -9.164108 3.364228
-18.302887 -9.142928 3.851852
-2.849099 -1.443720 -1.887394
-3.005494 -1.520045 -1.885966
-3.172283 -1.602065 -1.883639
-3.369981 -1.698599 -1.889159
-3.583929 -1.803013 -1.893766
-3.832267 -1.925063 -1.904557
-4.078308 -2.044988 -1.901155
-4.371659 -2.188066 -1.904817
-3.240863 -1.629047 -1.316465
-5.086292 -2.537612 -1.917197
-5.543849 -2.760827 -1.929398
-6.065912 -3.016718 -1.939768
-3.900894 -1.948879 -1.139139
-3.127698 -1.567783 -0.826923
-3.127022 -1.566092 -0.741641
-3.133339 -1.567850 -0.658720
-3.127398 -1.581222 -0.574642
-3.124568 -1.579147 -0.491228
-3.141635 -1.586245 -0.410459
-3.149850 -1.588953 -0.328968
-3.315233 -1.670107 -0.259709
-3.155519 -1.589702 -0.165218
-3.332522 -1.675767 -0.087349
-3.168718 -1.594167 -0.001058
-3.783456 -1.896063 0.096918
-3.680673 -1.843768 0.190328
-3.817390 -1.910328 0.296551
-3.817962 -1.908957 0.395990
-18.322664 -9.040878 2.387411
-17.953167 -8.855283 2.811145
-18.325047 -9.030180 3.353859
-18.305658 -9.012742 3.841491
-2.854090 -1.425389 -1.885339
-3.010878 -1.500791 -1.883992
-3.179706 -1.582626 -1.882686
-3.374725 -1.676445 -1.886453
-3.584324 -1.777206 -1.888618
-3.839848 -1.901000 -1.902917
-4.084871 -2.018671 -1.898828
-4.384028 -2.162490 -1.904804
-3.243248 -1.606682 -1.313715
-5.102361 -2.508738 -1.917824
-5.562922 -2.730149 -1.930576
-6.088209 -2.983884 -1.941409
-3.904908 -1.922621 -1.137099
-3.129505 -1.545981 -0.825065
-3.116456 -1.538309 -0.737054
-3.131520 -1.544260 -0.656484
-3.130969 -1.560216 -0.573656
-3.131645 -1.559868 -0.490935
-3.138050 -1.561648 -0.408822
-3.155190 -1.568657 -0.328582
-3.319244 -1.647986 -0.259276
-3.155468 -1.566749 -0.164739
-3.340158 -1.655305 -0.087288
-3.172298 -1.572908 -0.001044
-3.797750 -1.875626 0.097024
-3.746769 -1.849227 0.193233
-3.815598 -1.881840 0.295587
-3.823337 -1.883946 0.395446
-18.315277 -8.906248 2.379751
-15.558278 -7.566643 2.429160
-15.555676 -7.558696 2.838855
0.000044 -0.029195 -0.001177
-2.872941 -1.413795 -1.892467
-3.019302 -1.483052 -1.883978
-3.185418 -1.562384 -1.880794
-3.380925 -1.655051 -1.884644
-3.595970 -1.756954 -1.889460
-3.847261 -1.876891 -1.901276
-4.087950 -1.990755 -1.894961
-4.394554 -2.136021 -1.904063
-3.255675 -1.589234 -1.315069
-5.118251 -2.479743 -1.918450
-5.568050 -2.692748 -1.926989
-6.101663 -2.946748 -1.940294
-3.896559 -1.890566 -1.131515
-3.127652 -1.522526 -0.822285
-3.119808 -1.517444 -0.735793
-3.129541 -1.520743 -0.654249
-3.137964 -1.540935 -0.573318
-3.126150 -1.534573 -0.488695
-3.136085 -1.538009 -0.407417
-3.153238 -1.544911 -0.327454
-3.314118 -1.621548 -0.258147
-3.160674 -1.546453 -0.164539
-3.344058 -1.633072 -0.087135
-3.173915 -1.550772 -0.001030
-3.801105 -1.849891 0.096852
-3.795036 -1.845362 0.195204
-3.811796 -1.852561 0.294485
-3.821390 -1.855519 0.394159
-18.305151 -8.771132 2.371860
-15.562133 -7.457790 2.423044
-15.580976 -7.460114 2.835621
0.000052 -0.028812 -0.001162
-2.877761 -1.395376 -1.890412
-3.021338 -1.462289 -1.880046
-3.195783 -1.544388 -1.881719
-3.390242 -1.635187 -1.884631
-3.604222 -1.735061 -1.888590
-3.858148 -1.853646 -1.901262
-4.104176 -1.969163 -1.897259
-4.406603 -2.110291 -1.904049
-3.263174 -1.568711 -1.314371
-5.127147 -2.447433 -1.916517
-5.585029 -2.661080 -1.927572
-6.113638 -2.907648 -1.938627
-3.905451 -1.866882 -1.130995
-3.132936 -1.501910 -0.821348
-3.128579 -1.498526 -0.735779
-3.124111 -1.495097 -0.651273
-3.130573 -1.514843 -0.570386
-3.127872 -1.512228 -0.487568
-3.137544 -1.516144 -0.406475
-3.151124 -1.521242 -0.326326
-3.321722 -1.600642 -0.257994
-3.160332 -1.523578 -0.164059
-3.347819 -1.610849 -0.086982
-3.170241 -1.525570 -0.001017
-3.800678 -1.822471 0.096587
-3.794574 -1.817970 0.194659
-3.813528 -1.825286 0.293800
-3.826764 -1.829900 0.393615
-18.292299 -8.635602 2.363735
-15.794137 -7.453416 2.452288
-15.817724 -7.457772 2.870657
-18.287348 -8.613836 3.805961
-2.884265 -1.377177 -1.889378
-3.031358 -1.444687 -1.881011
-3.199935 -1.522796 -1.878889
-3.401327 -1.615417 -1.885514
-3.622481 -1.717095 -1.892855
-3.866959 -1.830271 -1.900436
-4.113953 -1.943630 -1.896475
-4.412132 -2.080601 -1.901126
-3.275408 -1.551112 -1.315725
-5.136261 -2.414206 -1.914583
-5.598822 -2.626720 -1.926963
-6.119654 -2.867162 -1.935306
-3.905775 -1.838437 -1.127943
-3.137828 -1.481822 -0.820412
-3.126348 -1.475186 -0.733270
-3.123583 -1.472578 -0.649408
-3.130403 -1.491693 -0.568751
-3.129171 -1.490445 -0.486441
-3.139121 -1.493768 -0.405534
-3.156309 -1.500451 -0.325940
-3.316238 -1.574349 -0.256864
-3.160093 -1.500206 -0.163580
-3.353534 -1.588904 -0.086876
-3.176985 -1.506057 -0.001003
-3.825767 -1.806260 0.096973
-3.830498 -1.806832 0.195978
-3.856395 -1.818045 0.296327
-3.884038 -1.829230 0.398461
-18.283552 -8.498960 2.356076
-17.910557 -8.322368 2.773594
-18.285419 -8.488234 3.309787
-18.273743 -8.475106 3.792636
-2.890429 -1.359456 -1.888344
-3.037890 -1.426111 -1.880018
-3.208488 -1.503968 -1.878875
-3.408807 -1.594701 -1.884603
-3.623934 -1.692061 -1.888563
-3.877258 -1.807582 -1.900422
-4.124913 -1.919529 -1.896461
-4.423881 -2.054785 -1.901112
-3.278999 -1.529503 -1.313659
-5.144741 -2.381840 -1.912649
-5.611969 -2.593276 -1.926355
-4.733502 -2.190677 -1.493228
-3.905566 -1.810709 -1.124890
-3.133765 -1.457708 -0.817171
-3.131060 -1.455149 -0.732424
-3.126499 -1.451762 -0.648283
-3.129818 -1.469139 -0.567117
-3.126750 -1.467059 -0.484757
-3.138476 -1.471132 -0.404360
-3.148459 -1.474401 -0.324255
-3.316029 -1.550692 -0.256153
-3.157631 -1.476616 -0.163008
-3.344284 -1.560850 -0.086398
-3.170898 -1.480695 -0.000990
-3.895937 -1.811287 0.098521
-3.897005 -1.810132 0.198882
-3.911999 -1.816166 0.299830
-3.937819 -1.826312 0.402935
-18.279631 -8.369231 2.349345
-17.909388 -8.196523 2.766085
-18.272783 -8.354585 3.298769
-18.255890 -8.339203 3.778941
-2.899389 -1.343625 -1.889350
-3.042485 -1.407310 -1.878044
-3.216931 -1.485079 -1.878860
-3.422373 -1.577455 -1.887280
-3.631523 -1.670668 -1.887693
-3.882444 -1.782579 -1.897967
-4.132377 -1.893842 -1.894906
-4.435123 -2.029658 -1.901098
0.000039 -0.027321 -0.001102
-5.158214 -2.351792 -1.912636
-5.631867 -2.562876 -1.928128
-4.737116 -2.159056 -1.490458
-3.901654 -1.781460 -1.120825
-3.142193 -1.438704 -0.817157
-3.096657 -1.416959 -0.722433
-3.123875 -1.428510 -0.646047
-3.128826 -1.447171 -0.565481
-3.124172 -1.443746 -0.483073
-3.139250 -1.449920 -0.403418
-3.154659 -1.455576 -0.324055
-3.322931 -1.530369 -0.256000
-3.156821 -1.453911 -0.162528
-3.343690 -1.537659 -0.086153
-3.177398 -1.461212 -0.000976
-3.951720 -1.808989 0.099697
-3.960041 -1.811081 0.201600
-3.974991 -1.816976 0.303892
-3.997159 -1.825289 0.407967
-18.267593 -8.236583 2.341685
-17.897919 -8.062954 2.756906
-18.271826 -8.227013 3.290021
-18.246088 -8.207830 3.767097
-2.904224 -1.324104 -1.887295
-3.049262 -1.387615 -1.877051
-3.222293 -1.464148 -1.876969
-3.428509 -1.554690 -1.885472
-3.641216 -1.648724 -1.887680
-3.894474 -1.759894 -1.898767
-4.134954 -1.865175 -1.891039
-4.445228 -2.002181 -1.900357
-4.789053 -2.152962 -1.908003
-5.174972 -2.323203 -1.913903
-5.639390 -2.526927 -1.925732
0.000048 -0.026938 -0.001086
-3.897543 -1.752326 -1.116760
-3.134246 -1.413122 -0.812993
-3.097197 -1.396091 -0.720755
-3.126515 -1.407756 -0.644923
-3.128433 -1.423639 -0.563847
-3.123479 -1.420774 -0.481668
-3.140640 -1.427124 -0.402477
-3.145151 -1.427821 -0.322184
-3.317206 -1.503756 -0.254870
-3.157922 -1.431526 -0.162141
-3.345279 -1.514163 -0.085953
-3.173045 -1.436265 -0.000962
-4.017040 -1.809454 0.101106
-4.028681 -1.813783 0.204597
-4.042099 -1.818051 0.308232
-4.063894 -1.826867 0.413742
-18.258257 -8.105947 2.334490
-17.900421 -7.940145 2.750233
-18.257380 -8.094158 3.279003
-18.242552 -8.080008 3.756735
-2.911416 -1.307486 -1.887281
-3.053623 -1.368790 -1.875078
-3.230278 -1.445766 -1.876955
-3.435361 -1.534438 -1.884561
-3.650484 -1.627342 -1.887666
-3.900729 -1.736264 -1.897127
-4.143458 -1.840935 -1.890254
-4.453110 -1.974675 -1.898889
-4.800863 -2.125823 -1.907990
-5.186374 -2.292230 -1.913250
-4.731536 -2.091581 -1.611795
0.000034 -0.026577 -0.001072
-3.903858 -1.727923 -1.115733
-3.134801 -1.392113 -0.811135
-3.117601 -1.383335 -0.723652
-3.132609 -1.388565 -0.644539
-3.134362 -1.404962 -0.563508
-3.134835 -1.404523 -0.482211
-3.146586 -1.408385 -0.402231
-3.151088 -1.409046 -0.321984
-3.177414 -1.419945 -0.243562
-3.154752 -1.408698 -0.161569
-3.344639 -1.490497 -0.085708
-3.179055 -1.417367 -0.000949
-4.085559 -1.812241 0.102607
-4.139606 -1.834149 0.209739
-4.167236 -1.845352 0.317040
-18.242718 -7.980939 1.856359
-18.249838 -7.976473 2.327528
-15.503820 -6.777064 2.376049
-18.254667 -7.967238 3.270255
-18.225536 -7.947015 3.743780
-2.918751 -1.290331 -1.887267
-3.066089 -1.352872 -1.878002
-3.236768 -1.426057 -1.876002
-3.443997 -1.514265 -1.884548
-3.662963 -1.607353 -1.889363
-3.907462 -1.711279 -1.895486
-4.155544 -1.817410 -1.891012
-4.462562 -1.947904 -1.898149
-4.806316 -2.093943 -1.905241
-5.192377 -2.258960 -1.910676
0.000043 -0.026195 -0.001056
-6.171063 -2.674710 -1.926423
-3.906482 -1.701989 -1.113694
-3.130335 -1.367756 -0.807894
-3.098614 -1.352882 -0.717402
-3.099075 -1.351804 -0.636010
0.000043 -0.026195 -0.001056
-3.130227 -1.380016 -0.480249
-3.136265 -1.381991 -0.399899
-3.138886 -1.381814 -0.319927
-3.154487 -1.387259 -0.241177
-3.149809 -1.384585 -0.160903
-3.343827 -1.466875 -0.085462
-3.178058 -1.394144 -0.000935
-4.161893 -1.816751 0.104294
-4.236215 -1.846982 0.214135
-4.234790 -1.844625 0.321380
-18.234692 -7.848623 1.850791
-18.235075 -7.845030 2.319868
0.000043 -0.026195 -0.001056
-18.243406 -7.833557 3.259885
-18.213036 -7.816818 3.731936
-2.919880 -1.269929 -1.883173
-3.075510 -1.334965 -1.878968
-3.249887 -1.408522 -1.878805
-3.451102 -1.492712 -1.883636
-3.665359 -1.583037 -1.885927
-3.922143 -1.690512 -1.897913
-4.167795 -1.793065 -1.891769
-4.471828 -1.921061 -1.897408
-4.818152 -2.065862 -1.905228
-5.210388 -2.230865 -1.912583
-4.740935 -2.030248 -1.607003
-6.180907 -2.636514 -1.924757
-3.898257 -1.671578 -1.108616
-3.138015 -1.349338 -0.807881
-3.109586 -1.336709 -0.718219
-3.110052 -1.335628 -0.636736
0.000051 -0.025812 -0.001041
0.000051 -0.025812 -0.001041
0.000051 -0.025812 -0.001041
0.000051 -0.025812 -0.001041
-3.132891 -1.356218 -0.238932
-3.135743 -1.356133 -0.159772
-3.206650 -1.385560 -0.081787
-3.152731 -1.361397 -0.000922
-4.229535 -1.815815 0.105749
-4.292629 -1.841637 0.216479
-4.298473 -1.842339 0.325442
-18.228558 -7.725364 1.845782
-18.234056 -7.720208 2.314066
-15.486804 -6.554573 2.361590
-18.228519 -7.706649 3.249516
-13.859387 -5.859979 2.832680
-2.925186 -1.252556 -1.882139
-3.076356 -1.314716 -1.875036
-3.251047 -1.387253 -1.875036
-3.459240 -1.473044 -1.883622
-3.672594 -1.560827 -1.885058
-3.926610 -1.665414 -1.895459
-4.169086 -1.765836 -1.887902
-4.480953 -1.894189 -1.896667
-4.829813 -2.037699 -1.905214
0.000038 -0.025451 -0.001026
-4.738301 -1.996674 -1.602224
-6.186956 -2.596806 -1.921988
-3.904088 -1.647233 -1.107590
-3.134779 -1.326373 -0.805100
-3.122728 -1.320105 -0.719453
-3.110499 -1.313762 -0.635241
-3.110408 -1.329662 -0.555039
-3.112752 -1.329370 -0.475212
-3.120505 -1.331969 -0.395929
-3.128590 -1.334081 -0.317300
-3.133139 -1.334704 -0.238361
-3.130214 -1.332832 -0.159107
-3.148000 -1.338980 -0.080104
-3.156692 -1.341317 -0.000909
-4.298539 -1.816412 0.107250
-4.362038 -1.841078 0.219476
-4.365973 -1.840927 0.329782
-18.215090 -7.592257 1.839842
-18.219360 -7.590312 2.306639
-15.476577 -6.445161 2.354360
-18.220911 -7.576071 3.240119
-13.789264 -5.736825 2.811578
-2.934014 -1.235468 -1.883145
-3.095231 -1.300711 -1.881879
-3.260703 -1.368238 -1.875961
-3.461175 -1.449416 -1.880020
-3.684986 -1.540013 -1.886755
-3.934296 -1.641702 -1.894632
-4.184463 -1.742799 -1.890201
-4.490244 -1.866493 -1.895926
-4.837837 -2.008045 -1.903833
-5.225295 -2.164739 -1.908716
-4.744615 -1.965983 -1.600424
-6.196321 -2.558574 -1.920322
-3.901107 -1.618547 -1.104031
-3.135019 -1.304988 -0.803242
-3.128322 -1.300988 -0.719023
-3.112408 -1.293229 -0.634117
-3.116266 -1.310056 -0.554701
-3.109214 -1.306511 -0.473529
-3.113512 -1.307010 -0.394060
-3.119713 -1.308291 -0.315614
-3.133233 -1.313216 -0.237789
-3.128686 -1.310075 -0.158628
-3.146491 -1.316109 -0.079859
-3.147564 -1.315912 -0.000896
0.000047 -0.025068 -0.001011
-18.225100 -7.484365 0.918005
-18.286684 -7.505855 1.381259
-18.212284 -7.468020 1.835204
-18.210600 -7.459929 2.299907
-15.463785 -6.335344 2.346852
-13.806794 -5.653566 2.449138
-13.782860 -5.638212 2.803440
-2.932949 -1.214927 -1.878030
-3.091216 -1.277907 -1.875008
-3.268391 -1.349071 -1.875947
-3.467657 -1.428409 -1.879109
-3.693641 -1.518384 -1.886742
-3.945241 -1.619335 -1.895432
-4.199416 -1.720368 -1.892500
-4.502501 -1.840925 -1.896641
-4.845700 -1.978381 -1.902452
-5.235774 -2.133530 -1.908063
-4.752157 -1.936814 -1.599219
-6.209023 -2.521753 -1.919758
-3.906615 -1.594225 -1.103004
-3.142341 -1.286541 -0.803228
-3.128340 -1.279649 -0.717346
-3.130606 -1.279295 -0.636324
-3.116294 -1.288741 -0.553390
-3.112866 -1.286716 -0.472958
-3.131900 -1.293167 -0.395438
-3.132601 -1.292181 -0.316158
-3.140595 -1.294771 -0.237775
-3.134185 -1.290915 -0.158521
-3.152013 -1.296838 -0.079798
-3.166060 -1.301864 -0.000881
-18.497116 -7.478732 0.462685
-18.223288 -7.361007 0.915775
-18.281353 -7.380686 1.377637
-18.203112 -7.341838 1.830008
-18.207033 -7.336044 2.294106
-13.829126 -5.575230 2.093783
0.000034 -0.024707 -0.000996
-13.780292 -5.544477 2.796412
-2.939762 -1.197650 -1.878017
-3.098379 -1.259708 -1.874994
-3.275961 -1.329850 -1.875933
-3.477348 -1.408707 -1.879992
-3.698818 -1.495373 -1.885017
-3.951242 -1.594180 -1.893792
-4.205681 -1.694419 -1.890945
-4.511141 -1.813892 -1.895900
-4.858962 -1.949921 -1.903123
-5.246057 -2.102257 -1.907410
-4.740021 -1.899918 -1.591462
-6.207635 -2.478129 -1.914784
-3.903001 -1.566357 -1.099446
-3.133476 -1.261065 -0.799065
-3.141201 -1.262852 -0.718580
-3.134347 -1.258892 -0.635570
-3.136358 -1.275521 -0.555645
-3.131343 -1.272252 -0.474614
-3.152058 -1.279867 -0.397047
-3.147240 -1.276680 -0.316887
-3.153655 -1.277967 -0.238180
-3.148839 -1.275408 -0.158879
-3.675924 -1.483343 -0.092671
-3.171737 -1.281956 -0.000868
-18.483988 -7.349620 0.461297
-18.216934 -7.236430 0.913359
-18.267168 -7.248960 1.373318
-18.190653 -7.211372 1.824440
-18.202635 -7.212436 2.288305
-13.784432 -5.462167 2.082100
-13.781710 -5.455552 2.433266
-13.767976 -5.447369 2.787533
-2.946664 -1.179805 -1.878003
-3.110533 -1.242845 -1.877920
-3.285285 -1.310650 -1.876858
-3.488813 -1.388962 -1.881773
-3.710605 -1.475000 -1.886715
-3.961921 -1.571692 -1.894592
-4.205186 -1.665021 -1.886306
-4.521382 -1.787519 -1.895887
-4.862952 -1.918789 -1.900374
0.000051 -0.023942 -0.000966
-4.740072 -1.868066 -1.587875
-6.219888 -2.441284 -1.914221
-3.913630 -1.544189 -1.099939
-3.136926 -1.241224 -0.798129
-3.128004 -1.237133 -0.713992
-3.132033 -1.237448 -0.633705
-3.136364 -1.253620 -0.554335
-3.131108 -1.250939 -0.473487
-3.146507 -1.255701 -0.395410
-3.152765 -1.256887 -0.316687
-3.160826 -1.259413 -0.238166
-3.152505 -1.254894 -0.158679
0.000051 -0.023942 -0.000966
-3.173329 -1.261107 -0.000854
-18.473083 -7.218381 0.459957
-18.198591 -7.107832 0.910384
-18.252695 -7.121577 1.369138
-18.180393 -7.089823 1.819429
-13.801311 -5.382343 1.730865
-13.789671 -5.372287 2.078212
-13.789750 -5.369569 2.429384
-13.765989 -5.354836 2.780876
-2.951487 -1.162357 -1.876969
-3.112398 -1.223188 -1.874967
-3.290787 -1.291291 -1.875906
-3.494722 -1.368450 -1.880862
-3.715530 -1.451940 -1.884990
-3.970487 -1.549153 -1.894578
-4.224625 -1.645108 -1.890918
-4.529717 -1.760403 -1.895146
-4.875218 -1.891907 -1.901045
-4.282238 -1.662943 -1.550168
-4.739904 -1.836262 -1.584288
-6.229697 -2.404763 -1.913106
-3.904244 -1.514349 -1.094861
-3.141851 -1.222614 -0.797654
-3.129455 -1.216634 -0.712731
-3.135297 -1.217618 -0.632951
-3.133974 -1.232160 -0.552700
-3.124972 -1.228071 -0.471526
-3.151488 -1.237028 -0.395164
-3.150303 -1.235308 -0.315745
-3.167672 -1.241363 -0.238152
-3.157452 -1.236165 -0.158572
-4.006110 -1.560476 -0.100432
-3.178326 -1.242281 -0.000840
-18.466291 -7.096848 0.458802
-18.201790 -6.988272 0.908526
-18.236147 -6.997780 1.364958
-13.800905 -5.296060 1.377861
-13.804111 -5.291776 1.727388
-13.773075 -5.277184 2.071260
-13.781575 -5.274923 2.422583
-13.756062 -5.259716 2.772737
-2.957989 -1.144960 -1.876955
-3.115985 -1.203627 -1.872993
-3.294718 -1.270683 -1.874014
-3.495713 -1.345390 -1.877259
-3.720305 -1.428860 -1.883265
-3.977504 -1.525250 -1.893752
-4.230450 -1.619085 -1.889363
-4.536169 -1.732610 -1.893678
-4.882371 -1.862093 -1.899664
-4.318216 -1.647896 -1.559757
-4.746686 -1.807213 -1.583083
-6.225292 -2.361695 -1.907581
-3.909129 -1.490094 -1.093835
-3.145059 -1.202758 -0.796718
-3.130787 -1.196168 -0.711470
-3.140275 -1.198473 -0.632567
-3.127966 -1.208822 -0.550417
-3.124451 -1.206875 -0.470399
-3.150992 -1.215670 -0.394223
-3.153502 -1.215360 -0.315359
-3.678532 -1.413109 -0.275789
-3.153182 -1.213367 -0.158000
-4.005539 -1.533476 -0.100187
-3.183421 -1.222876 -0.000827
-18.465561 -6.974514 0.457787
-18.192976 -6.864669 0.906110
-13.846118 -5.227279 1.033889
-13.782565 -5.197912 1.373038
-13.793299 -5.196459 1.722286
-13.769711 -5.184876 2.066258
-13.774631 -5.181253 2.416106
-13.752857 -5.167637 2.766080
-2.969434 -1.128814 -1.880002
-3.121314 -1.184141 -1.872000
-3.303733 -1.251361 -1.874940
-3.503503 -1.324249 -1.877245
-3.728590 -1.406389 -1.883252
-3.984621 -1.500593 -1.892924
-4.238104 -1.592923 -1.888578
-4.546234 -1.705285 -1.893665
-4.893209 -1.832721 -1.899651
-4.278022 -1.603483 -1.541819
-4.748242 -1.775339 -1.580092
-6.233656 -2.322347 -1.905915
0.000029 -0.022833 -0.000921
-3.141052 -1.179664 -0.793938
-3.141358 -1.178532 -0.712288
-3.134282 -1.174694 -0.629961
-3.131253 -1.188487 -0.549755
-3.127694 -1.186539 -0.469828
-3.148695 -1.193103 -0.393049
-3.153074 -1.193493 -0.314603
-3.679250 -1.388116 -0.275218
-3.154567 -1.192169 -0.157707
-4.010693 -1.507923 -0.100081
-3.175467 -1.198019 -0.000813
-18.455849 -6.845720 0.456540
-18.188271 -6.739598 0.903880
0.000029 -0.022833 -0.000921
-13.783149 -5.104649 1.370074
-13.782752 -5.099045 1.717183
-13.764791 -5.089704 2.060978
-13.766103 -5.084746 2.409305
-13.742547 -5.070643 2.757941
-2.972508 -1.110125 -1.877947
-3.126308 -1.165170 -1.871006
-3.310741 -1.231928 -1.874925
-3.509260 -1.303064 -1.876334
-3.734785 -1.383888 -1.882382
-3.989638 -1.476002 -1.891284
-4.243620 -1.566866 -1.887024
-4.555836 -1.678691 -1.893651
-3.244870 -1.201460 -1.257379
-3.262914 -1.206728 -1.173705
-3.259511 -1.204215 -1.082678
0.000037 -0.022451 -0.000905
-3.261972 -1.203175 -0.908956
-3.133026 -1.155890 -0.790236
-3.136935 -1.156071 -0.709780
-3.133471 -1.153583 -0.628467
-3.130503 -1.167353 -0.548444
-3.126918 -1.165427 -0.468701
-3.144205 -1.170506 -0.391644
-3.152261 -1.172192 -0.313846
-3.666433 -1.359014 -0.273671
-3.157490 -1.172236 -0.157507
-4.009782 -1.481007 -0.099835
-3.178439 -1.177987 -0.000800
-18.453503 -6.723940 0.455524
-13.788770 -5.024479 0.683586
-13.785991 -5.020754 1.024975
-13.772866 -5.010566 1.366180
-13.785600 -5.009740 1.713939
-13.760215 -4.997844 2.055976
-13.756045 -4.990924 2.402504
-13.743664 -4.981035 2.752395
-2.980354 -1.093208 -1.878954
-3.131192 -1.146180 -1.870013
-3.315989 -1.211872 -1.873973
-3.523306 -1.284871 -1.879910
-3.742559 -1.361979 -1.882369
-3.999674 -1.453254 -1.892085
-4.254171 -1.542639 -1.887781
-4.565305 -1.652058 -1.893638
-3.251612 -1.182385 -1.257366
-3.255410 -1.182462 -1.168570
-3.257274 -1.181852 -1.079686
-3.260254 -1.182267 -0.993078
-3.270553 -1.184655 -0.909449
-3.132162 -1.134843 -0.788378
-3.134186 -1.134334 -0.707687
-3.130665 -1.131855 -0.626602
-3.140757 -1.150262 -0.549079
-3.129711 -1.145678 -0.468131
-3.148879 -1.151319 -0.391398
-3.155092 -1.152312 -0.313461
-3.647766 -1.328080 -0.271705
-3.152777 -1.149626 -0.156935
-4.010587 -1.454828 -0.099637
-3.183159 -1.158616 -0.000786
-13.813755 -4.948762 0.340066
-13.783465 -4.932533 0.681917
-13.788235 -4.931531 1.023030
-13.773212 -4.920769 1.363402
-13.782280 -4.918590 1.709998
-13.747586 -4.903563 2.049860
-13.754668 -4.900683 2.397325
-13.729382 -4.886326 2.743886
-2.979988 -1.073367 -1.874860
-3.144197 -1.130080 -1.873918
-3.326124 -1.193563 -1.875837
-3.532215 -1.264789 -1.880794
-3.748527 -1.339449 -1.881500
-4.008094 -1.429123 -1.892071
-4.262866 -1.517749 -1.887768
-4.571086 -1.624120 -1.892170
-3.794123 -1.350271 -1.463915
-3.870093 -1.376114 -1.386216
-3.800962 -1.350434 -1.257188
-3.332429 -1.185350 -1.012908
-3.880015 -1.375797 -1.076562
-3.146053 -1.118420 -0.790208
-3.142567 -1.115976 -0.708089
-3.133489 -1.111601 -0.625848
-3.141629 -1.129822 -0.548093
-3.126983 -1.123423 -0.466726
-3.149716 -1.130819 -0.390689
-3.157796 -1.132431 -0.313076
-3.557577 -1.271655 -0.264440
-3.153559 -1.129086 -0.156641
-4.009346 -1.428031 -0.099392
-3.176632 -1.134703 -0.000773
-13.781507 -4.847600 0.338588
-13.794546 -4.846762 0.681087
-13.790748 -4.840034 1.021085
-13.762556 -4.824803 1.359509
-13.776490 -4.826983 1.705825
-13.748253 -4.811750 2.045693
-13.746092 -4.805626 2.390848
-13.723759 -4.795181 2.737228
-2.974784 -1.051342 -1.867705
-3.147420 -1.109888 -1.871945
-3.326339 -1.171122 -1.872068
-3.534464 -1.241689 -1.878089
-3.754332 -1.316864 -1.880631
-4.010939 -1.403845 -1.889617
-4.269923 -1.491455 -1.886984
-4.576726 -1.596193 -1.890702
0.000041 -0.021325 -0.000860
-3.910084 -1.364510 -1.397726
-3.898861 -1.359146 -1.286959
-3.890134 -1.354630 -1.179913
-3.895077 -1.355569 -1.078574
-3.143109 -1.096757 -0.787889
-3.137521 -1.094235 -0.705581
-3.133946 -1.091804 -0.624723
-3.142553 -1.108850 -0.547106
-3.133276 -1.105021 -0.466712
-3.152486 -1.110438 -0.390212
-3.154921 -1.110054 -0.312134
0.000041 -0.021325 -0.000860
-3.158187 -1.109331 -0.156535
-4.013587 -1.403231 -0.099285
-3.179212 -1.114720 -0.000759
-13.806122 -4.764068 0.338504
-13.772981 -4.749996 0.678672
-13.776750 -4.745918 1.018024
-13.760911 -4.737812 1.356730
-13.766341 -4.734312 1.701187
-13.736259 -4.718659 2.039856
-13.737119 -4.716288 2.384695
-13.715695 -4.703635 2.730200
-2.990269 -1.037669 -1.873812
-3.155103 -1.092484 -1.872911
-3.332712 -1.152159 -1.872055
-3.536137 -1.219828 -1.875383
-3.331964 -1.149313 -1.665860
-4.015380 -1.379186 -1.887977
-4.276316 -1.466619 -1.886200
-4.583961 -1.568847 -1.889962
-4.943574 -1.688352 -1.899586
-4.248133 -1.452965 -1.515506
-3.946295 -1.349686 -1.300051
-3.895929 -1.331222 -1.179348
-3.858676 -1.317943 -1.066406
-3.143724 -1.076414 -0.786492
-3.132717 -1.071507 -0.703073
-3.136506 -1.071557 -0.623969
-3.137369 -1.087103 -0.545148
-3.131976 -1.084050 -0.465585
-3.147235 -1.088616 -0.388807
-3.162822 -1.092667 -0.312305
-3.785275 -1.302112 -0.280171
-3.150974 -1.086828 -0.155869
-4.015796 -1.377798 -0.099133
-3.174080 -1.092174 -0.000746
-13.785012 -4.670527 0.337351
-13.777278 -4.662581 0.677562
-13.769703 -4.654675 1.015520
-13.749032 -4.642392 1.352836
-13.757481 -4.642557 1.696781
-13.725537 -4.626502 2.034297
-13.732936 -4.623668 2.379190
-13.705146 -4.611690 2.722803
-2.994603 -1.018977 -1.872777
-3.156437 -1.071713 -1.869958
-3.339370 -1.131994 -1.872041
-3.539793 -1.197320 -1.873575
-3.182480 -1.077312 -1.587986
-4.023125 -1.355655 -1.887964
-4.279562 -1.439103 -1.883875
-4.594824 -1.541823 -1.890676
-4.938829 -1.654765 -1.894102
-4.256551 -1.427356 -1.515492
-4.715585 -1.577253 -1.550229
-4.949560 -1.653528 -1.495183
-3.869979 -1.295861 -1.067406
-3.147898 -1.057305 -0.786018
-3.133133 -1.051233 -0.701811
-3.135031 -1.050643 -0.622474
-3.138006 -1.066206 -0.544161
-3.128649 -1.062491 -0.464180
-3.149739 -1.068288 -0.388329
-3.155915 -1.069130 -0.310992
-3.769873 -1.272377 -0.278484
-3.157229 -1.067725 -0.155855
-4.018079 -1.351682 -0.098981
-3.182086 -1.074121 -0.000732
-13.783899 -4.578873 0.336662
-13.770418 -4.569082 0.675893
-13.762073 -4.563678 1.013016
-13.745164 -4.552782 1.349871
-13.754476 -4.550527 1.693072
-13.731140 -4.540190 2.031243
-13.721706 -4.531785 2.372714
-13.713489 -4.523796 2.719107
-3.000308 -1.001346 -1.872764
-3.162452 -1.053158 -1.869945
-3.344019 -1.111806 -1.871088
-3.546504 -1.176535 -1.873561
0.000023 -0.020220 -0.000815
-3.203755 -1.062941 -1.500763
-4.289413 -1.414628 -1.884632
-4.596414 -1.512655 -1.887753
-4.948160 -1.625924 -1.894089
-4.259190 -1.400708 -1.513559
-4.713563 -1.546158 -1.546642
-4.949734 -1.621661 -1.492414
-3.904871 -1.282099 -1.074989
-3.137146 -1.033399 -0.781854
-3.133429 -1.030994 -0.700550
-3.137173 -1.030995 -0.621720
-3.143975 -1.047742 -0.544147
-3.132704 -1.043455 -0.463888
-3.148163 -1.047288 -0.387388
-3.148636 -1.046232 -0.309678
-3.723910 -1.232980 -0.274566
-3.153717 -1.046069 -0.155376
-3.362011 -1.112519 -0.082786
-3.176696 -1.051706 -0.000719
-13.773781 -4.487314 0.335788
-13.760288 -4.477641 0.674130
-13.757640 -4.474138 1.010792
-13.733136 -4.460912 1.346163
-13.750103 -4.461105 1.689363
-13.724909 -4.450324 2.026519
-13.724925 -4.445045 2.368831
-13.703651 -4.432920 2.712080
-3.007555 -0.984211 -1.873771
-3.168346 -1.034552 -1.869931
-3.346898 -1.091091 -1.869197
-3.558210 -1.157349 -1.876240
-3.774784 -1.225145 -1.876300
-3.173152 -1.032434 -1.483667
-4.139122 -1.339091 -1.815248
-4.603168 -1.485231 -1.887013
-4.953738 -1.595882 -1.892708
-4.259842 -1.373483 -1.510985
-4.733191 -1.522078 -1.550203
-4.977203 -1.598570 -1.497913
-3.906544 -1.257466 -1.073457
-3.142933 -1.014945 -0.781841
-3.133604 -1.010790 -0.699290
-3.135442 -1.010166 -0.620225
-3.140460 -1.026249 -0.542513
-3.127245 -1.021415 -0.462205
-3.146472 -1.026361 -0.386447
-3.154492 -1.027708 -0.309664
0.000032 -0.019837 -0.000800
-3.157672 -1.026911 -0.155270
-3.366360 -1.092176 -0.082727
-3.174956 -1.030587 -0.000705
-13.770694 -4.398448 0.335100
-13.753355 -4.387657 0.672555
-13.750732 -4.384194 1.008428
-13.730005 -4.372341 1.343385
-13.741362 -4.370670 1.685189
-13.714317 -4.359477 2.021238
-13.716323 -4.354860 2.363002
-13.695090 -4.342890 2.705422
-3.006487 -0.964431 -1.869676
-3.167480 -1.013824 -1.865999
-3.351332 -1.070903 -1.868245
-3.556188 -1.133806 -1.871740
-3.781664 -1.203014 -1.876286
-3.259145 -1.038857 -1.521071
-3.605864 -1.145926 -1.578601
-4.613298 -1.458866 -1.887727
-4.964520 -1.567506 -1.893379
-4.260328 -1.346298 -1.508411
-4.761816 -1.500656 -1.556743
-4.953172 -1.559239 -1.487979
-3.906210 -1.232273 -1.071417
-3.144899 -0.995306 -0.780905
-3.129930 -0.989471 -0.697197
-3.135467 -0.989981 -0.619101
-3.142439 -1.006590 -0.541851
-3.132949 -1.003002 -0.462191
-3.144625 -1.005462 -0.385505
-3.156456 -1.007970 -0.309280
-3.309219 -1.055176 -0.243161
-3.163414 -1.008329 -0.155256
-3.364842 -1.070010 -0.082528
-3.180736 -1.011923 -0.000692
-13.761331 -4.307993 0.334272
-13.745850 -4.297905 0.670979
-13.747065 -4.295665 1.006344
-13.720620 -4.282191 1.340048
-13.732035 -4.280482 1.681016
-13.712600 -4.271834 2.017349
-13.712779 -4.266654 2.358147
-13.689729 -4.254284 2.699505
-3.015161 -0.947733 -1.871703
-3.176490 -0.996221 -1.867945
-3.362391 -1.052763 -1.871048
-3.560832 -1.112404 -1.870829
-3.783233 -1.179253 -1.873706
-4.049543 -1.259370 -1.886284
-3.169350 -0.989187 -1.385118
-4.621510 -1.431900 -1.887715
-4.968220 -1.535997 -1.891314
-4.264275 -1.320261 -1.507118
-4.768438 -1.472276 -1.556134
-4.953027 -1.526651 -1.485210
-3.691011 -1.141826 -1.010630
-3.137605 -0.972300 -0.777664
-3.133753 -0.969934 -0.696768
-3.135531 -0.969278 -0.617976
-3.134857 -0.984026 -0.539568
-3.131163 -0.981698 -0.461064
-3.146467 -0.985807 -0.385028
-3.152577 -0.986481 -0.308337
-3.315310 -1.035151 -0.243148
-3.159516 -0.986805 -0.154777
-3.368915 -1.049645 -0.082467
-3.182738 -0.991484 -0.000678
-13.757115 -4.219535 0.333584
-13.735862 -4.207802 0.669309
-13.732113 -4.201435 1.003422
-13.719005 -4.192216 1.337455
-13.724035 -4.191127 1.677074
-13.703486 -4.179667 2.012347
-13.701852 -4.173951 2.351994
-13.676271 -4.163596 2.692106
-3.018975 -0.928961 -1.870669
-3.188901 -0.978984 -1.871850
-3.363391 -1.030892 -1.868218
-3.568974 -1.091403 -1.871713
-3.790046 -1.156407 -1.873693
-4.055071 -1.234413 -1.885458
-3.388969 -1.034087 -1.478371
-3.155559 -0.962957 -1.286847
-4.977147 -1.506130 -1.891302
-5.361244 -1.619898 -1.891214
-4.775163 -1.443051 -1.555526
-6.249791 -1.880514 -1.870502
-3.873768 -1.171972 -1.058730
-3.139481 -0.952187 -0.776729
-3.124328 -0.946485 -0.693428
-3.133587 -0.948057 -0.616482
-3.136746 -0.963893 -0.538906
-3.133028 -0.961587 -0.460494
-3.148340 -0.965599 -0.384551
-3.154444 -0.966233 -0.307952
-3.317447 -1.013929 -0.242855
-3.165204 -0.967668 -0.154763
-3.367326 -1.026985 -0.082269
-3.182711 -0.970495 -0.000665
-13.753061 -4.128868 0.332895
-13.731768 -4.117287 0.667920
-13.729929 -4.111532 1.001476
-13.711086 -4.100711 1.334305
-13.720001 -4.100758 1.673598
-13.699459 -4.089447 2.008179
-13.694098 -4.082651 2.346490
-13.679887 -4.075839 2.688041
-3.025820 -0.911668 -1.871675
-3.194385 -0.960229 -1.871836
-3.367472 -1.010628 -1.867265
-3.583662 -1.072969 -1.876186
-3.801741 -1.135712 -1.876246
-4.061811 -1.211380 -1.885445
0.000040 -0.018325 -0.000739
-3.141267 -0.938614 -1.278831
-4.983563 -1.477395 -1.890604
-4.479250 -1.328055 -1.577511
-4.779611 -1.414066 -1.554321
-6.280397 -1.851131 -1.876553
-3.876644 -1.148191 -1.057704
-3.140893 -0.933155 -0.775792
-3.121946 -0.926454 -0.691751
-3.136822 -0.929594 -0.616098
-3.132685 -0.942650 -0.537272
-3.130646 -0.941454 -0.459367
-3.148031 -0.945393 -0.383841
-3.161755 -0.948227 -0.308124
-3.315302 -0.992759 -0.242284
-3.162943 -0.946784 -0.154377
-3.367317 -1.005503 -0.082116
-3.187970 -0.952317 -0.000651
-13.741955 -4.039096 0.332068
-13.728307 -4.029917 0.666623
-13.723845 -4.026022 0.999391
-13.708799 -4.016427 1.331898
-13.714678 -4.012961 1.670121
-13.687750 -4.002529 2.003177
0.000040 -0.018325 -0.000739
-13.725685 -4.003189 2.692495
-3.027605 -0.892895 -1.869621
-3.196405 -0.940476 -1.869863
-3.376518 -0.991817 -1.869129
-3.582805 -1.049960 -1.872583
-3.804629 -1.112417 -1.874521
-4.072118 -1.188596 -1.887058
0.000027 -0.017963 -0.000724
-3.123231 -0.913456 -1.269361
-4.990077 -1.447778 -1.889908
0.000027 -0.017963 -0.000724
-4.793079 -1.387719 -1.556096
-3.656561 -1.062243 -1.091046
-3.778884 -1.095748 -1.029329
-3.140507 -0.913089 -0.774396
-3.132786 -0.909709 -0.692985
-3.132574 -0.908461 -0.614233
-3.137946 -0.924209 -0.537258
-3.132102 -0.921933 -0.458797
-3.149498 -0.925771 -0.383364
-3.157488 -0.926872 -0.307182
-3.313192 -0.971072 -0.241712
-3.158633 -0.925416 -0.153898
-3.367181 -0.984064 -0.081963
-3.179848 -0.929719 -0.000638
-13.741832 -3.952923 0.331518
-13.722357 -3.942159 0.665234
-13.717917 -3.938310 0.997307
-13.700979 -3.928308 1.328932
-13.710718 -3.925917 1.666876
