# This PCD file was generated using the MATLAB® pcwrite function
# from Computer Vision Toolbox®.
# .PCD v.7 - Point Cloud Data file format
VERSION .7
FIELDS x y z
SIZE 4 4 4
TYPE F F F
COUNT 1 1 1
WIDTH 1625
HEIGHT 1
VIEWPOINT 0 0 0 1 0 0 0
POINTS 1625
DATA ascii
-0.315136 0.137462 -0.316891
-0.326670 0.155272 -0.310712
-0.344131 0.182120 -0.308953
-0.360792 0.207574 -0.305045
-2.263073 3.095355 -1.735536
-2.412454 3.324800 -1.730847
-2.580807 3.581909 -1.726719
-2.762992 3.861817 -1.717544
-2.977645 4.191581 -1.710728
-3.217224 4.557883 -1.699566
-3.505778 5.001088 -1.692325
-0.001922 -0.336754 -0.013984
-3.308377 4.705857 -1.301987
-3.319993 4.727353 -1.160933
-0.001922 -0.336754 -0.013984
-0.001922 -0.336754 -0.013984
-3.315615 4.680110 -0.722121
-3.326477 4.700233 -0.583127
-3.339710 4.722116 -0.443881
-3.341503 4.728533 -0.302994
-3.349184 4.743948 -0.161323
-3.361441 4.764348 -0.020086
-0.001922 -0.336754 -0.013984
-0.001922 -0.336754 -0.013984
-3.474152 4.945168 0.421681
-0.001922 -0.336754 -0.013984
-15.827221 23.772156 3.329315
-15.840556 23.801073 4.014094
-0.001922 -0.336754 -0.013984
-0.001922 -0.336754 -0.013984
-0.309292 0.134329 -0.348130
-0.300936 0.121880 -0.322133
-0.317212 0.147025 -0.321578
-0.323822 0.157511 -0.310695
-0.339170 0.181418 -0.307221
-0.366616 0.223776 -0.312365
-2.240249 3.104057 -1.733189
-2.390317 3.337427 -1.730088
-2.558191 3.597073 -1.726689
-2.739784 3.879621 -1.718154
-2.952563 4.210611 -1.711293
-3.190014 4.578316 -1.700084
-3.472861 5.018318 -1.691272
-3.803440 5.530380 -1.677724
-3.277135 4.721923 -1.301116
-3.354836 4.845724 -1.183234
-0.001931 -0.336397 -0.013969
-3.489506 5.006470 -0.917158
-3.501526 5.028883 -0.768405
-3.328943 4.768042 -0.588537
-3.342112 4.790087 -0.447949
-3.346068 4.799947 -0.305909
-3.352582 4.813784 -0.162740
-3.364712 4.834282 -0.020110
-0.001931 -0.336397 -0.013969
-3.282634 4.715569 0.260934
-3.293753 4.734489 0.402739
-3.262032 4.689374 0.538908
-0.001931 -0.336397 -0.013969
-15.813325 24.065107 4.042949
-7.891334 11.848248 2.356062
-12.927261 19.640718 4.444531
-0.304711 0.133571 -0.346069
-0.298284 0.123970 -0.322116
-0.308698 0.140288 -0.315917
-0.325806 0.167236 -0.315173
-0.336175 0.183725 -0.307203
-0.372269 0.240064 -0.319686
-2.218398 3.114163 -1.731615
-2.369112 3.351502 -1.730058
-2.533455 3.608950 -1.725286
-2.713418 3.892497 -1.716838
-2.923220 4.223096 -1.709466
-3.163738 4.600197 -1.701156
-3.439892 5.035321 -1.690219
-3.769578 5.552559 -1.677685
-0.001918 -0.336018 -0.013953
-4.666404 6.965075 -1.655214
-3.423733 4.970730 -1.057796
-3.653934 5.329771 -0.968139
-3.487774 5.076040 -0.772111
-3.329663 4.834369 -0.593759
-3.343826 4.858272 -0.452017
-3.352063 4.874962 -0.309012
-3.359609 4.890557 -0.164350
-3.369465 4.907778 -0.020138
-3.383049 4.932878 0.125182
-0.001918 -0.336018 -0.013953
-0.001918 -0.336018 -0.013953
-0.001918 -0.336018 -0.013953
-0.001918 -0.336018 -0.013953
-13.011122 19.996513 3.354042
-7.802963 11.865565 2.350647
-12.776041 19.658831 4.432102
-0.302918 0.137131 -0.347074
-0.297501 0.128976 -0.324062
-0.314476 0.155816 -0.324366
-0.323852 0.170977 -0.316055
-0.342856 0.201269 -0.315761
-0.411906 0.310460 -0.355541
-2.198487 3.127248 -1.731586
-2.344838 3.360733 -1.727840
-2.510008 3.624270 -1.725254
-2.690025 3.910025 -1.717448
-2.895904 4.238595 -1.708835
-3.130260 4.612769 -1.698908
-3.407861 5.053774 -1.689673
-3.732488 5.571899 -1.676719
-4.128982 6.204634 -1.665745
-4.621942 6.991341 -1.654796
-3.406896 5.012352 -1.062001
-3.602174 5.323314 -0.963335
-3.455485 5.094716 -0.771840
-3.338272 4.914322 -0.600482
-3.341830 4.923841 -0.455801
-3.358413 4.951869 -0.312211
-3.370156 4.974329 -0.166153
-3.370397 4.978727 -0.020160
-0.001927 -0.335660 -0.013939
-0.001927 -0.335660 -0.013939
-0.001927 -0.335660 -0.013939
-0.001927 -0.335660 -0.013939
-3.284651 4.858838 0.698498
-12.844786 20.001669 3.342256
-7.815746 12.047214 2.376818
-12.604053 19.642630 4.412307
-0.309251 0.153837 -0.357275
-0.304006 0.145848 -0.333859
-0.327492 0.183456 -0.340340
-0.351229 0.221662 -0.344811
-0.361733 0.238864 -0.335465
-0.001914 -0.335281 -0.013923
-2.182779 3.148427 -1.735419
-2.321863 3.373377 -1.727080
-2.484160 3.634254 -1.723165
-2.663765 3.924682 -1.716773
-2.868685 4.256084 -1.708801
-3.100707 4.629431 -1.698320
-3.374781 5.072638 -1.689127
-3.694277 5.587064 -1.674828
-4.090201 6.227016 -1.665285
-4.572399 7.006521 -1.652146
-3.385583 5.049557 -1.065225
-3.545300 5.305753 -0.956850
-3.417923 5.107070 -0.770633
-3.366312 5.028856 -0.610959
-3.345389 4.997452 -0.460291
-3.360915 5.026238 -0.315219
-3.365099 5.036970 -0.167326
-3.373691 5.052654 -0.020186
-0.001914 -0.335281 -0.013923
-0.001914 -0.335281 -0.013923
-13.075428 20.594578 1.687267
-3.102123 4.631717 0.526516
-3.112896 4.652699 0.667668
-12.674011 19.989920 3.328258
-7.767269 12.129223 2.383975
-0.001914 -0.335281 -0.013923
-0.303705 0.151588 -0.354193
-0.320496 0.179067 -0.354451
-0.334735 0.202184 -0.350671
-0.367764 0.255931 -0.363676
-0.401211 0.310430 -0.374032
-2.054251 2.984669 -1.756135
-2.160738 3.158164 -1.733845
-2.302429 3.390212 -1.728509
-2.457589 3.644502 -1.721076
-2.636197 3.935486 -1.714814
-2.839188 4.268019 -1.706974
-3.071189 4.648107 -1.698284
-3.343581 5.092344 -1.689090
-3.659081 5.609232 -1.674788
-4.049145 6.248199 -1.664407
-4.526689 7.030545 -1.651355
-5.152006 7.966784 -1.628828
-3.489851 5.291709 -0.950925
-3.467078 5.257034 -0.788606
-3.367849 5.101002 -0.616742
-3.351482 5.078635 -0.465347
-3.355210 5.086631 -0.317465
-3.366699 5.109334 -0.168789
-3.385808 5.144394 -0.020231
-0.001923 -0.334923 -0.013908
-13.005780 20.745016 1.116769
-12.885054 20.565130 1.678703
-12.747374 20.357454 2.229366
-12.638013 20.187389 2.780494
-12.499232 19.977362 3.313985
-7.530883 11.911432 2.333440
-7.240776 11.443839 2.576883
-0.302609 0.156670 -0.356219
-0.311998 0.172383 -0.348545
-0.339811 0.218086 -0.359119
-0.366103 0.261519 -0.365457
-0.472813 0.436467 -0.442608
-2.028427 2.985907 -1.750399
-2.139969 3.171289 -1.733815
-2.283822 3.408564 -1.730666
-2.439522 3.666968 -1.724474
-2.611567 3.950951 -1.714782
-2.814630 4.287904 -1.708136
-3.042435 4.666078 -1.698248
-3.311253 5.110230 -1.688544
-3.625775 5.632252 -1.675211
-4.012302 6.271085 -1.664366
-4.480374 7.047686 -1.649449
-5.101616 7.995898 -1.628452
-3.348850 5.134725 -0.921457
-3.364409 5.164331 -0.772896
-6.708611 10.641604 -1.226648
-3.356633 5.157805 -0.470261
-0.001910 -0.334544 -0.013893
-0.001910 -0.334544 -0.013893
-0.001910 -0.334544 -0.013893
-12.968579 20.950741 0.540372
-12.832197 20.734610 1.112310
-12.713650 20.555826 1.672064
-12.582986 20.348684 2.220823
-12.470087 20.178690 2.769536
-12.335775 19.973169 3.301645
-7.584283 12.154420 2.371859
-7.203402 11.536121 2.587998
-0.304303 0.166071 -0.361312
-0.315452 0.184933 -0.355398
-0.333996 0.215787 -0.356280
-0.371986 0.279219 -0.374430
-0.477694 0.455008 -0.451165
-2.013031 3.004161 -1.753631
-2.123203 3.188297 -1.736104
-2.262223 3.422019 -1.730636
-2.412557 3.674879 -1.721699
-2.585848 3.964676 -1.714107
-2.786960 4.302781 -1.707504
-3.009608 4.677308 -1.696000
-3.278849 5.127910 -1.687999
-3.587351 5.646719 -1.673320
-3.971026 6.291781 -1.663487
-4.435483 7.072816 -1.649031
-5.049909 8.016178 -1.626772
-3.343921 5.198347 -0.928707
-3.345967 5.203800 -0.775666
-0.001919 -0.334186 -0.013878
-7.754300 12.523885 -1.078496
-10.086193 16.397755 -0.944008
-10.682129 17.400066 -0.514712
-12.930441 21.149723 -0.038322
-12.792823 20.928949 0.538027
-12.663313 20.729733 1.108216
-12.531512 20.526403 1.663910
-12.409829 20.339653 2.211917
-12.301680 20.167019 2.758348
-12.167715 19.959255 3.287923
-7.670322 12.467081 2.422853
-0.001919 -0.334186 -0.013878
-0.296919 0.160848 -0.356185
-0.305230 0.175176 -0.347529
-0.333418 0.222682 -0.359085
-0.369258 0.283303 -0.375312
-0.473017 0.458172 -0.451147
-1.988182 3.006631 -1.748711
-2.100380 3.198022 -1.734529
-2.237993 3.432535 -1.729146
-2.388457 3.687465 -1.720981
-2.558376 3.977034 -1.712790
-2.758426 4.317953 -1.706872
-2.978738 4.691610 -1.694858
-3.243415 5.142646 -1.686435
-3.551863 5.665961 -1.672817
-3.931797 6.313226 -1.663027
-4.391752 7.096907 -1.648613
-4.995207 8.037892 -1.625091
-5.417315 8.748909 -1.510512
-5.841383 9.467719 -1.357301
-0.001907 -0.333807 -0.013863
-7.676038 12.561834 -1.077862
-9.987774 16.459370 -0.944018
-10.528703 17.382717 -0.512349
-12.755425 21.138218 -0.038120
-12.614404 20.917126 0.535863
-12.489199 20.722355 1.103941
-12.367403 20.524784 1.658096
-12.239809 20.325457 2.202826
-12.137314 20.168198 2.748774
-7.620503 12.542109 2.073968
-0.001907 -0.333807 -0.013863
-7.043142 11.584661 2.580391
-0.297552 0.168835 -0.360255
-0.304936 0.181796 -0.350456
-0.332900 0.229506 -0.361889
-0.365698 0.285775 -0.375294
-0.467522 0.459693 -0.450270
-1.964278 3.010524 -1.744606
-2.080924 3.212026 -1.735271
-2.218141 3.448944 -1.730574
-2.367162 3.704753 -1.722322
-2.528720 3.983887 -1.709546
-2.729663 4.330827 -1.705642
-2.946839 4.704062 -1.693163
-3.209860 5.158265 -1.685380
-3.518217 5.688372 -1.673240
-3.889501 6.329371 -1.661314
-4.345915 7.117346 -1.647450
-4.939912 8.054973 -1.622759
-5.407081 8.852017 -1.522231
-5.789873 9.510118 -1.358414
-6.587580 10.875405 -1.239419
-7.570316 12.552867 -1.073408
-9.888861 16.513540 -0.943742
-10.813880 18.103977 -0.530781
-12.577950 21.120234 -0.037913
-12.447335 20.913872 0.534009
-12.318286 20.709787 1.099573
-12.205781 20.525391 1.652557
-12.074423 20.316839 2.194469
-11.962943 20.142019 2.735973
-11.871265 19.992674 3.270983
-11.815818 19.913418 3.814179
-6.980337 11.635553 2.582666
-0.295613 0.172334 -0.361260
-0.305570 0.189868 -0.354364
-0.326993 0.227201 -0.359050
-0.365816 0.294359 -0.378873
-0.464899 0.465782 -0.451967
-1.946812 3.025316 -1.746207
-2.063247 3.229106 -1.737559
-2.195116 3.458421 -1.729085
-2.341984 3.715437 -1.720917
-2.505703 4.002033 -1.710797
-2.700835 4.343546 -1.704412
-2.919690 4.724659 -1.694232
-3.178194 5.177015 -1.685342
-3.481447 5.707832 -1.672736
-3.848921 6.351007 -1.660852
-4.297052 7.132401 -1.645171
-4.889029 8.075971 -1.621405
-5.395860 8.955296 -1.533948
-5.770709 9.604509 -1.366778
-6.532860 10.926181 -1.240859
-7.544999 12.681192 -1.080269
-9.803691 16.591320 -0.944797
-10.568496 17.918739 -0.523824
-7.447850 12.538398 -0.028169
-12.273754 20.897261 0.531844
-12.150910 20.701174 1.095480
-12.038572 20.514473 1.646193
-0.001907 -0.333066 -0.013832
-11.845833 20.212637 2.736305
-11.819656 20.183262 3.290437
-11.802452 20.161077 3.848125
-0.001907 -0.333066 -0.013832
-0.288239 0.167035 -0.356133
-0.301500 0.190573 -0.353366
-0.328040 0.237153 -0.363735
-0.362870 0.298482 -0.379754
-0.466421 0.479870 -0.457950
-1.928647 3.040355 -1.747808
-2.038405 3.235250 -1.734438
-2.171651 3.470129 -1.728324
-2.319780 3.732889 -1.722257
-2.484435 4.023348 -1.713332
-2.673847 4.359395 -1.704377
-2.889628 4.742255 -1.694195
-3.142566 5.188880 -1.683270
-3.445642 5.726447 -1.672233
-3.810559 6.371068 -1.660392
-4.255911 7.160820 -1.645868
-4.844427 8.118035 -1.623635
-5.390854 9.075141 -1.548186
-5.712866 9.645100 -1.367421
-6.484723 11.002534 -1.244736
-7.484469 12.755543 -1.082603
-9.720932 16.680777 -0.946421
-10.422343 17.915499 -0.521894
-12.226145 21.091095 -0.037507
-12.101995 20.890179 0.529904
-11.976160 20.677418 1.090656
-0.001894 -0.332687 -0.013817
-7.565691 12.954210 1.397770
-11.820620 20.444927 2.758294
-11.806052 20.435581 3.320117
-7.303237 12.518181 2.399920
-6.757600 11.567121 2.550745
-0.282896 0.164513 -0.353050
-0.297714 0.191090 -0.352367
-0.324844 0.239342 -0.363718
-0.357580 0.297748 -0.377938
-0.456413 0.473452 -0.452787
-1.909793 3.051422 -1.747779
-2.018450 3.246937 -1.734408
-2.147891 3.479684 -1.726835
-2.297019 3.746162 -1.722225
-2.453719 4.028056 -1.709446
-2.645847 4.373411 -1.703745
-2.861237 4.758679 -1.694160
-3.109776 5.205554 -1.682724
-3.412699 5.747656 -1.672655
-3.770941 6.391548 -1.659931
-4.205956 7.173573 -1.643216
-4.789389 8.131576 -1.620977
-5.385990 9.189928 -1.561864
-5.696127 9.746393 -1.376719
-6.443844 11.078802 -1.248992
-7.391651 12.762749 -1.079705
-7.248249 12.518759 -0.715960
-7.244106 12.521540 -0.370465
-0.001903 -0.332330 -0.013802
-0.001903 -0.332330 -0.013802
-0.001903 -0.332330 -0.013802
-0.001903 -0.332330 -0.013802
-7.175998 12.440521 1.338816
-11.799952 20.689711 2.781897
-11.799403 20.696747 3.351457
-7.222369 12.548307 2.397732
-0.001903 -0.332330 -0.013802
-0.285053 0.175503 -0.359164
-0.294694 0.193153 -0.352350
-0.322400 0.243107 -0.364641
-0.357421 0.306398 -0.381517
-0.454387 0.481174 -0.455341
-1.889669 3.063068 -1.747749
-1.996887 3.257271 -1.733605
-2.124084 3.489105 -1.725345
-2.270946 3.756804 -1.720820
-2.430415 4.045779 -1.710697
-2.615911 4.383940 -1.701917
-2.827251 4.769205 -1.691910
-3.077818 5.223745 -1.682685
-3.374665 5.764768 -1.671688
-3.727179 6.407331 -1.658216
-4.156605 7.190146 -1.641308
-4.738630 8.155944 -1.620273
-0.001890 -0.331950 -0.013787
-5.636058 9.775917 -1.376194
-6.394472 11.145676 -1.252119
-7.184795 12.574885 -1.060826
-0.001890 -0.331950 -0.013787
-7.165116 12.554655 -0.370155
-11.908663 21.105320 -0.037159
-7.124051 12.495869 0.312872
-11.839038 21.005083 1.100811
-0.001890 -0.331950 -0.013787
-0.001890 -0.331950 -0.013787
-0.001890 -0.331950 -0.013787
-0.001890 -0.331950 -0.013787
-0.001890 -0.331950 -0.013787
-7.042233 12.408783 2.714460
-0.281203 0.176040 -0.358125
-0.289048 0.190674 -0.349388
-0.318127 0.243825 -0.363683
-0.349305 0.301055 -0.377003
-0.451428 0.487311 -0.457037
-1.867445 3.069457 -1.745274
-1.977319 3.272662 -1.735120
-2.104714 3.506548 -1.727501
-2.244648 3.765238 -1.718730
-2.405153 4.060074 -1.710663
-2.589628 4.400959 -1.702480
-2.798728 4.787470 -1.692426
-3.044837 5.240050 -1.682138
-3.332974 5.772508 -1.668406
-3.690411 6.430131 -1.658590
-4.113573 7.211897 -1.640889
-4.686276 8.180820 -1.619569
-5.380201 9.445594 -1.592857
-5.545355 9.753852 -1.368652
-6.333921 11.197741 -1.253555
-7.448297 13.231980 -1.110532
-9.449561 16.891058 -0.948536
-6.869675 12.192841 -0.358971
-11.852286 21.296677 -0.037186
-0.001899 -0.331593 -0.013772
-11.820512 21.264299 1.110865
-11.800394 21.244814 1.682390
-6.887993 12.266145 1.311922
-0.001899 -0.331593 -0.013772
-0.001899 -0.331593 -0.013772
-0.001899 -0.331593 -0.013772
-0.001899 -0.331593 -0.013772
-0.280826 0.182491 -0.361173
-0.289447 0.198768 -0.353296
-0.312385 0.241295 -0.360843
-0.347484 0.306480 -0.378784
-0.439834 0.477530 -0.450160
-1.849560 3.083735 -1.746875
-1.953651 3.277518 -1.732000
-2.078142 3.510781 -1.723823
-2.222812 3.781757 -1.720070
-2.378009 4.070891 -1.709345
-2.561409 4.414490 -1.701846
-2.765561 4.797089 -1.690177
-3.009935 5.252756 -1.680574
-3.300518 5.797115 -1.669754
-3.647454 6.447094 -1.657293
-4.065025 7.229604 -1.639353
-4.635838 8.202019 -1.618541
-5.321927 9.473284 -1.592241
-5.520203 9.842636 -1.376312
-6.288410 11.268308 -1.257246
-6.647120 11.939992 -1.002853
-9.359896 16.956213 -0.949115
-10.421577 18.933010 -0.542974
-11.834980 21.563755 -0.037292
-11.812339 21.530354 0.539629
-11.804131 21.532799 1.121378
-11.773503 21.493641 1.696673
-11.762108 21.490078 2.275270
-11.748820 21.473858 2.858942
-11.721721 21.441143 3.437480
-11.696678 21.412119 4.018531
-16.948492 31.188765 6.693834
-0.275341 0.179956 -0.358091
-0.281353 0.191624 -0.347391
-0.308159 0.241929 -0.359885
-0.343692 0.308890 -0.378766
-0.443528 0.496430 -0.458715
-1.829845 3.094708 -1.746845
-1.933074 3.291033 -1.732741
-2.059681 3.531629 -1.727438
-2.196429 3.789885 -1.717980
-2.351854 4.085279 -1.709311
-2.532321 4.428268 -1.701213
-2.737780 4.816691 -1.691246
-2.975832 5.269180 -1.680026
-3.264263 5.814660 -1.669250
-3.607428 6.466635 -1.656831
-4.019568 7.249785 -1.638561
-4.582324 8.224525 -1.617510
-5.260698 9.495408 -1.590783
-5.446619 9.851057 -1.372979
-6.250441 11.363729 -1.263373
-7.287807 13.310561 -1.109820
-9.268446 17.032949 -0.950166
-10.313686 19.007206 -0.543213
-11.656956 21.534832 -0.037080
-11.778299 21.780411 0.544283
-11.780272 21.802088 1.131804
-11.761024 21.774559 1.713435
-11.738123 21.749487 2.295425
-11.725458 21.743561 2.885322
-12.593686 23.387625 3.734530
-12.652547 23.517855 4.395507
-12.691281 23.610323 5.065046
-0.270796 0.178842 -0.356030
-0.281585 0.199765 -0.351299
-0.305678 0.245613 -0.360808
-0.339995 0.311222 -0.378748
-0.430326 0.483352 -0.450122
-1.807534 3.100703 -1.744370
-1.910450 3.299217 -1.731165
-2.033063 3.535553 -1.723760
-2.172661 3.802828 -1.717947
-2.323737 4.094084 -1.707351
-2.504856 4.443150 -1.701178
-2.701841 4.820822 -1.687338
-2.942635 5.284873 -1.679479
-3.227901 5.832007 -1.668745
-3.565495 6.482464 -1.655534
-3.969462 7.260989 -1.635908
-4.531122 8.247657 -1.616806
-5.199394 9.517150 -1.589324
-5.422159 9.947637 -1.381571
-6.176486 11.387565 -1.261994
-7.207277 13.349125 -1.109464
-9.169227 17.088165 -0.950171
-10.488769 19.611696 -0.557991
-11.497321 21.538240 -0.036903
-11.774416 22.083673 0.550318
-11.759386 22.073359 1.142412
-11.726208 22.018970 1.727309
-12.314388 23.159378 2.435495
-12.374235 23.292915 3.079462
-12.402691 23.356558 3.718335
-12.483902 23.531185 4.384663
-12.504030 23.589273 5.045267
-0.271028 0.186856 -0.360100
-0.275320 0.195541 -0.347356
-0.303156 0.249299 -0.361731
-0.341232 0.323042 -0.384125
-0.436454 0.507023 -0.461249
-1.788827 3.114970 -1.745970
-1.892913 3.317070 -1.734225
-2.012479 3.550866 -1.725187
-2.148077 3.816028 -1.717913
-2.300811 4.112818 -1.709242
-2.473806 4.451087 -1.698752
-2.669438 4.833733 -1.686193
-2.906704 5.295207 -1.677407
-3.186829 5.842757 -1.666389
-3.523211 6.500388 -1.654653
-3.925243 7.286520 -1.636232
-4.479822 8.270470 -1.616102
-5.142694 9.551708 -1.589826
-5.372041 9.996675 -1.383850
-6.119920 11.444499 -1.264181
-7.193069 13.521278 -1.119709
-9.043909 17.093172 -0.947515
-10.405040 19.732477 -0.559532
-0.001892 -0.330119 -0.013712
-11.749962 22.353880 0.555508
-11.732096 22.338015 1.152658
-12.097429 23.063286 1.803130
-12.133658 23.152761 2.427338
-12.194240 23.279400 3.068517
-12.225600 23.359657 3.707394
-12.304109 23.531498 4.371243
-12.325575 23.582569 5.028804
-0.272653 0.198001 -0.366213
-0.272186 0.197531 -0.347339
-0.301324 0.254585 -0.363595
-0.334897 0.320652 -0.381409
-0.429016 0.505124 -0.458659
-1.767283 3.122335 -1.744310
-1.867865 3.322043 -1.731103
-1.988557 3.561453 -1.724425
-2.124163 3.828691 -1.717880
-2.273553 4.125061 -1.708566
-2.445390 4.466045 -1.698716
-2.640535 4.851087 -1.686709
-2.875905 5.317889 -1.678892
-3.149445 5.857916 -1.665421
-3.482927 6.519185 -1.654191
-3.883096 7.312863 -1.636928
-4.427820 8.295496 -1.615723
-5.065803 9.542769 -1.583604
-5.325175 10.057007 -1.387530
-6.059928 11.500463 -1.266177
-7.135002 13.605450 -1.123027
-8.996770 17.257160 -0.953315
-10.331311 19.883242 -0.561842
-11.166257 21.525824 -0.036530
-11.646071 22.484098 0.557139
-11.673630 22.557091 1.160444
-11.918108 23.045813 1.796501
-11.953044 23.133856 2.418258
-12.012514 23.270210 3.058035
-12.043188 23.339954 3.693410
-12.118206 23.507271 4.353951
-12.136307 23.562721 5.009396
-0.268829 0.198389 -0.365174
-0.268367 0.197883 -0.346340
-0.293176 0.247218 -0.357934
-0.328737 0.318135 -0.378695
-0.422558 0.504726 -0.456925
-1.749010 3.136086 -1.745910
-1.847642 3.334741 -1.731845
-1.968627 3.578192 -1.726581
-2.100168 3.841228 -1.717847
-2.246138 4.135077 -1.707247
-2.413448 4.471879 -1.695692
-2.608919 4.863145 -1.685565
-2.837256 5.322620 -1.675294
-3.113758 5.876313 -1.665379
-3.441659 6.536008 -1.653311
-3.835493 7.328438 -1.635391
-4.376275 8.317709 -1.615018
-5.007079 9.568605 -1.582986
-0.001888 -0.329382 -0.013682
-5.997963 11.547984 -1.267424
-7.086988 13.710784 -1.128041
-0.001888 -0.329382 -0.013682
-10.314583 20.140966 -0.567098
-11.083379 21.675869 -0.036509
-11.624147 22.769045 0.562690
-11.650212 22.840286 1.171608
-11.746564 23.041309 1.790973
-11.776616 23.120775 2.409913
-11.836304 23.259449 3.047783
-11.867604 23.331362 3.681361
-11.938293 23.492292 4.338594
-11.958042 23.551685 4.992565
-0.262711 0.194136 -0.361069
-0.269205 0.207583 -0.351229
-0.292218 0.253986 -0.360738
-0.322618 0.315573 -0.375980
-0.416953 0.505875 -0.456049
-1.727390 3.143199 -1.744249
-1.827323 3.347342 -1.732587
-1.943602 3.584826 -1.724361
-2.073609 3.848567 -1.715757
-2.221223 4.150005 -1.707855
-2.384066 4.482638 -1.694462
-2.578107 4.876734 -1.684974
-2.804651 5.339235 -1.675254
-3.075382 5.889270 -1.663948
-3.399480 6.550800 -1.652013
-3.792181 7.352539 -1.635715
-4.327278 8.344902 -1.615292
-4.948228 9.594092 -1.582368
-5.304348 10.317524 -1.413594
-5.913489 11.550609 -1.263980
-7.030873 13.801759 -1.131922
-8.726016 17.224392 -0.945910
-10.390387 20.590775 -0.577516
-10.972478 21.771931 -0.036431
-11.512260 22.878946 0.563876
-11.669179 23.215250 1.187431
-11.643666 23.173283 1.796046
-11.641378 23.188553 2.410030
-0.001875 -0.329003 -0.013666
-11.687275 23.310856 3.667654
-11.763347 23.484871 4.324848
-11.773343 23.525303 4.972785
-0.255148 0.186743 -0.354921
-0.263034 0.203236 -0.347286
-0.290403 0.259201 -0.362601
-0.320462 0.321005 -0.377759
-0.414526 0.513492 -0.458602
-1.707363 3.153461 -1.744219
-1.805309 3.356517 -1.731783
-1.918565 3.591316 -1.722141
-2.048681 3.859130 -1.715037
-2.192897 4.157987 -1.705894
-2.360476 4.505258 -1.697412
-2.549763 4.895326 -1.686042
-2.771091 5.353946 -1.674705
-3.038659 5.905508 -1.663442
-3.358074 6.567134 -1.651132
-3.745312 7.369308 -1.634550
-4.270288 8.355884 -1.612630
-4.882262 9.605023 -1.579507
-5.295459 10.455250 -1.427559
-5.888827 11.674212 -1.273294
-6.988909 13.922980 -1.138206
-8.638853 17.303419 -0.947338
-10.267976 20.647045 -0.577312
-10.938183 22.025555 -0.036514
-11.396855 22.982946 0.564929
-11.647391 23.515789 1.199423
-11.618418 23.466228 1.813513
-11.610530 23.470343 2.432224
-11.240081 22.730543 2.962282
-11.575237 23.427980 3.675516
-11.576780 23.451397 4.306590
-11.602258 23.524103 4.958534
-0.254431 0.193196 -0.357969
-0.263756 0.212948 -0.352175
-0.288538 0.264410 -0.364464
-0.319817 0.329639 -0.381337
-0.409654 0.516238 -0.458583
-1.686481 3.161958 -1.743373
-1.784048 3.367221 -1.731752
-1.894340 3.599307 -1.720650
-2.025341 3.872919 -1.715689
-2.166204 4.169193 -1.705217
-2.334254 4.522573 -1.698571
-2.515483 4.901614 -1.683239
-2.737480 5.368430 -1.674157
-3.002696 5.923274 -1.663400
-3.314071 6.577907 -1.648999
-3.692412 7.373403 -1.630780
-4.218487 8.377139 -1.611925
-4.822371 9.628003 -1.578608
-5.282580 10.587839 -1.440822
-5.801411 11.670637 -1.269287
-6.971810 14.098077 -1.148729
-0.001875 -0.328262 -0.013636
-10.213878 20.844872 -0.580920
-11.068954 22.627203 -0.036947
-11.370004 23.271935 0.570576
-11.614717 23.800659 1.210595
-11.601438 23.783005 1.832771
-11.582860 23.765114 2.455707
-11.082169 22.743292 2.955714
-11.547960 23.723156 3.711032
-11.521601 23.688858 4.337664
-11.504648 23.674160 4.975974
-0.250668 0.193473 -0.356930
-0.255388 0.203800 -0.345289
-0.284357 0.264829 -0.363506
-0.312950 0.325375 -0.377723
-0.401677 0.512416 -0.455135
-1.671052 3.181877 -1.748234
-1.763517 3.379473 -1.732493
-1.872477 3.612206 -1.721347
-2.001914 3.886575 -1.716341
-2.140259 4.181963 -1.705182
-2.303011 4.529396 -1.696145
-2.484500 4.914637 -1.682648
-2.704637 5.384453 -1.674117
-2.966646 5.940822 -1.663357
-3.270056 6.588406 -1.646865
-3.648842 7.396672 -1.631103
-4.162325 8.389192 -1.609589
-4.763253 9.652390 -1.577989
-5.280295 10.745757 -1.457356
-5.769876 11.783317 -1.277473
-6.904032 14.170790 -1.151194
-8.336510 17.195009 -0.936229
-10.386141 21.523108 -0.597359
-10.998354 22.821005 -0.036962
-11.298209 23.472849 0.574040
-11.594566 24.118418 1.223414
-11.572638 24.082346 1.850655
-11.562408 24.081938 2.481400
-11.024745 22.966904 2.976345
-11.523621 24.031313 3.748486
-11.496105 23.994291 4.380992
-11.487103 23.996315 5.029161
-0.249864 0.199924 -0.359978
-0.255276 0.211938 -0.349197
-0.280950 0.266803 -0.363489
-0.307661 0.324292 -0.375907
-0.397606 0.516699 -0.455974
-1.647098 3.185477 -1.744942
-1.739004 3.383249 -1.729371
-1.848966 3.621598 -1.720586
-1.976076 3.897039 -1.715622
-2.115054 4.196290 -1.705789
-2.275797 4.544680 -1.696705
-2.450095 4.922686 -1.680398
-2.670864 5.398554 -1.673569
-2.926917 5.953401 -1.661925
-3.228136 6.606275 -1.646401
-3.602104 7.416778 -1.630681
-4.111214 8.411593 -1.609210
-0.001872 -0.327526 -0.013606
-5.270473 10.891408 -1.472253
-5.714397 11.847361 -1.280593
-6.813653 14.202823 -1.150407
-8.206642 17.181576 -0.932908
-10.366102 21.809263 -0.603277
-10.787933 22.730406 -0.036687
-13.990543 29.589344 0.723198
-13.853533 29.322258 1.482805
-11.545746 24.404049 1.870059
-10.514207 22.213804 2.284115
-10.898812 23.048351 2.978768
-11.495145 24.349176 3.787052
-11.465706 24.307562 4.425293
-11.463750 24.313704 5.081245
-0.250335 0.209561 -0.365069
-0.252808 0.215375 -0.350161
-0.276677 0.267215 -0.362530
-0.311276 0.342685 -0.384879
-0.393342 0.521047 -0.456812
-1.628366 3.198585 -1.746542
-1.717712 3.395554 -1.730112
-1.824728 3.631164 -1.719824
-1.949350 3.903597 -1.713531
-2.088159 4.209137 -1.705753
-2.248441 4.561928 -1.697863
-2.419003 4.935336 -1.679806
-2.636022 5.412917 -1.673019
-2.888266 5.965205 -1.660494
-3.186516 6.621561 -1.645520
-3.554165 7.430614 -1.629143
-4.055958 8.429045 -1.607851
-4.637066 9.688377 -1.574788
-5.257979 11.040050 -1.487380
-5.651256 11.901287 -1.282587
-6.740728 14.265731 -1.152164
-8.309327 17.678375 -0.956271
-10.180155 21.752726 -0.600027
-10.808974 23.126730 -0.036902
-13.823650 29.695799 0.723929
-13.695724 29.444227 1.484965
-13.574360 29.192890 2.228926
-10.321033 22.136801 2.270247
-8.022771 17.149094 2.217515
-11.480034 24.692568 3.829767
-11.440425 24.628328 4.471208
-11.438487 24.646130 5.135915
-0.239393 0.194143 -0.353813
-0.249671 0.217188 -0.350143
-0.273243 0.269161 -0.362513
-0.301490 0.331819 -0.377669
-0.389198 0.525300 -0.457651
-1.605765 3.203281 -1.744066
-1.696247 3.405744 -1.730080
-1.801878 3.641991 -1.719791
-1.926492 3.918549 -1.714868
-2.061209 4.219732 -1.705076
-2.221018 4.576911 -1.698424
-2.387855 4.947797 -1.679214
-2.599733 5.421315 -1.670946
-2.850360 5.978567 -1.659525
-3.144826 6.636602 -1.644639
-3.505387 7.442363 -1.627233
-4.002188 8.445438 -1.606493
-4.585878 9.729693 -1.576969
-5.239357 11.173537 -1.500638
-5.621965 12.024616 -1.291896
-6.695395 14.390019 -1.158726
-0.001868 -0.326789 -0.013575
-10.149549 22.024338 -0.605555
-10.681990 23.207161 -0.036800
-10.824191 23.541784 0.571326
-13.550438 29.581181 1.488036
-13.423072 29.312721 2.232240
-13.301828 29.071232 2.967522
-0.001868 -0.326789 -0.013575
-11.443432 24.996866 3.866400
-11.416723 24.960382 4.519059
-11.406013 24.959209 5.186900
-0.238493 0.200584 -0.356860
-0.249391 0.225330 -0.354051
-0.269795 0.271093 -0.362495
-0.302081 0.343678 -0.383045
-0.386486 0.532845 -0.460203
-1.587631 3.217848 -1.746480
-1.672462 3.410762 -1.727731
-1.777467 3.649269 -1.718300
-1.899712 3.924790 -1.712777
-2.036530 4.235353 -1.706325
-2.191199 4.586483 -1.697192
-2.358223 4.963578 -1.679729
-2.567372 5.438322 -1.671413
-2.814005 5.995235 -1.659482
-3.103091 6.651378 -1.643758
-3.455798 7.452010 -1.624951
-3.949172 8.463308 -1.605461
-4.520579 9.740047 -1.574388
-0.001877 -0.326431 -0.013561
-5.574338 12.109857 -1.297265
-6.618680 14.446910 -1.160058
-8.165028 17.915854 -0.963487
-10.181421 22.442366 -0.614938
-0.001877 -0.326431 -0.013561
-11.162633 24.670330 0.597513
-13.399948 29.708342 1.490652
-13.274903 29.440910 2.236244
-0.001877 -0.326431 -0.013561
-7.671502 16.905262 2.175054
-12.916577 28.702118 4.422724
-12.786985 28.436787 5.128992
-11.381484 25.297888 5.243048
-0.234746 0.200746 -0.355821
-0.241969 0.217564 -0.348145
-0.262081 0.263297 -0.356834
-0.297500 0.344126 -0.382128
-0.380792 0.533771 -0.459327
-1.565713 3.223958 -1.744819
-1.652394 3.424074 -1.729244
-1.754541 3.659801 -1.718267
-1.876708 3.939462 -1.714114
-2.009475 4.245622 -1.705648
-2.161318 4.595904 -1.695960
-2.330795 4.984485 -1.681902
-2.534131 5.453372 -1.671372
-2.775988 6.008135 -1.658513
-3.058923 6.660544 -1.641624
-3.413290 7.477561 -1.626017
-3.894497 8.477243 -1.603776
-4.459337 9.759024 -1.573208
-5.154693 11.342866 -1.514529
-5.524327 12.191302 -1.302259
-6.565684 14.558163 -1.165629
-8.051784 17.944649 -0.962441
-10.065438 22.535749 -0.615737
-10.807329 24.231842 -0.037438
-10.672473 23.947479 0.578445
-29.507023 66.853439 3.342698
-10.120471 22.722763 1.724147
-9.965816 22.391212 2.278507
-7.638343 17.100512 2.194280
-12.773046 28.830784 4.431166
-12.644092 28.562717 5.138488
-7.651485 17.170029 3.566613
-0.231035 0.200857 -0.354782
-0.238150 0.217697 -0.347147
-0.265702 0.281357 -0.366221
-0.293628 0.346192 -0.382110
-0.375125 0.534638 -0.458451
-1.543884 3.231882 -1.743972
-1.631489 3.435596 -1.729985
-1.732293 3.671914 -1.718963
-1.851365 3.950884 -1.714080
-1.977090 4.243580 -1.700477
-2.135193 4.613901 -1.697715
-2.290099 4.977412 -1.675227
-2.496955 5.459370 -1.668790
-2.738336 6.024875 -1.658468
-3.015853 6.675354 -1.640741
-3.362279 7.487196 -1.623734
-3.840576 8.492655 -1.602418
-4.397031 9.780236 -1.572306
-5.091359 11.381834 -1.515630
-5.464052 12.250659 -1.305001
-6.485195 14.615520 -1.166958
-7.934495 17.963593 -0.960919
-10.068750 22.905582 -0.623812
-10.736899 24.470261 -0.037478
-10.875582 24.801615 0.597857
-29.042749 66.844719 3.334150
-0.001873 -0.325694 -0.013530
-9.835598 22.461250 2.279730
-7.597664 17.283197 2.211895
-7.859330 17.906610 2.758759
-0.001873 -0.325694 -0.013530
-0.001873 -0.325694 -0.013530
-0.233997 0.216801 -0.363960
-0.234231 0.217859 -0.346148
-0.257247 0.271909 -0.359620
-0.284726 0.336775 -0.375799
-0.369293 0.535555 -0.457574
-1.524091 3.242752 -1.744757
-1.606974 3.440479 -1.727635
-1.707800 3.680783 -1.718200
-1.828162 3.965310 -1.715417
-1.954375 4.266066 -1.704292
-2.105103 4.625085 -1.697080
-2.261015 4.994420 -1.676293
-2.463338 5.476228 -1.669256
-2.698686 6.033729 -1.656573
-2.975497 6.692954 -1.640695
-3.317994 7.508602 -1.624056
-3.787390 8.513855 -1.602036
-4.334863 9.796649 -1.570845
-5.026484 11.423159 -1.516963
-5.380704 12.263101 -1.302864
-6.387273 14.625472 -1.164756
-7.832891 18.027252 -0.961674
-10.039727 23.220921 -0.630388
-10.564925 24.463953 -0.037286
-10.641713 24.667366 0.593165
-28.561592 66.823151 3.324877
-0.001860 -0.325315 -0.013515
-7.737592 17.887627 1.814992
-7.355678 17.004625 2.171184
-0.001860 -0.325315 -0.013515
-7.679317 17.792187 3.201511
-7.346012 17.021835 3.518520
-0.226850 0.209004 -0.357812
-0.232454 0.222766 -0.348093
-0.255173 0.276991 -0.361483
-0.282964 0.343722 -0.378478
-0.368524 0.548025 -0.462699
-1.504208 3.253531 -1.745540
-1.587397 3.455139 -1.729920
-1.684697 3.690916 -1.718167
-1.801977 3.972655 -1.714011
-1.930093 4.282850 -1.706182
-2.075814 4.635736 -1.696445
-2.235523 5.020134 -1.680125
-2.426914 5.483531 -1.667183
-2.661269 6.047733 -1.656067
-2.934256 6.708550 -1.640230
-3.269026 7.518892 -1.622145
-3.732589 8.526791 -1.600351
-4.274184 9.816339 -1.569944
-4.959507 11.454111 -1.517129
-5.327427 12.340114 -1.307481
-6.332771 14.737764 -1.170466
-7.730171 18.079775 -0.961956
-9.995224 23.496275 -0.635951
-10.705834 25.201637 -0.037804
-10.521544 24.785770 0.594678
-28.086508 66.776741 3.314774
-0.001869 -0.324957 -0.013500
-9.605531 22.652719 2.287880
-7.248884 17.030529 2.169202
-7.477157 17.585327 2.696717
-7.571816 17.829168 3.200318
-7.251282 17.076900 3.521194
-0.226399 0.217019 -0.361881
-0.228625 0.222846 -0.347094
-0.251700 0.278810 -0.361466
-0.276380 0.339092 -0.374864
-0.360724 0.543816 -0.459251
-1.482193 3.259107 -1.743879
-1.564883 3.462888 -1.729115
-1.661545 3.700910 -1.718134
-1.777187 3.983333 -1.713976
-1.902787 4.292515 -1.705504
-2.045750 4.644447 -1.695212
-2.206890 5.038620 -1.681745
-2.392684 5.495987 -1.666633
-2.623042 6.059720 -1.655097
-2.893705 6.725690 -1.640183
-3.218585 7.525219 -1.619490
-3.679294 8.543023 -1.599318
-4.210402 9.828342 -1.567923
-4.895387 11.492015 -1.518229
-5.276471 12.424311 -1.312847
-6.255059 14.796479 -1.172078
-7.630151 18.139120 -0.962617
-9.959325 23.799616 -0.642235
-10.588392 25.335333 -0.037741
-10.940621 26.214277 0.627866
-27.737650 67.030098 3.319665
-29.528507 71.411774 5.343033
-9.496528 22.765099 2.293705
-0.001857 -0.324578 -0.013485
-7.393473 17.676058 2.704005
-7.215422 17.259245 3.092049
-7.314973 17.518856 3.602377
-0.216137 0.201162 -0.350625
-0.225452 0.224535 -0.347076
-0.249542 0.283894 -0.363328
-0.277264 0.352624 -0.381138
-0.358433 0.552946 -0.462660
-1.462881 3.271361 -1.745477
-1.543745 3.473911 -1.729856
-1.637629 3.709061 -1.717371
-1.753050 3.995611 -1.714627
-1.874755 4.300244 -1.704184
-2.017104 4.656511 -1.695174
-2.174529 5.048043 -1.680599
-2.359115 5.510047 -1.666591
-2.585499 6.073288 -1.654590
-2.850113 6.735367 -1.638465
-3.174782 7.547650 -1.620183
-3.625170 8.557137 -1.597958
-4.149606 9.847302 -1.567021
-4.828752 11.524062 -1.518627
-5.224720 12.508350 -1.318211
-6.148323 14.784575 -1.168321
-7.440945 17.979551 -0.952078
-9.916511 24.094063 -0.648274
-10.447967 25.414782 -0.037626
-10.617817 25.858427 0.617904
-27.228552 66.890907 3.305267
-0.001870 -0.324217 -0.013470
-6.930421 16.804838 1.694179
-6.754490 16.386011 2.078313
-9.972165 24.359903 3.704382
-7.044631 17.128780 3.061827
-7.070979 17.210987 3.531704
-0.219502 0.218720 -0.360824
-0.225542 0.234257 -0.351965
-0.242096 0.275848 -0.357668
-0.273359 0.354570 -0.381120
-0.349347 0.545288 -0.457498
-1.438131 3.271861 -1.741370
-1.520467 3.479683 -1.728278
-1.613688 3.717054 -1.716609
-1.724589 3.999334 -1.711849
-1.849477 4.314861 -1.705431
-1.987681 4.666633 -1.694539
-2.143322 5.063001 -1.681112
-2.324035 5.520316 -1.665533
-2.545333 6.083460 -1.653156
-2.808189 6.752501 -1.638418
-3.122240 7.552084 -1.617155
-3.574690 8.580069 -1.598229
-4.087714 9.868422 -1.566398
-4.750834 11.528066 -1.515520
-5.170707 12.588503 -1.323200
-6.044495 14.785954 -1.165552
-7.421436 18.237635 -0.962988
-9.820958 24.264387 -0.651085
-10.665609 26.405493 -0.038356
-11.051940 27.386753 0.653345
-19.005484 47.378422 2.336613
-8.821601 21.836748 1.633658
-6.827929 16.844156 1.694090
-6.685297 16.493288 2.086937
-0.001857 -0.323837 -0.013454
-7.025363 17.383455 3.099338
-6.948877 17.198761 3.521109
-0.216923 0.221956 -0.361828
-0.222210 0.235959 -0.351947
-0.241125 0.284196 -0.361412
-0.268016 0.353215 -0.379304
-0.344863 0.549368 -0.458337
-1.416735 3.278742 -1.740524
-1.498537 3.490726 -1.729017
-1.591016 3.730412 -1.718032
-1.701035 4.013053 -1.713185
-1.821231 4.324351 -1.704752
-1.956627 4.675162 -1.693306
-2.110144 5.070266 -1.679413
-2.290718 5.537974 -1.666507
-2.506955 6.094769 -1.652186
-2.765246 6.763461 -1.637118
-3.075384 7.566653 -1.616359
-3.517454 8.590467 -1.596217
-4.023862 9.879263 -1.564376
-4.683324 11.563811 -1.516384
-5.123170 12.693424 -1.330625
-5.989508 14.902561 -1.171682
-7.326491 18.320766 -0.964878
-9.682924 24.343063 -0.651484
-10.455256 26.323469 -0.038086
-10.924545 27.547129 0.655770
-18.745426 47.550224 2.339778
-8.676374 21.842951 1.630468
-18.068642 45.888950 4.572680
-6.578173 16.514500 2.084724
-0.001866 -0.323480 -0.013440
-9.392514 23.755358 4.209954
-0.001866 -0.323480 -0.013440
-0.213761 0.223570 -0.361811
-0.217094 0.232713 -0.348985
-0.236973 0.284296 -0.360453
-0.265401 0.358440 -0.381084
-0.344380 0.563504 -0.464318
-1.396607 3.288923 -1.741307
-1.475879 3.497936 -1.728212
-1.567640 3.739872 -1.717999
-1.675344 4.021399 -1.712465
-1.791029 4.326286 -1.701507
-1.929855 4.692061 -1.695060
-2.074921 5.071915 -1.676056
-2.255530 5.547827 -1.665448
-2.468573 6.105814 -1.651216
-2.722269 6.774168 -1.635817
-3.022172 7.564401 -1.612217
-3.462484 8.601747 -1.594531
-3.960015 9.889716 -1.562354
-4.613355 11.587243 -1.515847
-5.109884 12.882799 -1.346674
-5.913228 14.966939 -1.173856
-7.254269 18.454327 -0.969426
-9.560143 24.449142 -0.652656
-10.607496 27.176647 -0.038677
-10.934232 28.052132 0.666509
-0.001853 -0.323101 -0.013424
-8.547884 21.891016 1.630446
-0.001853 -0.323101 -0.013424
-8.568952 21.990290 2.760939
-6.743793 17.245024 2.614764
-6.801181 17.412273 3.090499
-6.865183 17.597054 3.585074
-0.209998 0.223541 -0.360771
-0.213278 0.232674 -0.347987
-0.235973 0.292615 -0.364197
-0.260204 0.356972 -0.379268
-0.336704 0.559072 -0.460870
-1.376435 3.298970 -1.742090
-1.455155 3.510186 -1.729725
-1.544214 3.749195 -1.717965
-1.649647 4.029564 -1.711745
-1.765553 4.340440 -1.702754
-1.900268 4.701666 -1.694425
-2.043798 5.084154 -1.676016
-2.222370 5.562885 -1.665914
-2.429426 6.114844 -1.649783
-2.679982 6.786419 -1.634935
-2.973919 7.574689 -1.610677
-3.406800 8.610850 -1.592519
-3.899018 9.907163 -1.561452
-4.539029 11.599129 -1.513908
-5.098842 13.083607 -1.363847
-5.825059 15.001115 -1.173771
-7.161620 18.537231 -0.971413
-9.410950 24.487314 -0.652094
-10.521248 27.428402 -0.038709
-11.016341 28.763853 0.682171
-17.586979 46.162193 2.261863
-8.448750 22.016739 1.636214
-0.001862 -0.322743 -0.013409
-8.475367 22.132561 2.772588
-0.001862 -0.322743 -0.013409
-9.305954 24.370556 4.298910
-6.776420 17.675262 3.592913
-0.206250 0.223484 -0.359732
-0.208230 0.229367 -0.345026
-0.229965 0.287696 -0.360418
-0.256285 0.358817 -0.379249
-0.331604 0.561368 -0.460850
-1.357466 3.312336 -1.744504
-1.430473 3.511956 -1.726602
-1.519445 3.754886 -1.716473
-1.623231 4.035845 -1.710338
-1.738665 4.350895 -1.702717
-1.870638 4.711097 -1.693789
-2.018640 5.112418 -1.680952
-2.189093 5.577779 -1.666380
-2.391646 6.127255 -1.649276
-2.638311 6.800268 -1.634469
-2.927695 7.590216 -1.610253
-3.352530 8.623288 -1.591159
-3.837960 9.924242 -1.560550
-4.478637 11.647768 -1.516642
-0.001849 -0.322364 -0.013394
-5.710886 14.965619 -1.168461
-7.054981 18.584139 -0.971595
-6.808769 17.942850 -0.482493
-6.827382 18.001678 -0.029979
-10.557871 28.045725 0.663670
-0.001849 -0.322364 -0.013394
-6.540972 17.277365 1.283509
-6.474349 17.115889 1.706065
-7.597237 20.162121 2.522716
-8.469746 22.526421 3.390181
-6.774656 17.971376 3.174561
-6.404684 16.989763 3.448136
-0.206665 0.234702 -0.365845
-0.205646 0.232554 -0.345989
-0.226440 0.289375 -0.360400
-0.253584 0.363998 -0.381029
-0.328385 0.568701 -0.463403
-1.336502 3.322404 -1.745287
-1.408347 3.520513 -1.726569
-1.495927 3.763942 -1.716439
-1.597326 4.045777 -1.710302
-1.707176 4.348737 -1.698188
-1.840302 4.718571 -1.692556
-1.979784 5.106596 -1.675382
-2.153761 5.587006 -1.665322
-2.353327 6.141701 -1.649230
-2.594665 6.812483 -1.633586
-2.881360 7.609661 -1.610573
-3.299590 8.639107 -1.590451
-3.776395 9.945353 -1.560206
-4.404134 11.658818 -1.514702
-5.057310 13.450588 -1.394625
-5.641365 15.057663 -1.172750
-6.758296 18.112743 -0.945597
-0.001858 -0.322006 -0.013379
-0.001858 -0.322006 -0.013379
-6.733132 18.091307 0.425246
-6.703125 18.028210 0.881131
-6.647059 17.893520 1.326059
-6.258259 16.845604 1.675786
-6.407561 17.263990 2.159358
-6.275699 16.919907 2.549482
-0.001858 -0.322006 -0.013379
-6.296832 17.004528 3.443807
-0.196340 0.216879 -0.353567
-0.203544 0.237392 -0.347934
-0.225199 0.297710 -0.364143
-0.248902 0.364168 -0.380112
-0.325679 0.577755 -0.466812
-0.613217 1.378085 -0.819406
-1.384892 3.527432 -1.725763
-1.473622 3.776364 -1.717863
-1.572142 4.055269 -1.710266
-1.680230 4.358871 -1.698151
-1.811870 4.731260 -1.693114
-1.949116 5.120098 -1.675894
-2.120980 5.603334 -1.666295
-2.318026 6.161007 -1.650573
-2.552799 6.821707 -1.632286
-2.837022 7.625988 -1.610522
-3.245019 8.655179 -1.589742
-3.715851 9.963573 -1.559583
-4.331625 11.681359 -1.514163
-5.040958 13.662442 -1.412727
-5.591915 15.199115 -1.180853
-6.835457 18.671701 -0.971672
-0.001846 -0.321627 -0.013364
-0.001846 -0.321627 -0.013364
-6.623767 18.131283 0.425348
-0.001846 -0.321627 -0.013364
-0.001846 -0.321627 -0.013364
-0.001846 -0.321627 -0.013364
-6.571854 18.043556 2.251017
-0.001846 -0.321627 -0.013364
-6.689003 18.400187 3.235730
-8.547369 23.628139 4.755585
-0.195053 0.223187 -0.356614
-0.200994 0.240527 -0.348897
-0.220563 0.295984 -0.362245
-0.244481 0.364212 -0.379195
-0.315071 0.564642 -0.459078
-0.599457 1.369786 -0.813678
-1.362756 3.533734 -1.724958
-1.450002 3.785140 -1.717829
-1.548922 4.067889 -1.711603
-1.651364 4.363467 -1.696189
-1.780840 4.736571 -1.691284
-1.921250 5.138508 -1.678066
-2.085548 5.612154 -1.665236
-2.277907 6.163210 -1.647752
-2.509668 6.831123 -1.630985
-2.790555 7.640701 -1.610098
-3.192856 8.667944 -1.588708
-3.655715 9.977052 -1.558401
-4.263187 11.701993 -1.513626
-5.031244 13.884064 -1.431956
-5.502477 15.222954 -1.180202
-6.719302 18.681684 -0.970148
-8.908201 24.900684 -0.656717
-10.399785 29.139637 -0.039439
-6.514641 18.151361 0.425044
-17.206484 48.529358 2.358588
-8.073071 22.607691 1.666052
-6.113992 17.060856 1.690151
-6.588429 18.430096 2.294018
-6.027891 16.843031 2.527812
-8.081549 22.717085 3.976834
-8.003750 22.519672 4.525664
-0.193046 0.227905 -0.358640
-0.196036 0.237094 -0.345936
-0.213517 0.287605 -0.356584
-0.240523 0.365972 -0.379176
-0.311749 0.571913 -0.461631
-0.588816 1.371945 -0.812840
-1.340530 3.541883 -1.724925
-1.425108 3.790267 -1.716337
-1.520998 4.072046 -1.709510
-1.626820 4.380435 -1.698719
-1.753556 4.752512 -1.693037
-1.890069 5.153812 -1.679131
-2.051970 5.626261 -1.665702
-2.235577 6.165948 -1.644929
-2.465280 6.840696 -1.629683
-2.741977 7.653772 -1.609301
-3.138413 8.679115 -1.587347
-3.591281 9.989581 -1.556937
-4.189961 11.715448 -1.512154
-5.004918 14.073034 -1.447807
-5.419305 15.282079 -1.182089
-6.610404 18.722313 -0.970139
-8.781132 25.004831 -0.657931
-6.435596 18.258696 -0.029665
-0.001842 -0.320890 -0.013334
-8.066786 23.006428 1.117157
-7.942092 22.670630 1.667279
-0.001842 -0.320890 -0.013334
-7.030154 20.062601 2.489945
-6.125278 17.457518 2.613410
-8.034613 23.026274 4.022124
-6.015129 17.165646 3.454787
-0.189226 0.227775 -0.357601
-0.193291 0.240248 -0.346900
-0.212747 0.297577 -0.361268
-0.237017 0.369438 -0.380057
-0.311109 0.587785 -0.468469
-0.578476 1.373930 -0.812002
-1.318174 3.551882 -1.725664
-1.400667 3.799034 -1.716302
-1.496875 4.084660 -1.710845
-1.597063 4.384992 -1.696756
-1.721578 4.757772 -1.691206
-1.852332 5.146777 -1.673561
-2.017243 5.640548 -1.666166
-2.202546 6.191978 -1.648123
-2.424597 6.857014 -1.630052
-2.696010 7.669788 -1.609249
-3.083686 8.694200 -1.586638
-3.531199 10.008585 -1.556594
-4.110772 11.717898 -1.509278
-4.932910 14.142425 -1.451659
-5.354461 15.387035 -1.187507
-6.485699 18.727530 -0.968326
-8.652606 25.121193 -0.659429
-9.766940 28.413486 -0.038391
-0.001851 -0.320533 -0.013319
-16.147833 47.293671 2.289711
-7.862076 22.871283 1.678707
-7.615469 22.168354 2.182000
-6.917373 20.128757 2.493056
-7.181574 20.921162 3.119062
-0.001851 -0.320533 -0.013319
-6.102235 17.767620 3.566966
-0.187157 0.232474 -0.359626
-0.192265 0.248326 -0.350806
-0.210856 0.304179 -0.364071
-0.233592 0.372856 -0.380937
-0.302997 0.581362 -0.464164
-0.568126 1.375863 -0.811164
-1.295274 3.558015 -1.724859
-1.377502 3.809165 -1.716996
-1.470886 4.091787 -1.710124
-1.568157 4.389067 -1.694794
-1.690487 4.762541 -1.689375
-1.825662 5.172307 -1.677944
-1.981672 5.648746 -1.665107
-2.161931 6.195692 -1.645764
-2.381994 6.867503 -1.629168
-2.650552 7.687424 -1.609568
-3.027955 8.700943 -1.584625
-3.471025 10.027235 -1.556250
-4.039476 11.736090 -1.508505
-4.855222 14.187950 -1.453263
-5.293017 15.504996 -1.193911
-6.436653 18.946827 -0.977323
-0.001838 -0.320153 -0.013304
-14.733788 43.862492 -0.051574
-0.001838 -0.320153 -0.013304
-15.797681 47.158737 2.278967
-7.868142 23.336851 1.709440
-7.897012 23.450117 2.302739
-6.803860 20.181814 2.494782
-0.001838 -0.320153 -0.013304
-5.714660 16.927240 2.956431
-6.127638 18.194710 3.644491
-0.186112 0.240450 -0.363695
-0.188435 0.248142 -0.349807
-0.205608 0.300714 -0.361232
-0.231824 0.381346 -0.384514
-0.295546 0.576592 -0.460715
-0.555202 1.370900 -0.807066
-1.272901 3.565796 -1.724825
-1.351963 3.812089 -1.714775
-1.444102 4.099017 -1.709402
-1.544517 4.409214 -1.698606
-1.661176 4.772574 -1.689335
-1.788275 5.168797 -1.673479
-1.948459 5.664111 -1.666080
-2.121435 6.203215 -1.644329
-2.338100 6.878157 -1.628283
-2.596936 7.684682 -1.605794
-2.976552 8.720492 -1.584893
-3.408326 10.044260 -1.555625
-3.967503 11.751968 -1.507499
-4.774694 14.225499 -1.454116
-5.207718 15.563041 -1.195795
-6.341121 19.031420 -0.979587
-8.406873 25.366220 -0.662859
-12.491108 37.890919 -0.046137
-12.485016 37.892830 0.887174
-12.467285 37.881725 1.827756
-7.688692 23.263952 1.700883
-0.001829 -0.319770 -0.013288
-6.693679 20.245565 2.497894
-5.706364 17.231192 2.565005
-0.001829 -0.319770 -0.013288
-6.064610 18.364653 3.671141
-0.178573 0.228800 -0.355504
-0.185607 0.251255 -0.350771
-0.201926 0.302276 -0.361214
-0.221091 0.362663 -0.373709
-0.289822 0.576921 -0.459839
-0.543781 1.369213 -0.804598
-1.248134 3.568371 -1.722474
-1.328137 3.820176 -1.714740
-1.418618 4.107635 -1.709366
-1.513782 4.407578 -1.694718
-1.631239 4.780602 -1.688699
-1.756047 5.177540 -1.672885
-1.912200 5.670067 -1.664512
-2.089721 6.234244 -1.648909
-2.297859 6.891470 -1.628235
-2.552785 7.701297 -1.606114
-2.921044 8.732721 -1.583857
-3.344927 10.052779 -1.553881
-3.891529 11.762440 -1.505790
-4.696229 14.278580 -1.456467
-5.127150 15.627322 -1.198246
-6.250610 19.145159 -0.983270
-8.265534 25.435503 -0.663252
-14.177142 43.910561 -0.051017
-0.001838 -0.319413 -0.013273
-8.603293 26.564480 1.280060
-8.531242 26.369965 1.923154
-7.302172 22.536646 2.205570
-6.604740 20.376842 2.509309
-6.782166 20.957457 3.106681
-7.334808 22.704351 3.936481
-7.646353 23.710173 4.716537
-0.177047 0.235081 -0.358551
-0.179265 0.242672 -0.344866
-0.199501 0.307131 -0.363076
-0.221584 0.377869 -0.380882
-0.287912 0.589274 -0.464962
-0.533489 1.370942 -0.803760
-1.226388 3.575658 -1.722441
-1.304829 3.829899 -1.715434
-1.393655 4.117892 -1.710015
-1.488245 4.421992 -1.696606
-1.602980 4.793918 -1.689855
-1.723794 5.186083 -1.672291
-1.877664 5.681352 -1.664468
-2.047301 6.231677 -1.645162
-2.254435 6.903486 -1.627767
-2.503957 7.712936 -1.605316
-2.869260 8.745488 -1.583148
-3.281563 10.060898 -1.552138
-3.821010 11.774871 -1.504552
-4.617608 14.314456 -1.457321
-5.062202 15.742575 -1.204506
-6.162829 19.246799 -0.986483
-8.153052 25.597490 -0.665997
-13.962336 44.119678 -0.050901
-0.001826 -0.319034 -0.013258
-7.146190 22.461903 1.080800
-8.379190 26.424713 1.923709
-7.179531 22.621714 2.209747
-6.545922 20.608290 2.532954
-0.001826 -0.319034 -0.013258
-6.008317 18.934093 3.283567
-6.040941 19.049469 3.792287
-0.172733 0.233200 -0.356490
-0.179520 0.255751 -0.351716
-0.195265 0.306970 -0.362118
-0.215331 0.372705 -0.377268
-0.283572 0.594787 -0.466657
-0.521061 1.365614 -0.799662
-1.203803 3.584987 -1.723179
-1.281821 3.843279 -1.717586
-1.368083 4.126202 -1.709979
-1.459525 4.429296 -1.695926
-1.570361 4.796415 -1.687425
-1.695980 5.209167 -1.676119
-1.842012 5.692764 -1.664424
-2.011250 6.249301 -1.646504
-2.211082 6.911106 -1.626466
-2.457084 7.725707 -1.604891
-2.811913 8.751412 -1.581134
-3.219384 10.072421 -1.550954
-3.750926 11.803403 -1.505178
-0.001835 -0.318676 -0.013243
-5.004336 15.884294 -1.212741
-6.098414 19.451395 -0.994712
-8.055647 25.829203 -0.670466
-13.697965 44.172935 -0.050653
-0.001835 -0.318676 -0.013243
-6.979809 22.403032 1.076073
-8.264277 26.600662 1.933091
-7.092831 22.811544 2.224238
-6.418735 20.637604 2.531917
-5.965145 19.167313 2.834031
-6.936480 22.368259 3.864780
-5.867375 18.893547 3.754787
-0.170066 0.236173 -0.357494
-0.175710 0.255458 -0.350717
-0.190628 0.305069 -0.360219
-0.211338 0.374299 -0.377250
-0.277797 0.595021 -0.465781
-0.511878 1.370697 -0.800454
-1.180241 3.588681 -1.721601
-1.256212 3.845610 -1.715364
-1.341913 4.132577 -1.709258
-1.433239 4.441621 -1.697172
-1.540871 4.805741 -1.687386
-1.664665 5.221049 -1.676631
-1.808463 5.707349 -1.665396
-1.971153 6.253686 -1.644607
-2.168300 6.920321 -1.625582
-2.410153 7.738202 -1.604466
-2.759058 8.765929 -1.580750
-3.157185 10.083575 -1.549769
-3.677028 11.811851 -1.503471
-4.445617 14.366261 -1.456963
-4.934607 15.991511 -1.218434
-5.975225 19.455940 -0.993087
-7.893947 25.839161 -0.669414
-13.439205 44.243778 -0.050420
-0.001822 -0.318297 -0.013228
-6.868984 22.510168 1.079402
-0.001822 -0.318297 -0.013228
