# This PCD file was generated using the MATLAB® pcwrite function
# from Computer Vision Toolbox®.
# .PCD v.7 - Point Cloud Data file format
VERSION .7
FIELDS x y z
SIZE 4 4 4
TYPE F F F
COUNT 1 1 1
WIDTH 1594
HEIGHT 1
VIEWPOINT 0 0 0 1 0 0 0
POINTS 1594
DATA ascii
-3.733154 -4.676558 0.136032
-3.858587 -4.828400 0.284329
-4.858923 -6.061451 0.538375
-4.863101 -6.062312 0.719208
-18.768454 -23.229403 3.486325
-17.364990 -21.481174 3.874902
-4.816093 -5.993612 1.254288
-4.848085 -6.030910 1.447920
-0.372490 -0.513040 -0.351999
-0.377705 -0.519121 -0.338105
-0.413838 -0.563316 -0.350421
-0.461962 -0.621996 -0.369103
-2.574388 -3.211453 -1.929752
-2.743467 -3.417537 -1.933935
-2.932176 -3.646245 -1.938289
-3.146346 -3.905787 -1.943551
-3.397112 -4.211192 -1.955516
-3.674694 -4.547569 -1.962917
-4.015118 -4.960232 -1.979750
-4.400858 -5.429541 -1.993594
-4.863758 -5.990591 -2.010602
-5.450907 -6.704724 -2.038999
-4.115671 -5.072301 -1.381142
-3.928366 -4.840556 -1.168325
-3.159505 -3.937000 -0.824185
-3.160134 -3.936380 -0.705291
-3.174781 -3.951582 -0.588755
-3.178869 -3.953809 -0.471200
-3.348250 -4.160070 -0.372306
-3.192518 -3.966350 -0.237342
-3.312864 -4.110887 -0.123480
-3.776366 -4.676660 -0.001875
-3.749124 -4.640044 0.135624
-3.858995 -4.771037 0.282289
-4.912376 -6.056154 0.540479
-4.924106 -6.066187 0.723121
-18.809906 -23.000502 3.468663
-17.557167 -21.464680 3.890215
-4.901554 -6.027978 1.267594
-4.889702 -6.009283 1.449782
-0.372930 -0.507869 -0.349946
-0.384813 -0.521969 -0.342010
-0.423502 -0.568748 -0.356041
-0.466359 -0.620349 -0.369987
-2.585618 -3.187849 -1.924607
-2.769761 -3.409772 -1.938803
-2.958685 -3.636052 -1.942132
-3.169653 -3.888676 -1.944267
-3.419803 -4.189760 -1.954821
-3.150816 -3.861814 -1.671632
-4.046954 -4.941079 -1.981526
-4.430514 -5.402271 -1.993033
-4.902790 -5.968071 -2.012618
-5.472952 -6.653380 -2.032995
-4.161995 -5.069237 -1.386952
-3.301600 -4.029798 -0.975424
-3.164237 -3.897046 -0.819636
-3.163552 -3.894835 -0.701106
-3.175675 -3.906806 -0.584802
-3.179704 -3.908944 -0.468031
-3.356596 -4.121895 -0.370622
-3.192070 -3.919793 -0.235654
-3.355272 -4.114497 -0.124164
-3.832226 -4.689923 -0.001862
-3.807328 -4.656527 0.136797
-3.856790 -4.712986 0.280155
-4.965957 -6.050464 0.542582
-4.966265 -6.046567 0.724246
-18.150385 -21.937361 3.323660
-14.560238 -17.602730 3.203355
-4.988807 -6.063048 1.281225
-4.905055 -5.957975 1.444236
-0.378828 -0.509311 -0.352992
-0.383020 -0.514017 -0.338078
-0.417393 -0.555077 -0.348516
-0.463867 -0.610417 -0.365487
-0.000088 -0.054608 -0.002070
-2.786091 -3.388699 -1.936351
-2.973325 -3.611498 -1.938266
-3.191685 -3.870003 -1.944256
-3.446676 -4.171904 -1.956178
-3.195811 -3.870855 -1.683784
-0.000088 -0.054608 -0.002070
-4.460926 -5.374050 -1.992471
-3.285415 -3.970882 -1.340066
-3.280970 -3.962806 -1.210938
-3.281880 -3.961112 -1.086352
-3.293500 -3.972158 -0.966157
-3.163575 -3.851112 -0.813790
-3.162178 -3.846733 -0.695808
-3.177455 -3.863695 -0.581080
-3.182724 -3.867295 -0.465234
-3.356352 -4.072440 -0.367961
-3.192515 -3.874942 -0.234061
-3.372168 -4.087062 -0.123921
-3.839132 -4.642209 -0.001853
-3.845310 -4.647954 0.137227
-3.857902 -4.659717 0.278301
-5.020677 -6.043473 0.544686
-5.018383 -6.036481 0.726672
-14.575445 -17.422440 2.650241
-14.544374 -17.373100 3.177186
-5.049780 -6.063213 1.287721
-4.945299 -5.936795 1.446098
-0.378184 -0.502741 -0.349919
-0.384614 -0.510043 -0.337085
-0.422641 -0.554939 -0.350381
-0.469478 -0.610040 -0.367269
-2.619205 -3.154385 -1.922873
-2.804065 -3.370842 -1.935526
-2.990800 -3.589203 -1.935942
-3.216021 -3.854050 -1.945700
-3.469123 -4.150198 -1.955483
-3.266718 -3.909842 -1.709379
-3.179403 -3.804121 -1.535935
-4.491478 -5.347902 -1.992460
-3.315408 -3.960368 -1.343093
-3.321056 -3.964247 -1.217381
-3.317571 -3.958754 -1.090914
-3.345874 -3.989273 -0.975031
-3.161888 -3.803264 -0.807619
-3.163522 -3.803869 -0.691344
-3.175653 -3.815574 -0.576663
-3.182153 -3.820597 -0.461880
-3.362713 -4.032893 -0.366138
-3.198355 -3.835741 -0.232840
-3.388886 -4.059591 -0.123678
-3.844805 -4.595234 -0.001843
-3.846660 -4.594199 0.136307
-3.857223 -4.605047 0.276354
-5.083461 -6.047558 0.547767
-5.077459 -6.038352 0.730399
-14.563374 -17.206114 2.630028
-14.532303 -17.157381 3.152967
-5.096031 -6.049589 1.290974
-4.977812 -5.906353 1.445738
-0.384032 -0.504190 -0.352966
-0.392810 -0.514158 -0.341970
-0.425429 -0.552209 -0.350368
-0.470238 -0.604317 -0.365460
-2.639355 -3.141627 -1.924572
-2.828495 -3.361727 -1.939582
-3.011709 -3.573502 -1.936702
-3.236620 -3.833672 -1.944960
-3.488283 -4.126125 -1.953420
-0.000077 -0.053876 -0.002043
-3.213391 -3.799893 -1.541881
-0.000077 -0.053876 -0.002043
-4.992885 -5.868204 -2.008030
-5.583600 -6.553809 -2.032045
-4.311755 -5.069667 -1.407708
-3.936301 -4.629655 -1.139034
-3.166114 -3.765658 -0.803394
-3.165126 -3.763180 -0.687158
-3.177247 -3.774748 -0.573174
-3.182433 -3.778178 -0.458897
-3.358939 -3.983346 -0.363338
-3.197340 -3.791644 -0.231245
-3.460010 -4.095853 -0.125382
-3.884421 -4.590049 -0.001831
-3.897956 -4.602634 0.137248
-3.896372 -4.597563 0.277297
-5.201285 -6.117144 0.556850
-0.000077 -0.053876 -0.002043
-14.559654 -17.002560 2.611673
-14.510137 -16.938919 3.127633
-5.136913 -6.027267 1.292606
-5.002474 -5.866815 1.443155
-0.379887 -0.493805 -0.346832
-0.393175 -0.508888 -0.339997
-0.427125 -0.548042 -0.349415
-0.467563 -0.594485 -0.360960
-2.655917 -3.124652 -1.923705
-2.842704 -3.339483 -1.936317
-3.028300 -3.551546 -1.934378
-3.253461 -3.808981 -1.942040
-3.514134 -4.108443 -1.954777
-3.800035 -4.435247 -1.961583
-3.252424 -3.801145 -1.550209
-3.169900 -3.704757 -1.388317
-5.025010 -5.837524 -2.007514
-5.622218 -6.522654 -2.032496
-4.367546 -5.075406 -1.416429
-3.932914 -4.572453 -1.130508
-3.166802 -3.723090 -0.798195
-3.163135 -3.717540 -0.682138
-3.172648 -3.725960 -0.568524
-3.185599 -3.738341 -0.456286
-3.360625 -3.939423 -0.361095
-3.201825 -3.753177 -0.230024
-3.455740 -4.043756 -0.124398
-3.928813 -4.588404 -0.001820
-3.941133 -4.599407 0.137863
-3.942111 -4.597322 0.278706
-5.264904 -6.119893 0.559930
-14.516135 -16.767776 2.064102
-14.544950 -16.789116 2.591693
-5.238153 -6.078404 1.120262
-5.186764 -6.015081 1.296507
-5.026823 -5.827162 1.440572
-0.384746 -0.493758 -0.348858
-0.397022 -0.507497 -0.340963
-0.435863 -0.551780 -0.354096
-0.476641 -0.598053 -0.365433
-2.677665 -3.112553 -1.926260
-2.864556 -3.324936 -1.937932
-3.047778 -3.531751 -1.933596
-3.279374 -3.793447 -1.944210
-3.535660 -4.084331 -1.953398
-3.823462 -4.409400 -1.960292
-3.298538 -3.808663 -1.561515
-3.249871 -3.751943 -1.413660
-3.165894 -3.653819 -1.256965
-5.660515 -6.488821 -2.032487
-4.412778 -5.066658 -1.421407
-3.155522 -3.635692 -0.901320
-3.163851 -3.675621 -0.792024
-3.163982 -3.674486 -0.677674
-3.182623 -3.693250 -0.566426
-3.183802 -3.692027 -0.452932
-3.365240 -3.898041 -0.359132
-0.000092 -0.053162 -0.002015
-3.217089 -3.723582 -0.115162
-3.983334 -4.596218 -0.001807
-3.983845 -4.593594 0.138432
-3.988775 -4.596002 0.280116
-5.328450 -6.119652 0.562871
-14.499370 -16.549360 2.047750
-14.531179 -16.573883 2.571711
-0.000092 -0.053162 -0.002015
-5.235081 -5.998638 1.299761
-5.041506 -5.774749 1.435027
-0.394114 -0.498915 -0.354965
-0.398476 -0.503535 -0.339970
-0.430540 -0.539641 -0.347510
-0.475040 -0.589591 -0.361831
-2.688045 -3.088595 -1.921114
-2.882136 -3.306653 -1.937107
-3.073891 -3.520696 -1.937438
-3.299616 -3.772736 -1.943472
-3.560047 -4.064931 -1.954070
-3.849744 -4.388364 -1.960921
-3.345466 -3.817780 -1.573418
-3.292831 -3.757232 -1.423020
-3.205859 -3.656843 -1.264550
-5.709128 -6.468840 -2.036627
-4.470201 -5.072944 -1.430543
-3.170872 -3.611229 -0.899828
-3.163762 -3.633325 -0.786827
-3.162482 -3.630611 -0.672932
-3.177205 -3.644735 -0.561777
-3.182274 -3.647925 -0.449763
-3.356900 -3.843874 -0.355913
-3.267366 -3.740157 -0.231583
-0.000076 -0.052785 -0.002001
-4.028017 -4.593793 -0.001795
-4.036481 -4.600128 0.139373
-4.037424 -4.597985 0.281712
-5.393772 -6.122799 0.566092
-14.490911 -16.349140 2.033257
-14.519112 -16.369350 2.552893
-5.346413 -6.058901 1.128357
-5.307305 -6.010767 1.309176
-5.045600 -5.712980 1.426889
-0.395529 -0.494994 -0.353932
-0.405716 -0.506073 -0.343875
-0.440404 -0.544694 -0.353130
-0.475728 -0.583811 -0.360023
-2.707898 -3.075398 -1.922814
-2.899622 -3.288292 -1.936282
-3.091335 -3.499814 -1.935885
-3.318504 -3.750546 -1.942006
-3.581852 -4.042615 -1.953376
-3.870858 -4.361538 -1.958990
-3.396468 -3.830766 -1.587108
-3.333388 -3.759284 -1.431276
-3.264089 -3.679664 -1.279225
-3.174440 -3.578794 -1.126036
-4.571033 -5.126681 -1.453399
-3.174216 -3.573581 -0.895004
-3.172487 -3.601437 -0.783897
-3.160588 -3.586877 -0.668189
-3.175337 -3.600868 -0.557824
-3.182998 -3.606926 -0.446966
-3.360038 -3.803309 -0.353950
-3.272550 -3.703071 -0.230455
-3.348593 -3.785273 -0.118245
-4.080811 -4.599924 -0.001783
-4.087988 -4.604715 0.140267
-4.084894 -4.598069 0.283214
-5.457992 -6.123925 0.569172
-14.477989 -16.146627 2.018392
-14.490582 -16.149290 2.531518
-5.399481 -6.048268 1.132264
-5.366646 -6.007612 1.315347
-5.046533 -5.648447 1.418010
-0.398068 -0.492345 -0.353918
-0.409495 -0.504666 -0.344842
-0.447973 -0.547029 -0.356873
-0.497990 -0.601914 -0.374367
-2.724051 -3.058056 -1.921947
-2.919436 -3.272532 -1.937084
-3.108669 -3.478870 -1.934332
-3.340997 -3.732389 -1.942722
-3.599717 -4.015994 -1.950629
-0.000087 -0.052075 -0.001974
-3.183094 -3.552280 -1.478086
-3.187791 -3.556209 -1.360159
-3.278419 -3.653298 -1.276682
-3.235329 -3.604711 -1.140318
-3.169161 -3.529606 -1.001875
-3.165296 -3.522923 -0.886847
-3.175669 -3.563722 -0.779672
-3.170255 -3.556499 -0.665952
-3.181041 -3.565949 -0.555261
-3.186025 -3.568978 -0.444540
-3.365515 -3.765804 -0.352265
-3.280107 -3.669011 -0.229513
-3.345869 -3.738933 -0.117400
-4.123077 -4.593769 -0.001772
-4.145046 -4.614761 0.141347
-4.156707 -4.624379 0.286395
-5.518364 -6.120068 0.571834
-14.453832 -15.934489 2.002227
-14.474692 -15.946230 2.512700
-5.472586 -6.059155 1.140348
-5.435420 -6.014162 1.323789
-5.101179 -5.643598 1.424317
-0.399443 -0.488422 -0.352885
-0.409728 -0.499356 -0.342869
-0.446042 -0.538866 -0.353104
-0.495104 -0.592080 -0.369867
-2.741317 -3.041956 -1.921935
-2.935449 -3.252596 -1.935445
-3.128354 -3.460551 -1.934321
-3.363402 -3.714104 -1.943438
-3.625026 -3.997601 -1.951985
-3.167489 -3.497132 -1.583186
-3.160536 -3.487154 -1.458416
-3.170178 -3.496419 -1.344163
-3.189002 -3.514442 -1.234129
-3.276837 -3.608564 -1.147683
-3.167916 -3.487919 -0.995211
-3.171897 -3.489822 -0.883133
-3.175845 -3.523159 -0.774797
-3.162313 -3.507147 -0.660097
-3.177071 -3.520835 -0.551076
-3.180656 -3.522310 -0.441000
-3.365269 -3.722463 -0.350023
-3.286016 -3.633496 -0.228477
-3.352153 -3.703021 -0.116878
-4.169444 -4.591671 -0.001760
-4.202373 -4.624314 0.142427
-4.208672 -4.627950 0.288177
-5.534311 -6.067273 0.569890
-5.521882 -6.049549 0.758904
-5.549441 -6.075253 0.956084
-5.525893 -6.047577 1.144256
-5.499101 -6.014317 1.330933
-5.197288 -5.683104 1.442104
-0.403104 -0.487003 -0.353891
-0.412300 -0.496629 -0.342855
-0.453647 -0.541119 -0.356846
-2.603688 -2.860808 -1.924931
-2.759717 -3.027079 -1.922779
-2.951923 -3.232100 -1.933807
-3.144156 -3.438049 -1.931997
-3.380634 -3.690218 -1.941244
-0.000076 -0.051344 -0.001947
-3.157585 -3.446545 -1.568451
-3.164667 -3.451770 -1.451257
-3.166960 -3.451847 -1.334229
-3.175910 -3.460257 -1.221457
-3.227549 -3.513253 -1.123236
-3.254977 -3.540225 -1.015988
-3.173485 -3.450486 -0.877938
-3.178372 -3.485635 -0.770572
-3.163925 -3.467623 -0.656189
-3.180794 -3.484630 -0.548281
-3.185709 -3.487522 -0.438946
-3.366638 -3.680131 -0.347920
-3.303880 -3.611232 -0.228280
-3.351360 -3.659858 -0.116125
-4.223549 -4.595801 -0.001748
-4.253160 -4.626052 0.143274
-4.251276 -4.620817 0.289306
-5.519612 -5.979945 0.564735
-0.000076 -0.051344 -0.001947
-0.000076 -0.051344 -0.001947
-5.539750 -5.991139 1.139811
-5.545147 -5.992755 1.333538
-5.233646 -5.657016 1.443226
-0.406875 -0.485515 -0.354899
-0.417327 -0.496367 -0.344801
-0.460170 -0.541926 -0.359649
-2.616656 -2.841048 -1.922228
-2.779271 -3.013402 -1.924478
-2.970181 -3.214676 -1.933795
-3.166731 -3.421669 -1.933527
-3.405347 -3.674385 -1.943415
-3.159750 -3.410698 -1.680423
-3.160219 -3.410013 -1.560117
-3.172426 -3.420624 -1.445884
-3.169358 -3.415005 -1.327052
-3.172944 -3.417626 -1.212836
-3.196676 -3.440430 -1.105704
-3.293216 -3.541564 -1.021797
-3.177562 -3.416616 -0.873854
-3.178448 -3.444737 -0.765698
-3.161867 -3.425845 -0.651725
-3.175299 -3.437805 -0.543864
-3.182868 -3.443498 -0.435777
-3.362898 -3.634129 -0.345398
-3.312628 -3.578091 -0.227430
-3.362500 -3.629934 -0.115789
-4.275677 -4.598724 -0.001736
-4.296669 -4.617847 0.143843
-4.309014 -4.629360 0.291461
-5.586488 -5.982551 0.568095
-5.589245 -5.983393 0.758737
-5.602116 -5.992884 0.953315
-5.591547 -5.977518 1.143440
-5.578239 -5.961333 1.333548
-5.265845 -5.626424 1.443236
-0.408100 -0.481615 -0.353865
-0.419796 -0.493659 -0.344788
-0.460467 -0.536417 -0.357758
-2.632191 -2.826025 -1.922216
-2.798771 -2.999605 -1.926177
-2.987104 -3.195843 -1.932970
-3.185490 -3.403557 -1.933515
-3.169438 -3.384321 -1.797920
-3.158325 -3.370303 -1.669467
-3.167763 -3.379053 -1.554344
-3.177280 -3.386714 -1.439320
-3.178079 -3.385212 -1.322631
-3.177583 -3.383521 -1.207253
-3.186588 -3.390624 -1.095549
-3.334127 -3.542820 -1.028022
-3.181185 -3.380290 -0.869399
-3.170219 -3.397924 -0.759203
-3.162197 -3.387113 -0.647818
-3.180494 -3.405241 -0.541534
-3.183954 -3.406537 -0.433351
-3.358765 -3.588311 -0.342877
-3.322659 -3.549052 -0.226767
-3.366525 -3.592756 -0.115221
-4.326596 -4.599740 -0.001724
-4.349668 -4.622391 0.144783
-4.347712 -4.617133 0.292311
-14.607258 -15.382429 1.479529
-14.734723 -15.505383 1.990905
-14.864396 -15.635914 2.517362
-14.974529 -15.740387 3.046923
-5.577781 -5.890673 1.325125
-5.296522 -5.594236 1.442875
-0.417784 -0.486272 -0.359972
-0.422415 -0.490797 -0.344774
-0.466997 -0.537129 -0.360561
-2.635005 -2.795818 -1.912333
-2.809960 -2.976067 -1.921888
-3.002625 -3.175581 -1.931332
-3.201510 -3.380262 -1.931192
-3.160737 -3.335548 -1.781905
-3.164362 -3.338160 -1.662616
-3.178235 -3.350263 -1.549851
-0.000070 -0.050257 -0.001906
-3.185219 -3.354036 -1.317658
-3.178493 -3.344750 -1.200151
-3.184162 -3.349466 -1.088161
-3.377290 -3.547125 -1.035078
-3.172991 -3.333288 -0.861983
-3.164082 -3.351625 -0.753032
-3.163526 -3.349886 -0.644188
-3.183849 -3.368757 -0.538740
-3.184502 -3.367113 -0.430739
-3.361104 -3.549830 -0.341052
-3.323964 -3.508734 -0.225452
-3.363925 -3.547862 -0.114422
-4.374926 -4.597464 -0.001713
-4.394739 -4.614859 0.145398
-4.399687 -4.616797 0.294000
-14.768685 -15.373819 1.486931
-14.891227 -15.490146 2.000015
-15.036636 -15.629994 2.530842
-15.138911 -15.730454 3.061961
-5.579771 -5.825438 1.317677
-5.327948 -5.560930 1.442515
-0.411926 -0.474870 -0.352818
-0.422515 -0.485492 -0.342802
-0.479644 -0.544224 -0.368059
-2.658247 -2.787935 -1.917705
-2.828033 -2.960781 -1.922732
-3.024391 -3.161803 -1.933760
-3.224490 -3.365373 -1.933492
-3.152330 -3.288904 -1.766618
-3.172745 -3.308737 -1.657132
-0.000076 -0.049902 -0.001892
-3.218743 -3.351355 -1.440488
-0.000076 -0.049902 -0.001892
-3.186607 -3.314958 -1.196088
-3.181359 -3.308434 -1.080772
-3.219645 -3.345342 -0.981017
-3.180843 -3.303346 -0.859009
-3.162423 -3.311720 -0.748157
-0.000076 -0.049902 -0.001892
-0.000076 -0.049902 -0.001892
-3.181353 -3.325501 -0.427756
-3.365914 -3.514318 -0.339507
-3.327115 -3.471985 -0.224323
-3.365883 -3.509437 -0.113808
-14.417912 -14.864031 -0.001268
-14.398258 -14.833477 0.477848
-0.000076 -0.049902 -0.001892
-14.934679 -15.368143 1.494751
-15.052213 -15.477886 2.009682
-15.202418 -15.620934 2.543626
-15.316152 -15.731918 3.079504
-5.582596 -5.761802 1.310552
-5.362344 -5.532604 1.443266
-0.416767 -0.474579 -0.354845
-0.428690 -0.486434 -0.345727
-0.482482 -0.541093 -0.368046
-2.666447 -2.764559 -1.912309
-2.844739 -2.944075 -1.922719
-3.038952 -3.139528 -1.931308
-3.237052 -3.339803 -1.929627
-3.159165 -3.258384 -1.760059
-3.178834 -3.276103 -1.650281
-3.216048 -3.312730 -1.549828
-3.245754 -3.340566 -1.444051
-3.233064 -3.325404 -1.321493
-3.191758 -3.282415 -1.191012
-3.181484 -3.269752 -1.074306
-3.199252 -3.285471 -0.968949
-3.201493 -3.285471 -0.859368
-3.167349 -3.279015 -0.744904
-3.169979 -3.279434 -0.637764
-0.000081 -0.049547 -0.001878
-3.176431 -3.282608 -0.424587
-3.368226 -3.475428 -0.337682
-3.332769 -3.438172 -0.223381
-3.370331 -3.473966 -0.113287
-14.386262 -14.656725 -0.001269
-14.383533 -14.648829 0.474552
-14.978614 -15.242200 0.993684
-15.098185 -15.352761 1.502012
-15.223247 -15.468720 2.020279
-15.371403 -15.613321 2.556874
-15.484117 -15.716472 3.094542
-5.583093 -5.694550 1.302779
-5.388310 -5.495691 1.441794
-0.416853 -0.469290 -0.352791
-0.430037 -0.482277 -0.344734
-0.479156 -0.531584 -0.363338
-2.681256 -2.747066 -1.911400
-2.859313 -2.924219 -1.920996
-3.058535 -3.122388 -1.932110
-3.188818 -3.252173 -1.889534
-3.155794 -3.216783 -1.747681
-0.000086 -0.049191 -0.001865
-0.000086 -0.049191 -0.001865
-3.275995 -3.331682 -1.448804
-3.253807 -3.307166 -1.322033
-3.190387 -3.242541 -1.183404
-3.181277 -3.231194 -1.067840
-3.197645 -3.245327 -0.962701
-3.398618 -3.443835 -0.906748
-3.172536 -3.245779 -0.741650
-3.166774 -3.237739 -0.633301
-3.176861 -3.246773 -0.528037
-3.182939 -3.250648 -0.422905
-3.382861 -3.449358 -0.337113
-3.371135 -3.436383 -0.224580
-3.399064 -3.462055 -0.113553
-14.385160 -14.482925 -0.001269
-14.386620 -14.479325 0.471814
-15.153152 -15.237543 0.999282
-15.269074 -15.343025 1.509971
-15.394684 -15.458048 2.030876
-15.528090 -15.586124 2.567566
-15.663637 -15.710780 3.111806
-5.582983 -5.627482 1.295005
-5.310666 -5.353527 1.412546
-0.422852 -0.470235 -0.355838
-0.436154 -0.483191 -0.347659
-0.484346 -0.531026 -0.365202
-2.698818 -2.734207 -1.913183
-2.874055 -2.906575 -1.920129
-3.076400 -3.106704 -1.932911
-3.166052 -3.193615 -1.865627
-3.165483 -3.190849 -1.743304
-3.215229 -3.239106 -1.650257
-3.266864 -3.288073 -1.556206
-3.320054 -3.338510 -1.460111
-3.286420 -3.304040 -1.328085
-3.208163 -3.224299 -1.183392
-3.183212 -3.198496 -1.062756
-3.198179 -3.211090 -0.957699
-3.474254 -3.481668 -0.921916
-3.165172 -3.202568 -0.735803
-3.167139 -3.203419 -0.629949
-3.184809 -3.218801 -0.526402
-3.188055 -3.219810 -0.421221
-3.391317 -3.420806 -0.336125
-3.312057 -3.339691 -0.219447
-3.420901 -3.445462 -0.113634
-14.390626 -14.332648 -0.001266
-14.370448 -14.302636 0.468658
-15.304427 -15.218420 1.003667
-15.432366 -15.339862 1.517931
-15.559892 -15.455433 2.041659
-15.714863 -15.597987 2.584067
-0.000074 -0.048811 -0.001851
-5.579381 -5.563519 1.287233
-5.305253 -5.288894 1.403298
-0.425278 -0.467440 -0.355825
-0.433677 -0.475416 -0.343727
-0.483346 -0.524158 -0.362372
-2.715508 -2.719508 -1.914068
-2.891756 -2.890883 -1.920973
-3.095796 -3.089318 -1.933713
-3.156459 -3.147816 -1.849429
-3.163587 -3.152641 -1.732382
-3.234101 -3.219610 -1.650246
-3.312523 -3.295367 -1.568998
-3.359390 -3.339001 -1.469035
-3.349632 -3.327146 -1.345712
-3.242996 -3.221651 -1.189458
-3.186546 -3.164231 -1.057672
-3.198710 -3.173937 -0.952283
-3.531126 -3.496336 -0.931531
-3.160800 -3.161782 -0.730605
-3.167448 -3.166145 -0.626320
-3.178947 -3.176366 -0.522448
-3.184969 -3.180097 -0.418423
-3.303093 -3.293974 -0.325515
-3.315272 -3.304797 -0.218411
-3.329105 -3.316097 -0.110006
-14.376611 -14.150016 -0.001266
-14.366651 -14.135299 0.465874
-14.346976 -14.106161 0.935432
-14.356732 -14.105875 1.403767
-18.563192 -18.211937 2.421891
-18.958155 -18.591885 3.100137
-0.000079 -0.048456 -0.001837
-5.586607 -5.505149 1.281406
-5.370497 -5.292219 1.412567
-0.430203 -0.466931 -0.357851
-0.439952 -0.476124 -0.346653
-0.477289 -0.512292 -0.355786
-2.728748 -2.700498 -1.912261
-2.909363 -2.875070 -1.921816
-3.106700 -3.064711 -1.929634
-3.149634 -3.104258 -1.834772
-3.170719 -3.123636 -1.726550
-3.249610 -3.197954 -1.648866
-3.340699 -3.285111 -1.573468
-3.374173 -3.315258 -1.467236
-3.373978 -3.312781 -1.347905
-3.254269 -3.195841 -1.186914
-3.182035 -3.123814 -1.050283
-3.197816 -3.137983 -0.946866
-3.465480 -3.394274 -0.909305
-3.166484 -3.130216 -0.727675
-3.173990 -3.136437 -0.624082
-3.176083 -3.136310 -0.518958
-3.184915 -3.142730 -0.415997
-3.300280 -3.253702 -0.323412
-3.317320 -3.267998 -0.217282
-3.333518 -3.282585 -0.109531
-14.365704 -13.977531 -0.001265
-14.358079 -13.960392 0.462904
-14.335875 -13.933999 0.929470
-14.332792 -13.921293 1.393584
-14.309538 -13.893922 1.856384
-14.319211 -13.893580 2.328018
-14.275596 -13.841743 2.788594
-5.621254 -5.477621 1.282389
-5.430300 -5.289503 1.420355
-0.427583 -0.459393 -0.353757
-0.441086 -0.472098 -0.345660
-0.486235 -0.515378 -0.360467
-2.744785 -2.686075 -1.913146
-2.919076 -2.851646 -1.917526
-3.125335 -3.047668 -1.930435
-3.154670 -3.074763 -1.827824
-3.173592 -3.090787 -1.718537
-3.274488 -3.185334 -1.652274
-3.368871 -3.274640 -1.577938
-3.504654 -3.402351 -1.515476
-3.392723 -3.292934 -1.347894
-3.263949 -3.168660 -1.183864
-3.188441 -3.094323 -1.046583
-3.194875 -3.098332 -0.940618
-3.186665 -3.088360 -0.831541
-3.166584 -3.095699 -0.723773
-3.173162 -3.099893 -0.620452
-3.177543 -3.103034 -0.516396
-3.186363 -3.109368 -0.413943
-3.308596 -3.224593 -0.322424
-3.326609 -3.240767 -0.216712
-3.331892 -3.243598 -0.108870
-14.356171 -13.808404 -0.001263
-14.337372 -13.785559 0.459749
-14.321806 -13.761031 0.923416
-14.315874 -13.745750 1.384237
-14.296446 -13.717577 1.844124
-14.289564 -13.706196 2.310364
-14.274603 -13.682337 2.773008
-0.000068 -0.047724 -0.001809
-5.507316 -5.302552 1.432587
-0.433770 -0.460059 -0.356804
-0.447374 -0.472705 -0.348585
-0.480042 -0.503608 -0.353882
-2.760403 -2.669393 -1.913135
-2.931736 -2.830188 -1.914948
-3.142577 -3.029275 -1.930424
-3.152475 -3.036570 -1.816249
-3.176703 -3.057432 -1.710524
-3.312968 -3.185448 -1.662523
-3.390709 -3.256836 -1.579207
-3.319229 -3.186972 -1.427302
-3.414161 -3.275633 -1.348985
-3.316150 -3.180758 -1.196007
-3.179050 -3.050155 -1.037811
-3.198170 -3.066098 -0.936449
-3.178386 -3.045320 -0.824864
-3.167454 -3.060174 -0.719871
-3.172039 -3.063476 -0.616823
-3.181206 -3.070073 -0.514065
-3.192911 -3.079068 -0.412445
-3.308022 -3.187265 -0.320599
-3.329557 -3.205492 -0.215676
-3.336269 -3.209641 -0.108395
-14.345158 -13.639834 -0.001262
-14.325712 -13.611897 0.456779
-14.304238 -13.582070 0.917082
-14.307566 -13.580462 1.375868
-14.283762 -13.548478 1.832421
-14.299603 -13.553977 2.298983
-14.266491 -13.517964 2.756309
-5.670002 -5.397259 1.279166
-5.545556 -5.276169 1.434449
-0.443647 -0.464255 -0.362912
-0.449816 -0.469762 -0.348572
-0.485245 -0.502904 -0.355746
-2.770238 -2.648189 -1.909533
-2.951656 -2.816596 -1.917502
-3.158361 -3.009512 -1.929599
-3.156184 -3.005394 -1.808530
-3.183120 -3.028549 -1.704693
-3.344697 -3.178794 -1.669351
-3.407753 -3.235600 -1.578555
-3.307961 -3.140052 -1.414780
-3.432699 -3.255560 -1.348973
-3.320012 -3.148051 -1.190931
-3.190611 -3.026134 -1.035955
-3.202620 -3.035249 -0.932695
-3.184114 -3.015897 -0.821891
-3.170371 -3.027999 -0.716618
-3.173484 -3.029878 -0.613750
-3.179731 -3.033653 -0.511038
-3.192903 -3.043924 -0.410204
-3.312954 -3.155514 -0.319332
-3.331655 -3.170870 -0.214640
-3.334000 -3.170876 -0.107734
-14.325396 -13.465022 -0.001260
-14.318923 -13.449556 0.454089
-14.297333 -13.419961 0.911680
-14.292002 -13.410274 1.366940
-14.273961 -13.384045 1.821276
-14.278422 -13.378854 2.283188
-14.255527 -13.352796 2.739332
-5.677622 -5.342613 1.273988
-5.551139 -5.221006 1.428163
-0.446034 -0.461325 -0.362898
-0.450973 -0.465624 -0.347579
-0.485266 -0.497329 -0.353855
-2.791734 -2.637922 -1.914008
-2.966244 -2.797973 -1.916635
-3.175374 -2.990917 -1.929587
-3.163681 -2.978015 -1.803123
-3.182449 -2.993335 -1.695224
-3.370963 -3.166789 -1.673443
-3.350932 -3.146070 -1.543973
-3.296280 -3.093379 -1.402259
-3.445458 -3.230143 -1.346756
-3.212725 -3.013017 -1.146351
-3.183403 -2.984908 -1.028105
-3.208270 -3.005782 -0.929357
-3.176577 -2.974491 -0.815585
-3.171591 -2.994557 -0.713040
-3.177544 -2.999050 -0.611233
-3.186691 -3.005471 -0.509403
-3.192593 -3.008871 -0.407964
-3.358613 -3.161820 -0.321971
-3.337873 -3.140410 -0.213884
-3.343150 -3.143126 -0.107444
-14.315848 -13.301769 -0.001258
-14.301947 -13.279601 0.451119
-14.286089 -13.255651 0.906092
-14.272025 -13.238004 1.357735
-0.000085 -0.046659 -0.001769
-14.271758 -13.219243 2.269949
-14.238759 -13.184158 2.721519
-5.689153 -5.292066 1.269783
-5.588079 -5.195257 1.430025
-0.443366 -0.453750 -0.358804
-0.459804 -0.468562 -0.352464
-0.495671 -0.501346 -0.359475
-2.798706 -2.614187 -1.908612
-2.979366 -2.778032 -1.914912
-3.189571 -2.969739 -1.927948
-3.157387 -2.938206 -1.790007
-3.187000 -2.963279 -1.688665
-3.440164 -3.193889 -1.698739
-3.291831 -3.056052 -1.508751
-3.295448 -3.057242 -1.394503
-3.438201 -3.186567 -1.336823
-3.204014 -2.970609 -1.137223
-3.185885 -2.953038 -1.023483
-3.203585 -2.967134 -0.923109
-3.181779 -2.945213 -0.812611
-3.172525 -2.961189 -0.709462
-3.172620 -2.960250 -0.607047
-3.186128 -2.970603 -0.506609
-3.191978 -2.973912 -0.405723
-3.408850 -3.171729 -0.325027
-3.339420 -3.105917 -0.212848
-3.343221 -3.107249 -0.106876
-14.307857 -13.141775 -0.001256
-14.292350 -13.118391 0.448429
-14.270500 -13.089235 0.900317
-0.000068 -0.046282 -0.001755
-0.000068 -0.046282 -0.001755
-0.000068 -0.046282 -0.001755
-14.235155 -13.029500 2.706492
-5.695930 -5.237585 1.264604
-5.606008 -5.152037 1.427073
-0.449509 -0.454285 -0.361851
-0.459631 -0.463187 -0.350491
-2.671535 -2.470656 -1.919911
-2.813445 -2.597663 -1.908600
-2.995041 -2.760459 -1.914900
-3.202805 -2.946727 -1.925496
-3.154821 -2.902257 -1.779204
-3.178881 -2.922018 -1.675560
-3.504781 -3.214651 -1.721299
-3.297853 -3.026508 -1.503618
-3.297145 -3.023773 -1.387938
-3.452491 -3.161884 -1.335158
-3.194954 -2.928428 -1.128095
-3.194405 -2.925904 -1.020705
-3.216490 -2.943775 -0.921849
-3.190161 -2.918034 -0.810378
-3.171728 -2.926587 -0.705560
-3.175177 -2.927691 -0.604252
-3.188198 -2.938489 -0.504278
-3.194040 -2.941752 -0.403854
-3.764426 -3.456495 -0.356812
-3.349588 -3.079575 -0.212370
-3.354871 -3.082223 -0.106679
-0.000074 -0.045927 -0.001741
-14.275455 -12.952378 0.445553
-14.265326 -12.934148 0.895289
-0.000074 -0.045927 -0.001741
-4.035018 -3.686251 0.505400
-0.000074 -0.045927 -0.001741
-14.223661 -12.864881 2.689793
-5.700249 -5.179575 1.258777
-5.623630 -5.108783 1.424121
-0.446808 -0.446657 -0.357757
-0.460812 -0.458938 -0.349498
-2.675352 -2.444962 -1.912387
-2.831197 -2.582948 -1.910382
-3.010626 -2.742806 -1.914888
-3.216732 -2.925433 -1.923858
-3.164840 -2.876978 -1.775338
-3.177348 -2.887165 -1.666092
-3.497750 -3.171512 -1.708975
-3.370070 -3.056338 -1.528574
-3.301417 -2.992925 -1.382565
-3.427320 -3.103172 -1.318609
-3.186954 -2.887727 -1.119474
-3.193513 -2.891570 -1.015160
-3.244318 -2.935827 -0.925164
-3.181183 -2.877583 -0.804071
-3.171148 -2.891544 -0.701658
-3.176981 -2.895773 -0.601457
-3.189040 -2.904579 -0.501715
-3.196330 -2.909096 -0.401985
-3.806300 -3.454366 -0.358893
-3.346692 -3.040638 -0.211055
-3.346953 -3.039812 -0.105878
-0.000079 -0.045572 -0.001728
-0.000079 -0.045572 -0.001728
-0.000079 -0.045572 -0.001728
-4.013208 -3.627027 0.374533
-4.046363 -3.655340 0.504296
-0.000079 -0.045572 -0.001728
-14.208522 -12.703346 2.673095
-5.697862 -5.119721 1.251978
-5.640944 -5.065495 1.421169
-0.442615 -0.438091 -0.352643
-0.463118 -0.456003 -0.349485
-2.687402 -2.428464 -1.911437
-2.846666 -2.567927 -1.911268
-3.027459 -2.726256 -1.915731
-3.234124 -2.908266 -1.924659
-3.159883 -2.840571 -1.763765
-3.175507 -2.852409 -1.656623
-3.402493 -3.052009 -1.654244
-3.444158 -3.086683 -1.554169
-3.324061 -2.978555 -1.384936
-0.000063 -0.045196 -0.001714
-3.188756 -2.856171 -1.114397
-3.202055 -2.866896 -1.012843
-3.256505 -2.912855 -0.923905
-3.179732 -2.843272 -0.799616
-3.167788 -2.856387 -0.697431
-3.172111 -2.859229 -0.597549
-3.182639 -2.866578 -0.498224
-3.194398 -2.875008 -0.399744
-3.753581 -3.369203 -0.352187
-3.361867 -3.020215 -0.210950
-3.341689 -3.000273 -0.105171
-3.945469 -3.532975 -0.001585
-0.000063 -0.045196 -0.001714
-0.000063 -0.045196 -0.001714
-4.022667 -3.594951 0.373568
-4.061100 -3.626338 0.503565
-4.109022 -3.666042 0.638875
-14.180906 -12.537039 2.654727
-5.697365 -5.060385 1.245502
-5.649109 -5.014399 1.415994
-0.453920 -0.443116 -0.359771
-0.482510 -0.467906 -0.362206
-2.706393 -2.417242 -1.915180
-2.859787 -2.549937 -1.910358
-3.042867 -2.708433 -1.915720
-3.257446 -2.895260 -1.928715
-3.170353 -2.817086 -1.760669
-3.171983 -2.816554 -1.646427
-3.374452 -2.992432 -1.632344
-3.441631 -3.048990 -1.545195
-3.348096 -2.965280 -1.387903
-3.186467 -2.823307 -1.213852
-3.190288 -2.824673 -1.109321
-3.212373 -2.842926 -1.010986
-3.274435 -2.894971 -0.924308
-3.188393 -2.818116 -0.797753
-3.173541 -2.828627 -0.695150
-3.174852 -2.828792 -0.595033
-3.185399 -2.836069 -0.496126
-3.198653 -2.845705 -0.398247
-3.726121 -3.306431 -0.347852
-3.360885 -2.984645 -0.209821
-3.345089 -2.968762 -0.104742
-3.973025 -3.516419 -0.001573
-0.000068 -0.044841 -0.001700
-4.013283 -3.546645 0.246810
-4.040050 -3.568754 0.373300
-4.090659 -3.610376 0.504691
-4.126804 -3.639343 0.638421
-14.166000 -12.379389 2.638585
-5.697870 -5.002521 1.239351
-5.655389 -4.962081 1.410449
-0.448472 -0.433281 -0.353636
-0.479732 -0.460091 -0.358274
-2.716399 -2.397287 -1.912350
-2.873266 -2.531402 -1.909449
-3.054036 -2.686929 -1.913140
-3.270147 -2.871919 -1.926262
-3.171396 -2.784595 -1.752178
-3.168139 -2.780809 -1.636230
-3.185601 -2.793946 -1.533153
-0.000078 -0.044481 -0.001686
-0.000078 -0.044481 -0.001686
-3.183974 -2.787680 -1.206674
-3.184262 -2.786953 -1.101712
-3.217124 -2.813296 -1.007286
-3.249278 -2.839979 -0.912655
-3.183432 -2.781388 -0.792557
-3.182557 -2.802926 -0.693517
-3.176353 -2.796573 -0.592238
-3.186896 -2.803756 -0.493795
-3.195636 -2.809367 -0.395820
-3.725791 -3.266928 -0.346027
-3.364670 -2.952529 -0.208971
-3.349781 -2.938635 -0.104359
-3.828539 -3.349942 -0.001567
-3.999747 -3.495321 0.121084
-4.021277 -3.512666 0.246077
-4.074479 -3.556064 0.374567
-4.132266 -3.604607 0.507304
-4.139916 -3.608674 0.637271
-0.000078 -0.044481 -0.001686
-5.697894 -4.944801 1.233200
-5.649317 -4.899584 1.401942
-0.461074 -0.439358 -0.361783
-0.479406 -0.454785 -0.356301
-2.725481 -2.378282 -1.909522
-2.885733 -2.513777 -1.908539
-3.073344 -2.672480 -1.915696
-3.287765 -2.853865 -1.927063
-3.179634 -2.760488 -1.748312
-3.164011 -2.745224 -1.626034
-3.179926 -2.756888 -1.522882
-3.177576 -2.753919 -1.412651
-3.185333 -2.758608 -1.307459
-3.174827 -2.747737 -1.197291
-3.198525 -2.766950 -1.101193
-3.221157 -2.784273 -1.003585
-3.183823 -2.750594 -0.889775
-3.190633 -2.754459 -0.790324
-3.179924 -2.769333 -0.689615
-3.177107 -2.764990 -0.589442
-3.187155 -2.772626 -0.491463
-3.198918 -2.780757 -0.394322
-3.726106 -3.229515 -0.344342
-3.365665 -2.920349 -0.208027
-3.349668 -2.904652 -0.103837
-3.801873 -3.288530 -0.001557
-4.034147 -3.485527 0.121561
-4.030539 -3.480013 0.245436
-4.126531 -3.559352 0.377510
-4.136624 -3.565452 0.505272
-4.145243 -3.571535 0.634959
-14.268517 -12.177540 2.631080
-5.701306 -4.888823 1.227698
-5.621779 -4.819546 1.388249
-0.459482 -0.432929 -0.358710
-0.475181 -0.445941 -0.351390
-2.740629 -2.362846 -1.910448
-2.898972 -2.495096 -1.907629
-3.086118 -2.651497 -1.913972
-3.302496 -2.833345 -1.926238
-3.180180 -2.728115 -1.739822
-3.171449 -2.718845 -1.621658
-3.173954 -2.720005 -1.512610
-3.179111 -2.722449 -1.406238
-3.179466 -2.720843 -1.298511
-3.178582 -2.719147 -1.192869
-3.205751 -2.740100 -1.098143
-3.244338 -2.771584 -1.005879
-3.172389 -2.709192 -0.882279
-3.191128 -2.723032 -0.786609
-3.183992 -2.739855 -0.687009
-3.176093 -2.732209 -0.586369
-3.189631 -2.741752 -0.489364
-3.198363 -2.747219 -0.392267
-3.730666 -3.196046 -0.343075
-3.375055 -2.893537 -0.207550
-3.351294 -2.871464 -0.103362
-3.788406 -3.239156 -0.001546
-4.169156 -3.557814 0.125057
-4.053918 -3.458257 0.245633
-4.174187 -3.558307 0.380033
-4.144642 -3.530950 0.503797
-4.150885 -3.533723 0.632647
-14.423040 -12.166147 2.646677
-5.698902 -4.830175 1.221223
-5.592789 -4.737711 1.374187
-0.468306 -0.435432 -0.363797
-0.489534 -0.452917 -0.360193
-2.748532 -2.342143 -1.906681
-2.917160 -2.481442 -1.910309
-3.102023 -2.635024 -1.914816
-3.318497 -2.813908 -1.926226
-3.195577 -2.709385 -1.739809
-3.173463 -2.689993 -1.615099
-3.177762 -2.691693 -1.507126
-3.172181 -2.686096 -1.396623
-3.169425 -2.681921 -1.288372
-3.188023 -2.695516 -1.190652
-3.210339 -2.713128 -1.094585
-3.230045 -2.727603 -0.996645
-3.175189 -2.681076 -0.878941
-3.192436 -2.693516 -0.783265
-3.178268 -2.703371 -0.682458
-3.179377 -2.703352 -0.584131
-3.194450 -2.714061 -0.487729
-3.203192 -2.719467 -0.390955
-3.385824 -2.871038 -0.310009
-3.368396 -2.854484 -0.206141
-3.342475 -2.831857 -0.102608
-3.797507 -3.209219 -0.001534
-4.346023 -3.663928 0.129808
-4.194200 -3.536201 0.253009
-4.091591 -3.448324 0.370694
-4.162526 -3.506121 0.503622
-4.159618 -3.501239 0.631032
-0.000072 -0.043395 -0.001645
-5.698206 -4.775213 1.215397
-5.584146 -4.677196 1.365679
-0.470488 -0.432450 -0.363784
-0.479713 -0.439805 -0.351363
-2.757642 -2.322540 -1.903852
-2.930735 -2.464757 -1.910297
-3.112698 -2.613284 -1.912237
-3.335809 -2.795556 -1.927028
-3.192384 -2.675330 -1.729777
-3.180028 -2.664204 -1.610723
-3.175549 -2.658644 -1.498906
-3.180493 -2.660848 -1.393410
-3.179125 -2.657855 -1.285977
-3.200275 -2.674310 -1.189538
-3.223143 -2.691224 -1.093561
-3.188776 -2.661118 -0.979113
-3.180650 -2.652581 -0.876018
-3.188359 -2.657973 -0.778440
-3.153537 -2.652503 -0.674017
-3.159531 -2.655601 -0.577718
-3.169508 -2.662915 -0.481687
-3.182765 -2.671999 -0.386671
-3.200493 -2.684759 -0.291727
-3.367586 -2.820704 -0.205105
-3.350754 -2.805830 -0.102364
-3.786368 -3.162791 -0.001524
-4.382234 -3.651183 0.130284
-4.345989 -3.618792 0.260943
-4.108071 -3.421829 0.370426
-4.161457 -3.463295 0.501032
-4.169325 -3.467319 0.629417
-0.000078 -0.043040 -0.001632
-5.704829 -4.723440 1.210867
-5.588730 -4.624913 1.360135
-0.467536 -0.424860 -0.359690
-0.474033 -0.429896 -0.345472
-2.767005 -2.302414 -1.901023
-2.941302 -2.443043 -1.907593
-3.130698 -2.596697 -1.913936
-3.346426 -2.770742 -1.923762
-3.216520 -2.662962 -1.734390
-3.196969 -2.646103 -1.611438
-3.185184 -2.634652 -1.496158
-3.180825 -2.630177 -1.386996
-3.191169 -2.636734 -1.284774
-3.209854 -2.650057 -1.187321
-3.191770 -2.634439 -1.077848
-3.203793 -2.642341 -0.979101
-3.179982 -2.622095 -0.871848
-3.189622 -2.628066 -0.775095
-3.157190 -2.622838 -0.671412
-3.156572 -2.621411 -0.574366
-3.171592 -2.631830 -0.479588
-3.172533 -2.630750 -0.383501
-3.186726 -2.641397 -0.289065
-3.184203 -2.637484 -0.193080
-3.201222 -2.650420 -0.097389
-3.210749 -2.656312 -0.001529
-4.406674 -3.627286 0.130388
-4.369613 -3.595866 0.261141
-4.148174 -3.413388 0.372252
-4.120810 -3.389950 0.493796
-4.168915 -3.426604 0.626408
-4.194584 -3.445007 0.757548
-5.702546 -4.666514 1.204717
-5.586022 -4.568794 1.353109
-0.469667 -0.421886 -0.359676
-0.482956 -0.432346 -0.350356
-2.776823 -2.284337 -1.899132
-2.956062 -2.427351 -1.908478
-3.141130 -2.574857 -1.911357
-3.364918 -2.753347 -1.925377
-3.271341 -2.677005 -1.755960
-3.198848 -2.616776 -1.604879
-3.200051 -2.615898 -1.496146
-3.192719 -2.609079 -1.385704
-3.201589 -2.614363 -1.282974
-3.212841 -2.621556 -1.182899
-3.185512 -2.598694 -1.070746
-3.230865 -2.633235 -0.982777
-3.166232 -2.579581 -0.863937
-3.191100 -2.597677 -0.771751
-3.168490 -2.602335 -0.670751
-3.160583 -2.594119 -0.572406
-3.175193 -2.604995 -0.477953
-3.176080 -2.603874 -0.382189
-3.186116 -2.610131 -0.287659
-3.183089 -2.606768 -0.192137
-3.199062 -2.617795 -0.096867
-3.356637 -2.742718 -0.001513
-4.421943 -3.598495 0.130261
-4.408675 -3.585284 0.262271
-15.408233 -12.416206 1.380688
-4.140607 -3.365088 0.493808
-4.186796 -3.400946 0.626187
-4.189379 -3.400608 0.753106
-5.702172 -4.610040 1.198890
-5.588973 -4.517750 1.347565
-0.474582 -0.420862 -0.361703
-0.489344 -0.432369 -0.353281
-2.792855 -2.269678 -1.900998
-2.970172 -2.409418 -1.908466
-3.158939 -2.558074 -1.913056
-3.379054 -2.732432 -1.924552
-3.401013 -2.747972 -1.816842
-3.209683 -2.593902 -1.602685
-3.203052 -2.587713 -1.490662
-3.198992 -2.582660 -1.381851
-3.206342 -2.586667 -1.278793
-3.182454 -2.566797 -1.166350
-3.212758 -2.589008 -1.074785
-3.265540 -2.629919 -0.988759
-3.182316 -2.562149 -0.864340
-3.188791 -2.565462 -0.767666
-3.177458 -2.578207 -0.669443
-3.181418 -2.580454 -0.573507
-3.193445 -2.588222 -0.478404
-3.202142 -2.593326 -0.383477
-3.213339 -2.601325 -0.288762
-3.376452 -2.729312 -0.202741
-3.314439 -2.678064 -0.099824
-3.782306 -3.049101 -0.001490
-4.457056 -3.583028 0.130690
-4.437444 -3.564914 0.262748
-0.000072 -0.041953 -0.001591
-4.159660 -3.340812 0.493819
-4.161497 -3.339898 0.619461
-4.190017 -3.361303 0.749777
-5.702063 -4.555926 1.193388
-5.590772 -4.464642 1.341650
-0.476754 -0.417760 -0.361689
-0.476523 -0.417308 -0.342492
-2.800093 -2.248825 -1.897231
-2.975329 -2.385273 -1.903070
-3.170094 -2.537790 -1.911333
-3.394493 -2.712566 -1.924540
-0.000078 -0.041598 -0.001577
-3.250256 -2.596306 -1.615767
-3.219131 -2.570017 -1.491333
-3.220572 -2.570236 -1.385039
-3.215993 -2.564822 -1.276994
-3.175766 -2.531464 -1.158621
-3.237587 -2.579015 -1.078318
-3.291123 -2.619116 -0.991974
-3.177850 -2.529501 -0.859338
-3.173420 -2.524241 -0.760619
-3.185816 -2.554618 -0.668134
-3.180437 -2.549470 -0.570712
-3.195568 -2.559586 -0.476537
-3.201119 -2.562145 -0.381607
-3.210772 -2.568834 -0.287216
-0.000078 -0.041598 -0.001577
-3.434399 -2.741936 -0.102919
-3.786977 -3.017019 -0.001479
-4.500967 -3.575463 0.131398
-4.471189 -3.550815 0.263599
-4.442834 -3.526051 0.393360
-4.286148 -3.401945 0.506653
-4.172033 -3.310122 0.618311
-4.201270 -3.330656 0.748396
-5.702322 -4.504197 1.188210
-5.590619 -4.413625 1.335735
-0.481560 -0.416848 -0.363716
-0.481377 -0.416436 -0.344438
-2.813755 -2.233866 -1.898157
-2.992601 -2.371553 -1.905750
-3.184430 -2.519143 -1.911321
-3.404035 -2.688112 -1.921274
-3.632556 -2.864784 -1.923190
-3.304641 -2.608042 -1.635395
-3.254424 -2.567207 -1.500897
-3.251539 -2.564053 -1.392069
-3.174634 -2.502603 -1.254940
-3.208281 -2.526894 -1.165223
-3.273570 -2.576561 -1.085397
-3.332087 -2.620018 -0.999801
-3.172440 -2.494683 -0.853921
-3.174099 -2.494190 -0.757274
-3.184221 -2.524275 -0.664879
-3.185459 -2.523452 -0.569030
-3.190778 -2.526694 -0.473742
-3.201009 -2.532865 -0.379924
-3.252048 -2.570768 -0.289575
-3.466657 -2.736725 -0.206256
-3.442013 -2.715631 -0.102675
-3.778781 -2.975182 -0.001468
-0.000061 -0.041221 -0.001563
-0.000061 -0.041221 -0.001563
-4.484910 -3.517162 0.395324
-4.332791 -3.396838 0.509823
-4.187644 -3.283247 0.617858
-4.209180 -3.297566 0.746459
-5.705275 -4.451811 1.183357
-5.586162 -4.358165 1.328710
-0.475622 -0.407340 -0.357582
-0.487736 -0.416402 -0.347364
-2.828112 -2.217844 -1.899083
-3.009203 -2.355568 -1.907532
-3.201923 -2.502027 -1.913020
-3.419226 -2.668107 -1.921262
-3.655096 -2.847311 -1.926261
-3.347888 -2.609567 -1.649205
-3.294269 -2.567507 -1.512513
-3.192781 -2.487894 -1.360688
-3.177058 -2.474076 -1.250162
-3.237801 -2.519696 -1.170723
-3.305448 -2.569652 -1.090956
-3.362327 -2.612233 -1.004400
-3.177208 -2.468901 -0.851415
-3.169439 -2.461205 -0.752819
-3.183283 -2.492951 -0.661626
-3.187132 -2.495023 -0.566792
-3.200741 -2.503717 -0.473034
-3.206273 -2.506191 -0.378797
-3.396281 -2.651346 -0.301000
-0.000067 -0.040866 -0.001549
-3.443548 -2.683846 -0.102246
-3.798785 -2.955441 -0.001456
-26.345076 -20.239487 0.769836
-26.440042 -20.297609 1.552378
-0.000067 -0.040866 -0.001549
-4.405794 -3.412600 0.516153
-4.224156 -3.271248 0.620425
-4.219991 -3.266891 0.745079
-18.598398 -14.248511 3.844081
-5.588225 -4.306675 1.323166
-0.479076 -0.405260 -0.358589
-0.500997 -0.421679 -0.355187
-2.842019 -2.202239 -1.900010
-3.019637 -2.335675 -1.905725
-3.211730 -2.479909 -1.910441
-3.432838 -2.646899 -1.920436
-3.655035 -2.813592 -1.917771
-3.494747 -2.690051 -1.713935
-3.343217 -2.574243 -1.528233
-3.178102 -2.447351 -1.348511
-3.216908 -2.474973 -1.260277
-3.270429 -2.514573 -1.177326
-3.336940 -2.563053 -1.096515
-3.394164 -2.605377 -1.009459
-3.178632 -2.440753 -0.848076
-3.199012 -2.454387 -0.756509
-3.178496 -2.459863 -0.657723
-3.174417 -2.455877 -0.562048
-3.184845 -2.462056 -0.468616
-3.206151 -2.476486 -0.377114
-3.460503 -2.668783 -0.305312
-3.483607 -2.684409 -0.205394
-3.449156 -2.656363 -0.101956
-3.847376 -2.957315 -0.001443
-18.630905 -14.155076 0.541580
-18.611074 -14.129807 1.087472
-18.613827 -14.126754 1.631212
-4.475976 -3.425256 0.522111
-4.268063 -3.265683 0.624154
-4.243246 -3.245759 0.745925
-18.572790 -14.059941 3.822034
-5.589179 -4.256323 1.317621
-0.483932 -0.404209 -0.360616
-0.498998 -0.415271 -0.352235
-2.850168 -2.182266 -1.897181
-3.031366 -2.316795 -1.904815
-3.224282 -2.459921 -1.909573
-3.446794 -2.625032 -1.919611
-3.679810 -2.798775 -1.922383
-3.514426 -2.672868 -1.716105
-3.395808 -2.582152 -1.545321
-3.190410 -2.427521 -1.347859
-3.241575 -2.464038 -1.264435
-3.303534 -2.508567 -1.183929
-3.363819 -2.552694 -1.100555
-3.437396 -2.605777 -1.017747
-3.189689 -2.419150 -0.847232
-3.200670 -2.425597 -0.753535
-0.000060 -0.040131 -0.001522
-0.000060 -0.040131 -0.001522
-0.000060 -0.040131 -0.001522
-3.205792 -2.446851 -0.375429
-3.506347 -2.670571 -0.307949
-0.000060 -0.040131 -0.001522
-3.452950 -2.627681 -0.101618
-3.683725 -2.798610 -0.001436
-0.000060 -0.040131 -0.001522
-0.000060 -0.040131 -0.001522
-18.597998 -13.941625 1.622565
-18.562862 -13.905241 2.160507
-4.319995 -3.265641 0.629045
-4.305050 -3.252136 0.753454
-18.551222 -13.871264 3.800637
-5.589729 -4.206080 1.312077
-0.491605 -0.405074 -0.364683
-0.501217 -0.411945 -0.352221
-2.862845 -2.164972 -1.897169
-3.047708 -2.300552 -1.906598
-3.239614 -2.442025 -1.910416
-3.464552 -2.606946 -1.921226
-3.693142 -2.774329 -1.920830
-3.532523 -2.654438 -1.717548
-3.520689 -2.643771 -1.595241
-3.222383 -2.422258 -1.355529
-3.267753 -2.454033 -1.269188
-3.339353 -2.505130 -1.191634
-3.401582 -2.550150 -1.108140
-3.475616 -2.602912 -1.024651
-3.179296 -2.383517 -0.840983
-3.193375 -2.392175 -0.748709
-3.187550 -2.407675 -0.653808
-3.181783 -2.402528 -0.558406
-3.195384 -2.410892 -0.466040
-3.200809 -2.413181 -0.373188
-3.548695 -2.670180 -0.310308
-3.475759 -2.614234 -0.203135
-3.448509 -2.593111 -0.101050
-3.657730 -2.746043 -0.001424
-0.000065 -0.039775 -0.001508
-0.000065 -0.039775 -0.001508
-18.581467 -13.762819 1.614196
-18.542286 -13.728858 2.149177
-4.423213 -3.302841 0.641371
-4.379261 -3.268050 0.763209
-18.545561 -13.706209 3.783780
-5.593049 -4.158304 1.307274
-0.492247 -0.400940 -0.363649
-2.742466 -2.052330 -1.912785
-2.876078 -2.149622 -1.898095
-3.055951 -2.279955 -1.903894
-3.253404 -2.422976 -1.910405
-3.478844 -2.587207 -1.921214
-3.703881 -2.750025 -1.918505
-3.579108 -2.656789 -1.732812
-3.471445 -2.577117 -1.566501
-3.251346 -2.414473 -1.361919
-3.300121 -2.448333 -1.276325
-3.368582 -2.497398 -1.197134
-3.187738 -2.363733 -1.034183
-3.508728 -2.596837 -1.030172
-3.178515 -2.354449 -0.837229
-3.197327 -2.366437 -0.746475
-3.184818 -2.377798 -0.650553
-3.183748 -2.376155 -0.556445
-3.195765 -2.383255 -0.464173
-3.186709 -2.374896 -0.370018
-3.587470 -2.667646 -0.312388
-3.465898 -2.576717 -0.201726
-3.455089 -2.566947 -0.100806
-3.658254 -2.714586 -0.001412
-3.661443 -2.714956 0.103871
-3.669061 -2.718552 0.210449
-18.559498 -13.586707 1.605689
-18.532312 -13.556926 2.138962
-4.437108 -3.273435 0.640685
-4.418034 -3.258348 0.766840
-18.531422 -13.531442 3.764977
-5.586480 -4.103698 1.300249
-0.497103 -0.399758 -0.365676
-2.751175 -2.034081 -1.910813
-2.886765 -2.131637 -1.897144
-3.068803 -2.261957 -1.903881
-3.267072 -2.403834 -1.910392
-3.493901 -2.566159 -1.921202
-3.726909 -2.733696 -1.922347
-3.737581 -2.739423 -1.801908
-3.195404 -2.345993 -1.435844
-3.281879 -2.407554 -1.368949
-3.335616 -2.444558 -1.284653
-3.401831 -2.490501 -1.203737
-3.183796 -2.332528 -1.028600
-3.539650 -2.586996 -1.034771
-3.174730 -2.322624 -0.832643
-3.191924 -2.333295 -0.742020
-3.191851 -2.354431 -0.649244
-3.184729 -2.347563 -0.554207
-3.197932 -2.356274 -0.462536
-3.185596 -2.345640 -0.368334
-3.636944 -2.670512 -0.315305
-3.486926 -2.561035 -0.202086
-3.443666 -2.527913 -0.100052
-3.662724 -2.684285 -0.001401
-3.657329 -2.679412 0.103326
-3.666618 -2.684169 0.209435
-18.553780 -13.414147 1.598298
-18.512024 -13.374207 2.127446
-0.000054 -0.039044 -0.001480
-4.438677 -3.232885 0.767129
-4.476978 -3.258065 0.904546
-5.590647 -4.057336 1.295816
-0.499231 -0.396438 -0.365662
-2.762980 -2.017375 -1.910801
-2.902007 -2.116170 -1.899010
-3.080478 -2.242301 -1.902972
-3.279566 -2.382987 -1.909524
-3.508379 -2.545617 -1.921189
-3.729314 -2.701520 -1.915398
-0.000060 -0.038689 -0.001467
-3.191803 -2.315184 -1.428307
-3.314385 -2.400869 -1.376619
-3.377819 -2.444296 -1.295363
-3.434681 -2.483883 -1.210340
-3.180010 -2.300902 -1.023016
-3.581230 -2.585384 -1.042597
-3.159119 -2.283540 -0.825146
-3.187471 -2.302011 -0.737935
-3.186269 -2.321285 -0.645342
-3.188301 -2.321895 -0.552524
-3.197106 -2.326514 -0.460437
-3.205709 -2.330974 -0.369065
-3.686135 -2.673538 -0.318223
-3.469307 -2.516708 -0.200211
-3.443712 -2.496607 -0.099622
-3.658354 -2.648841 -0.001389
-3.661546 -2.649188 0.103013
-3.669234 -2.652735 0.208702
-18.536238 -13.239580 1.590210
-18.499275 -13.203505 2.117232
-0.000060 -0.038689 -0.001467
-4.463437 -3.211483 0.768255
-4.495437 -3.231863 0.904558
-5.598352 -4.012345 1.292124
-0.518138 -0.405133 -0.377891
-2.760097 -1.991000 -1.900992
-2.906711 -2.093961 -1.894302
-3.096048 -2.226237 -1.904754
-3.291546 -2.362666 -1.908657
-3.515307 -2.519754 -1.917110
-3.744587 -2.679638 -1.915386
-4.036894 -2.883709 -1.929914
-3.184894 -2.282336 -1.419403
-3.351177 -2.397746 -1.386210
-3.405660 -2.434319 -1.300712
-3.469152 -2.478081 -1.217494
-3.183477 -2.275506 -1.019965
-3.614942 -2.577776 -1.048118
-3.146374 -2.246963 -0.818482
-3.168261 -2.260672 -0.730517
-3.191322 -2.296851 -0.643709
-3.188476 -2.293998 -0.550286
-3.208599 -2.306548 -0.460193
-3.186317 -2.289123 -0.365338
-3.735469 -2.676068 -0.321140
-3.493324 -2.503246 -0.200758
-3.456189 -2.475233 -0.099564
-3.655354 -2.614704 -0.001378
-3.656902 -2.613881 0.102467
-3.662970 -2.616233 0.207503
-18.522211 -13.069112 1.582540
-18.485184 -13.033394 2.107017
-15.721657 -11.082413 2.245690
-4.484886 -3.187650 0.768823
-4.523462 -3.212378 0.906514
-5.605048 -3.968390 1.288432
-0.507550 -0.392904 -0.368696
-2.777015 -1.978708 -1.904898
-2.919939 -2.077828 -1.895229
-3.099802 -2.201869 -1.899358
-3.303388 -2.342270 -1.907789
-3.534029 -2.502235 -1.919538
-3.758222 -2.656612 -1.914603
-4.053215 -2.860052 -1.929902
-3.190053 -2.258230 -1.415971
-3.380267 -2.388867 -1.392600
-3.431945 -2.423022 -1.305466
-3.505244 -2.473051 -1.225199
-3.178825 -2.244637 -1.014382
-3.653478 -2.573186 -1.055022
-3.149392 -2.221753 -0.815974
-3.172924 -2.236426 -0.728653
-3.188085 -2.266750 -0.640454
-3.211139 -2.282030 -0.551943
-3.206940 -2.277425 -0.458093
-3.184530 -2.260121 -0.363654
-3.783319 -2.676974 -0.323917
-3.474684 -2.459880 -0.198883
-3.476723 -2.459493 -0.099737
-3.658627 -2.585237 -0.001366
-3.656893 -2.582131 0.102061
-3.672839 -2.591318 0.207235
-18.503578 -12.896979 1.574591
-18.473028 -12.866159 2.097174
-15.708307 -10.938113 2.234776
-4.530609 -3.180594 0.773567
-4.530293 -3.178026 0.904257
-5.638895 -3.943514 1.291035
-0.496836 -0.380803 -0.359501
-2.789573 -1.963306 -1.905865
-2.933103 -2.061630 -1.896156
-3.119571 -2.188695 -1.903832
-3.313621 -2.320789 -1.906065
-3.546666 -2.480453 -1.918713
-3.777796 -2.637697 -1.916904
-4.066339 -2.834199 -1.928436
-3.190393 -2.230939 -1.410486
-3.587391 -2.502023 -1.471973
-0.000054 -0.037602 -0.001426
-3.135596 -2.189227 -1.091786
-3.126052 -2.181067 -0.993604
-3.123857 -2.178761 -0.898702
-3.121571 -2.175587 -0.805567
-3.167693 -2.205547 -0.724568
-3.192761 -2.242398 -0.638821
-3.202833 -2.248523 -0.548313
