# This PCD file was generated using the MATLAB® pcwrite function
# from Computer Vision Toolbox®.
# .PCD v.7 - Point Cloud Data file format
VERSION .7
FIELDS x y z
SIZE 4 4 4
TYPE F F F
COUNT 1 1 1
WIDTH 1681
HEIGHT 1
VIEWPOINT 0 0 0 1 0 0 0
POINTS 1681
DATA ascii
25.720253 35.206886 0.993796
0.000097 -0.254142 -0.009502
22.970888 31.381165 2.711979
21.744604 29.670252 3.429818
21.762602 29.672935 4.305956
21.852234 29.785057 5.199216
44.365891 60.688652 12.350885
0.000097 -0.254142 -0.009502
0.330772 0.199016 -0.342244
0.316920 0.179727 -0.311397
0.327298 0.193761 -0.304490
0.336712 0.206299 -0.295935
0.357792 0.234752 -0.296325
0.374768 0.257556 -0.291962
0.375361 0.258176 -0.274858
0.433099 0.336508 -0.295617
2.785698 3.540861 -1.724487
2.981879 3.806601 -1.713452
3.210690 4.114970 -1.703120
3.477252 4.474205 -1.694373
3.784651 4.890283 -1.683460
4.155909 5.390754 -1.672639
4.577662 5.959025 -1.652336
5.098097 6.660291 -1.630787
5.693091 7.538169 -1.598056
6.502729 8.639759 -1.561386
7.602855 10.140531 -1.517293
8.215562 10.969942 -1.311554
8.323555 11.109117 -0.998871
8.354605 11.147287 -0.673081
23.902084 32.340321 -0.960591
23.963913 32.400608 -0.022206
25.670839 34.713631 0.984007
0.000089 -0.253783 -0.009488
0.000089 -0.253783 -0.009488
21.964273 29.598824 3.436495
22.718857 30.613018 4.460265
22.555149 30.368086 5.323370
16.444979 22.056223 4.535122
0.000089 -0.253783 -0.009488
0.333451 0.197402 -0.342231
0.323640 0.183809 -0.315305
0.328892 0.190747 -0.303537
0.341564 0.207525 -0.297717
0.363831 0.237402 -0.298880
0.371183 0.246951 -0.287064
0.373990 0.250369 -0.271759
0.433160 0.329877 -0.293419
2.807509 3.525114 -1.724474
3.000694 3.783634 -1.710876
3.239227 4.101368 -1.704895
3.502138 4.451382 -1.693256
3.820002 4.876526 -1.685982
4.189509 5.368641 -1.673087
4.613470 5.935302 -1.652739
5.138977 6.635216 -1.631515
5.739232 7.504613 -1.598043
6.558574 8.608907 -1.562489
7.665591 10.097199 -1.517512
8.234588 10.857359 -1.304086
8.322325 10.971608 -0.991011
8.330443 10.974326 -0.665846
28.543818 38.203983 -1.136450
24.201681 32.329865 -0.022221
26.117619 34.883595 0.993222
0.000106 -0.253407 -0.009474
23.059303 30.734995 2.679363
22.575365 30.073486 3.505756
16.728653 22.202749 3.256249
16.811010 22.296791 3.934484
16.555147 21.945412 4.531251
0.000106 -0.253407 -0.009474
0.339057 0.200027 -0.345280
0.321891 0.176766 -0.311370
0.332429 0.190679 -0.304463
0.344138 0.205975 -0.297703
0.363417 0.231338 -0.296298
0.375147 0.246617 -0.287865
0.377916 0.250118 -0.272517
0.438761 0.330721 -0.294861
2.826968 3.506238 -1.723091
3.022752 3.765125 -1.710222
3.264264 4.083008 -1.704882
3.529176 4.431491 -1.693243
3.850631 4.856327 -1.686477
4.215960 5.337008 -1.670766
4.651287 5.909733 -1.653142
5.179769 6.604964 -1.631502
5.782476 7.472805 -1.598029
6.613050 8.576083 -1.563313
7.726839 10.059344 -1.518197
8.223629 10.714361 -1.292702
8.319780 10.834487 -0.983150
8.313875 10.822551 -0.659643
18.254704 24.047958 -0.724661
18.273098 24.054686 -0.019012
18.285793 24.062656 0.687333
18.303553 24.068508 1.400467
23.161762 30.501625 2.670625
23.239138 30.581858 3.580572
16.882812 22.139706 3.261127
16.779560 21.986523 3.897003
16.533167 21.643976 4.489516
15.462127 20.217947 4.815688
0.337602 0.192897 -0.341183
0.326541 0.177985 -0.313317
0.336138 0.190479 -0.305389
0.344689 0.201431 -0.295894
0.367374 0.230968 -0.297140
0.379128 0.246266 -0.288666
0.382010 0.249693 -0.273275
0.434306 0.318073 -0.289752
2.850853 3.493247 -1.724447
3.053444 3.756532 -1.714053
3.289930 4.063914 -1.704869
3.554916 4.409902 -1.692678
3.882070 4.835298 -1.686970
4.231568 5.291348 -1.664288
4.686706 5.883204 -1.653129
5.222754 6.580054 -1.632602
5.832997 7.445017 -1.599315
6.669787 8.546115 -1.564695
7.792695 10.020000 -1.519115
8.215117 10.568981 -1.281318
8.285756 10.658041 -0.971786
8.308130 10.679538 -0.654096
18.476049 24.041439 -0.727660
18.469694 24.024210 -0.019030
18.463680 23.998646 0.688628
18.470552 23.990032 1.402238
18.449984 23.954187 2.109260
18.447826 23.933764 2.818844
17.793999 23.059589 3.410803
17.092455 22.132299 3.939785
0.000096 -0.252698 -0.009447
15.676455 20.248007 4.844536
0.343293 0.195391 -0.344232
0.331156 0.179240 -0.315264
0.337614 0.187498 -0.304436
0.348400 0.201228 -0.296778
0.368963 0.227830 -0.296271
0.382008 0.244446 -0.288652
0.387139 0.250761 -0.274804
0.446587 0.327819 -0.295563
2.872386 3.477129 -1.724434
3.073470 3.736768 -1.712758
3.317481 4.050363 -1.706644
3.584071 4.392763 -1.693768
3.911611 4.815431 -1.687464
4.266985 5.271852 -1.665660
4.723297 5.860392 -1.653948
5.259646 6.549599 -1.632217
5.882037 7.417919 -1.600602
6.723970 8.512630 -1.565518
7.858991 9.984765 -1.520497
8.226368 10.455537 -1.273475
8.279170 10.520341 -0.963785
8.291788 10.528933 -0.647986
30.197639 38.997711 -1.174761
40.167316 51.918194 -0.030119
26.017849 33.515892 0.966881
0.000091 -0.252343 -0.009434
23.739883 30.525799 2.696343
23.979137 30.824665 3.640218
17.832855 22.842295 3.393440
15.324607 19.579561 3.504883
15.507041 19.808353 4.148122
15.320454 19.552618 4.700001
0.345792 0.193831 -0.344218
0.334623 0.179114 -0.316231
0.334707 0.178914 -0.299725
0.352015 0.201036 -0.297663
0.373948 0.228917 -0.297970
0.384846 0.242582 -0.288639
0.388909 0.247438 -0.274019
0.457932 0.335883 -0.300646
2.894966 3.462357 -1.725105
3.099409 3.721798 -1.714026
3.342967 4.030972 -1.706631
3.611942 4.373911 -1.694307
3.945177 4.797052 -1.688972
4.312893 5.263674 -1.670725
4.764157 5.836399 -1.655184
5.302327 6.521712 -1.632946
5.925975 7.386850 -1.600914
6.775551 8.475680 -1.565784
7.929461 9.958351 -1.523042
8.211504 10.313880 -1.262091
8.293308 10.411422 -0.958306
8.273977 10.378873 -0.641877
30.564442 39.004929 -1.180159
40.614605 51.875671 -0.030182
26.481144 33.711182 0.976923
26.207363 33.335758 1.963883
28.542469 36.315189 3.219679
28.286928 35.961617 4.263103
18.006279 22.783394 3.400403
15.537182 19.610315 3.526558
0.000086 -0.251988 -0.009421
15.460730 19.491140 4.707039
0.352762 0.197485 -0.348288
0.339400 0.180159 -0.318178
0.342718 0.184225 -0.304409
0.350369 0.193632 -0.294057
0.374546 0.224196 -0.296244
0.387784 0.240658 -0.288625
0.393003 0.246926 -0.274777
2.735671 3.218199 -1.736373
2.916952 3.445467 -1.725092
3.118723 3.699778 -1.712090
3.365218 4.009014 -1.705424
3.642910 4.357285 -1.695949
3.975401 4.776132 -1.689466
4.350621 5.246727 -1.673021
4.800516 5.813125 -1.656004
5.346134 6.497585 -1.634416
5.973765 7.352438 -1.601225
6.834551 8.445013 -1.567445
7.992897 9.911633 -1.523261
8.219244 10.191905 -1.253503
8.258931 10.238538 -0.947222
8.261503 10.234235 -0.636141
31.027058 39.115334 -1.188897
41.086693 51.841408 -0.030253
26.218887 32.966805 0.959808
0.000103 -0.251612 -0.009407
0.000103 -0.251612 -0.009407
0.000103 -0.251612 -0.009407
18.221224 22.784077 3.415939
15.567731 19.415277 3.507686
15.681719 19.552120 4.132615
15.721867 19.588528 4.751784
0.355269 0.195872 -0.348274
0.342883 0.179973 -0.319145
0.344061 0.181293 -0.303456
0.356179 0.196214 -0.296738
0.379542 0.225228 -0.297943
0.389389 0.237416 -0.287797
0.398076 0.247964 -0.276307
2.752142 3.198391 -1.734175
2.937553 3.429475 -1.725078
3.146178 3.688049 -1.714640
3.387301 3.986923 -1.704219
3.669803 4.338737 -1.696487
4.003074 4.751992 -1.688945
4.381260 5.222701 -1.673007
4.836581 5.787255 -1.656407
5.387384 6.470117 -1.635144
6.017356 7.320851 -1.601536
6.881782 8.405518 -1.567152
8.068077 9.890509 -1.526736
8.209230 10.060517 -1.243237
8.251532 10.109911 -0.939780
8.246475 10.096117 -0.630594
20.297377 25.199022 -0.775411
41.618950 51.914803 -0.030360
26.216867 32.585850 0.952954
26.318138 32.689011 1.943551
26.094234 32.396976 2.899991
0.000098 -0.251258 -0.009393
18.348600 22.672897 3.415025
15.742925 19.410337 3.522420
15.768361 19.427963 4.125509
15.722738 19.356937 4.717787
0.359985 0.196850 -0.350302
0.349735 0.183788 -0.323052
0.353172 0.187902 -0.309080
0.356504 0.191726 -0.294929
0.383421 0.224808 -0.298785
0.394573 0.238298 -0.289412
0.405591 0.251779 -0.279379
2.769616 3.179934 -1.732706
2.956999 3.409431 -1.723695
3.167612 3.668736 -1.713986
3.416468 3.973650 -1.706590
3.696967 4.317230 -1.696474
4.035494 4.733740 -1.690452
4.419796 5.204531 -1.675302
4.869887 5.755791 -1.655560
5.427180 6.438395 -1.635131
6.063350 7.289515 -1.602172
6.935518 8.367980 -1.567697
8.026702 9.720439 -1.508117
8.203515 9.932779 -1.233530
8.260279 9.995888 -0.933881
0.000093 -0.250903 -0.009380
19.721613 24.187384 -0.748343
21.878069 26.840160 -0.020321
0.000093 -0.250903 -0.009380
0.000093 -0.250903 -0.009380
26.730455 32.789467 2.949030
0.000093 -0.250903 -0.009380
19.141720 23.383863 3.537597
15.946599 19.424646 3.541874
15.717003 19.127472 4.081833
15.928281 19.380907 4.745526
0.363724 0.196403 -0.351309
0.360022 0.191536 -0.329900
0.353557 0.183438 -0.307187
0.356871 0.187196 -0.293119
0.379292 0.214537 -0.293635
0.393920 0.232132 -0.286956
0.402720 0.242565 -0.275508
2.794042 3.170053 -1.735604
2.982778 3.398507 -1.726420
3.190148 3.650800 -1.713972
3.443154 3.957211 -1.707769
3.728086 4.302167 -1.698668
4.066570 4.713751 -1.691453
4.444964 5.171809 -1.672980
4.904587 5.730361 -1.655963
5.471919 6.417440 -1.637343
6.114199 7.261398 -1.603784
6.995049 8.340542 -1.569915
8.019232 9.591380 -1.495776
8.204661 9.811752 -1.224755
8.233405 9.843376 -0.924338
8.211512 9.809337 -0.619030
19.750738 23.937462 -0.744189
22.059044 26.745056 -0.020319
27.890055 33.856609 0.999691
27.934206 33.898342 2.034175
27.922499 33.859631 3.059181
18.852245 22.771093 2.757266
18.917389 22.834137 3.471351
15.920239 19.162849 3.511060
16.174229 19.465494 4.172138
16.447660 19.784481 4.866059
0.374959 0.205350 -0.359461
0.362486 0.189879 -0.329886
0.358205 0.184527 -0.309053
0.360458 0.186945 -0.294003
0.384272 0.215500 -0.295333
0.397848 0.231616 -0.287757
0.407827 0.243523 -0.277037
2.816071 3.157134 -1.737047
3.003762 3.381641 -1.726406
3.217386 3.638549 -1.716522
3.466115 3.936199 -1.707159
3.754251 4.280986 -1.698654
4.095105 4.690617 -1.691439
4.476136 5.146493 -1.672966
4.942498 5.704529 -1.656782
5.511394 6.385216 -1.637329
6.157320 7.229025 -1.604094
7.044418 8.300477 -1.569901
8.002071 9.459432 -1.482505
8.201188 9.693937 -1.215980
8.224080 9.714583 -0.916897
8.211597 9.695891 -0.614889
19.981419 23.934666 -0.747562
0.000105 -0.250172 -0.009352
28.633160 34.369377 1.019580
26.766109 32.088894 1.935080
18.847071 22.504761 2.047411
19.006298 22.680649 2.759872
17.650185 21.036888 3.215594
16.016596 19.052912 3.507742
15.935386 18.941345 4.080892
16.376898 19.466019 4.811360
0.374355 0.199513 -0.356386
0.367332 0.190766 -0.331833
0.365322 0.188197 -0.312797
0.358470 0.179674 -0.290398
0.389334 0.216334 -0.297033
0.397194 0.225407 -0.285301
0.410743 0.241447 -0.277024
2.832671 3.136451 -1.734849
3.025262 3.364112 -1.726393
3.237979 3.616849 -1.715227
3.492123 3.917380 -1.707742
3.782306 4.260458 -1.699192
4.126842 4.669556 -1.692440
4.509334 5.121687 -1.673414
4.973969 5.670959 -1.655519
5.553207 6.355770 -1.638057
6.204129 7.195758 -1.604730
7.093765 8.257365 -1.569608
7.999740 9.340440 -1.471560
8.223039 9.601118 -1.210560
8.243419 9.618505 -0.912539
8.196176 9.558443 -0.609435
33.193283 39.444263 -1.226937
38.264469 45.476078 -0.028069
29.723661 35.257126 1.051192
26.885693 31.844114 1.929913
19.188126 22.639063 2.069786
19.165079 22.595310 2.763220
19.366076 22.826660 3.504046
15.900301 18.683372 3.457488
16.017216 18.809027 4.072814
16.312712 19.153709 4.758509
0.375828 0.196402 -0.355351
0.370973 0.190330 -0.332800
0.374654 0.194535 -0.318420
0.371308 0.190255 -0.298466
0.389682 0.211693 -0.295306
0.402276 0.226263 -0.286916
0.419539 0.246501 -0.280867
2.846110 3.113336 -1.731194
3.049671 3.351299 -1.728433
3.260193 3.598499 -1.715212
3.519772 3.901935 -1.709517
3.813203 4.244836 -1.701385
4.152603 4.643123 -1.691412
4.543957 5.100426 -1.674785
5.009245 5.644063 -1.655921
5.589891 6.322553 -1.637672
6.253272 7.167818 -1.606340
7.146477 8.221279 -1.570430
0.000091 -0.249459 -0.009325
8.189695 9.447470 -1.197497
8.211273 9.466110 -0.902854
8.185452 9.432108 -0.604544
22.627455 26.494967 -0.833680
22.615957 26.462391 -0.020318
28.196028 33.041203 0.989845
27.170834 31.807989 1.937147
19.203468 22.391598 2.057302
19.284727 22.471258 2.761569
19.124500 22.274458 3.436644
16.018059 18.602434 3.459448
16.058954 18.637154 4.055678
16.379602 19.007402 4.745584
0.380696 0.197137 -0.357379
0.376973 0.192460 -0.335727
0.380737 0.196708 -0.321225
0.373915 0.188408 -0.298452
0.394776 0.212495 -0.297005
0.409759 0.229851 -0.290158
0.424861 0.247153 -0.282396
2.866014 3.096746 -1.731181
3.066690 3.329751 -1.726365
3.280502 3.576566 -1.713917
3.551807 3.890031 -1.713081
3.842782 4.227536 -1.703027
4.180305 4.617289 -1.690891
4.572160 5.071576 -1.673848
5.045666 5.618450 -1.656740
5.631497 6.295079 -1.638770
6.299737 7.133943 -1.606976
7.202852 8.189370 -1.572090
7.995219 9.111035 -1.450600
8.177233 9.317333 -1.187417
8.202248 9.343187 -0.895833
8.175213 9.304792 -0.599652
34.129822 39.608486 -1.244077
22.859196 26.436867 -0.020346
30.264311 35.056641 1.055712
0.000108 -0.249083 -0.009312
19.315367 22.259806 2.055373
19.471033 22.425137 2.769546
19.174932 22.064508 3.421831
16.178007 18.570314 3.470572
18.694054 21.481773 4.690961
16.598740 19.032400 4.775914
0.378772 0.190095 -0.353283
0.379511 0.190642 -0.335713
0.384448 0.196199 -0.322151
0.378754 0.189299 -0.300235
0.399784 0.213297 -0.298704
0.414921 0.230624 -0.291772
0.425310 0.242281 -0.280840
2.885241 3.080546 -1.731167
3.089697 3.315212 -1.727721
3.307450 3.563694 -1.716466
3.564323 3.856889 -1.707700
3.860929 4.196970 -1.699702
4.213342 4.599335 -1.692905
4.601462 5.044056 -1.673372
5.078085 5.588168 -1.656310
5.667806 6.261416 -1.638385
6.342139 7.097882 -1.606962
7.247443 8.143604 -1.571239
7.997052 9.005084 -1.441282
8.228275 9.265911 -1.186844
8.233875 9.269004 -0.893296
8.154263 9.170308 -0.594198
34.667774 39.768276 -1.255164
0.000103 -0.248728 -0.009298
28.439234 32.543789 0.984839
27.969395 31.979216 1.967254
19.462984 22.169643 2.057333
0.000103 -0.248728 -0.009298
16.516506 18.748840 2.926520
16.274403 18.463728 3.468087
19.150583 21.755236 4.773824
16.611387 18.824196 4.747833
0.383541 0.190843 -0.355311
0.390079 0.198013 -0.342561
0.389333 0.197001 -0.324016
0.388337 0.195548 -0.305609
0.406020 0.215438 -0.301259
0.424884 0.236823 -0.296643
0.432979 0.245719 -0.283912
2.900670 3.060015 -1.728969
3.110179 3.297723 -1.727707
3.333100 3.549210 -1.718375
3.595462 3.845249 -1.711265
3.895367 4.185143 -1.703551
4.245021 4.579700 -1.694413
4.635722 5.022206 -1.674743
5.118080 5.566526 -1.658378
5.703897 6.227540 -1.638000
6.389553 7.067554 -1.608247
7.307398 8.115519 -1.573736
7.993985 8.894917 -1.431267
8.145261 9.061363 -1.167256
8.165042 9.080663 -0.880109
8.163610 9.072442 -0.590995
35.137531 39.841991 -1.263710
39.966877 45.335915 -0.028314
28.344114 32.056694 0.975011
28.307436 31.992107 1.978005
19.532507 21.990072 2.051098
19.465334 21.897945 2.732174
19.222059 21.605726 3.385026
19.158216 21.525423 4.057433
16.866709 18.907526 4.175786
16.116734 18.042833 4.575944
0.388339 0.191562 -0.357339
0.392624 0.196100 -0.342548
0.395390 0.199069 -0.326821
0.397985 0.201687 -0.310983
0.412280 0.217512 -0.303814
0.426455 0.233354 -0.295816
0.433372 0.240818 -0.282356
2.920919 3.045012 -1.729684
3.131807 3.281523 -1.728377
3.354916 3.530308 -1.718361
3.617728 3.823421 -1.710654
3.919560 4.161555 -1.702985
4.267621 4.549753 -1.692370
4.675053 5.005952 -1.677961
5.148886 5.534391 -1.657531
5.745018 6.199338 -1.639099
6.434186 7.033940 -1.608883
7.356749 8.075129 -1.574000
7.996510 8.792554 -1.422415
8.136704 8.944570 -1.158481
8.127358 8.930761 -0.870425
8.153563 8.953862 -0.586478
35.465996 39.750027 -1.267174
0.000094 -0.248019 -0.009271
29.649942 33.155354 1.013677
28.614693 31.966314 1.986536
20.102896 22.375723 2.097502
20.127155 22.387058 2.806995
18.588282 20.641693 3.251827
16.814129 18.641190 3.536716
0.000094 -0.248019 -0.009271
16.185162 17.908976 4.565608
0.384008 0.182002 -0.351200
0.398669 0.198096 -0.345475
0.405029 0.205048 -0.332445
0.400584 0.199762 -0.310969
0.416156 0.216832 -0.304657
0.432963 0.235257 -0.298244
0.441117 0.244178 -0.285428
2.937361 3.025733 -1.728213
3.155197 3.266021 -1.729733
3.375356 3.509872 -1.717707
3.646227 3.808559 -1.713025
3.949514 4.142865 -1.704627
4.300349 4.531197 -1.694385
4.699638 4.971248 -1.675639
5.185743 5.507018 -1.658349
5.779231 6.161118 -1.637972
6.476012 6.997115 -1.608869
7.409968 8.036115 -1.574823
7.999429 8.691933 -1.413795
7.994260 8.679863 -1.131064
0.000111 -0.247643 -0.009258
8.143747 8.837192 -0.582055
35.758511 39.615417 -1.269367
0.000111 -0.247643 -0.009258
29.893940 33.042435 1.015481
20.222750 22.256641 1.392168
20.303482 22.330578 2.104462
20.411627 22.434864 2.827934
18.344116 20.130121 3.188363
18.453043 20.236698 3.856670
19.600365 21.495008 4.790700
16.288153 17.814379 4.565254
0.387697 0.181343 -0.352208
0.402490 0.197388 -0.346441
0.410068 0.205604 -0.334310
0.409215 0.204344 -0.315446
0.421247 0.217461 -0.306356
0.436976 0.234479 -0.299045
0.445258 0.243268 -0.286186
2.954912 3.007737 -1.727471
3.174137 3.246776 -1.729034
3.396940 3.490726 -1.717693
3.672079 3.790658 -1.714204
3.978609 4.124661 -1.706268
4.326507 4.505286 -1.693863
4.732238 4.947330 -1.676548
5.227025 5.488448 -1.661250
5.818918 6.133470 -1.639070
6.522873 6.963322 -1.609828
7.460217 7.996602 -1.575366
8.006998 8.594604 -1.405873
8.013665 8.595740 -1.126389
8.062622 8.646627 -0.852458
8.142489 8.728414 -0.578195
36.209202 39.653484 -1.277111
0.000106 -0.247288 -0.009244
0.000106 -0.247288 -0.009244
20.256613 22.035213 1.385615
20.233126 21.993731 2.083785
18.437696 20.012972 2.537806
18.453127 20.015675 3.186989
18.406616 19.950394 3.822526
17.076796 18.484558 4.147032
16.411755 17.742407 4.570815
0.385448 0.174460 -0.348111
0.399077 0.189056 -0.341527
0.416173 0.207579 -0.337115
0.416563 0.207686 -0.319024
0.426368 0.218060 -0.308054
0.443438 0.236342 -0.301473
0.450502 0.243868 -0.287715
2.979918 2.997891 -1.731097
3.195475 3.230173 -1.729705
3.424828 3.478436 -1.720883
3.692702 3.767003 -1.712997
4.003740 4.102049 -1.706254
4.355125 4.482078 -1.694356
4.771317 4.930372 -1.679766
5.256983 5.453368 -1.659986
5.858015 6.100636 -1.639426
6.564369 6.928592 -1.610139
7.512920 7.959701 -1.576468
7.999905 8.488578 -1.396090
8.118087 8.611399 -1.134017
8.101577 8.587173 -0.851182
8.195194 8.686109 -0.578368
18.509960 19.915522 -0.653277
18.509977 19.901377 -0.017809
18.514061 19.898726 0.617424
18.526426 19.898022 1.258481
18.531530 19.889420 1.895748
18.487421 19.827387 2.528194
18.574903 19.915276 3.187932
18.554842 19.879358 3.829208
17.405779 18.619715 4.199799
16.511087 17.643623 4.569722
0.392608 0.177568 -0.352181
0.411139 0.197279 -0.349355
0.423666 0.210645 -0.340859
0.422904 0.209503 -0.321704
0.434024 0.221169 -0.311466
0.454928 0.243528 -0.307158
0.457172 0.245601 -0.290015
3.002922 2.984600 -1.733268
3.216724 3.213443 -1.730375
3.441713 3.452857 -1.718305
3.719066 3.748181 -1.714176
4.031340 4.082088 -1.707344
4.385737 4.459329 -1.695356
4.803710 4.906011 -1.680675
5.299065 5.433365 -1.662887
5.895805 6.068575 -1.639783
6.612189 6.895659 -1.611424
7.553349 7.909404 -1.575058
7.997590 8.383036 -1.386772
8.112274 8.500641 -1.125987
8.146902 8.534886 -0.850607
8.150177 8.532254 -0.571600
21.408218 22.796925 -0.749333
21.388227 22.767307 -0.019064
0.000096 -0.246578 -0.009217
20.438177 21.714191 1.380373
20.846859 22.145445 2.120485
18.456123 19.563589 2.508213
19.952669 21.154915 3.403178
18.289494 19.364063 3.750906
17.275789 18.264133 4.142534
16.547195 17.471014 4.550515
0.386811 0.166865 -0.345022
0.411290 0.192704 -0.347381
0.431119 0.213708 -0.344604
0.427971 0.210028 -0.323486
0.444148 0.226945 -0.316589
0.460244 0.243924 -0.308772
0.473894 0.258109 -0.298488
3.017643 2.963526 -1.731070
3.236601 3.195219 -1.730361
3.466868 3.437481 -1.720213
3.743325 3.728447 -1.714758
4.060150 4.063346 -1.708985
4.411452 4.432954 -1.694834
4.835988 4.881460 -1.681584
5.334378 5.405958 -1.663705
5.934791 6.037745 -1.640510
6.649174 6.853502 -1.610435
7.611012 7.877672 -1.577275
7.998262 8.285034 -1.378384
8.140718 8.430898 -1.122990
8.127695 8.413973 -0.843445
8.182819 8.466596 -0.570366
0.000091 -0.246224 -0.009204
0.000091 -0.246224 -0.009204
37.715828 39.842419 1.251445
37.707535 39.805511 2.538817
20.513130 21.534462 2.073558
20.710159 21.728254 2.798376
20.030613 20.992323 3.395550
19.879576 20.824770 4.052811
17.676119 18.476118 4.212776
16.765043 17.498661 4.582325
0.399832 0.176233 -0.354195
0.410226 0.186904 -0.344427
0.426463 0.203880 -0.338953
0.431816 0.209206 -0.324371
0.449337 0.227343 -0.318289
0.465651 0.244183 -0.310387
0.495862 0.275799 -0.310045
3.041217 2.951853 -1.733968
3.258261 3.177672 -1.731032
3.491943 3.421926 -1.722122
3.766138 3.707164 -1.714744
4.085644 4.039529 -1.708971
4.441006 4.410635 -1.695834
4.867676 4.854443 -1.682031
5.367814 5.374554 -1.663691
5.973319 6.004184 -1.640867
6.692662 6.818309 -1.611070
7.661823 7.835614 -1.577818
7.999413 8.188734 -1.370229
8.100088 8.288904 -1.110671
8.125364 8.309540 -0.837964
8.209486 8.395078 -0.568756
16.563818 17.176361 -0.574845
0.000108 -0.245848 -0.009190
0.000108 -0.245848 -0.009190
0.000108 -0.245848 -0.009190
17.538002 18.155840 1.760383
20.558422 21.309914 2.760435
19.907146 20.619709 3.354097
17.557417 18.143953 3.555977
17.428333 17.995966 4.127681
16.716217 17.244463 4.541306
0.399952 0.171731 -0.352140
0.415186 0.187324 -0.346374
0.435251 0.208086 -0.343637
0.439462 0.212155 -0.327949
0.455893 0.228937 -0.320844
0.473625 0.247049 -0.313629
0.514287 0.289157 -0.319289
3.061427 2.935447 -1.734682
3.281132 3.161349 -1.732387
3.512336 3.400138 -1.721467
3.792196 3.687870 -1.715922
4.109670 4.014188 -1.708405
4.468544 4.384544 -1.695820
4.897849 4.825821 -1.682016
5.405170 5.347203 -1.664925
6.017146 5.976064 -1.642706
6.738579 6.783123 -1.612029
7.709639 7.790362 -1.577803
7.999805 8.089883 -1.361841
8.092659 8.180730 -1.102827
8.130379 8.214078 -0.833325
0.000103 -0.245493 -0.009177
16.773645 17.189077 -0.578451
0.000103 -0.245493 -0.009177
0.000103 -0.245493 -0.009177
20.726803 21.260324 1.374318
19.025007 19.480742 1.898594
20.988821 21.501717 2.801003
20.581139 21.071817 3.446555
17.205198 17.562632 3.462955
0.000103 -0.245493 -0.009177
17.205025 17.543743 4.645575
0.399879 0.167385 -0.350085
0.416399 0.184130 -0.345379
0.450064 0.218681 -0.353018
0.448229 0.216466 -0.332425
0.459799 0.228051 -0.321686
0.477546 0.246147 -0.314430
2.892128 2.728582 -1.743322
3.081753 2.921345 -1.736123
3.298210 3.142571 -1.731688
3.535292 3.383550 -1.722733
3.812774 3.665631 -1.715311
4.131324 3.990890 -1.707838
4.501086 4.366803 -1.698341
4.923860 4.798226 -1.681540
5.431229 5.314027 -1.663661
6.053453 5.946584 -1.643433
6.781850 6.749999 -1.612988
7.758517 7.754588 -1.578903
8.021327 8.019784 -1.357639
8.088248 8.082907 -1.095915
8.117631 8.110228 -0.827423
9.447627 9.472384 -0.645447
16.953001 17.180042 -0.581209
21.789927 22.143858 -0.018937
0.000094 -0.245134 -0.009163
20.835413 21.133150 1.373596
20.942066 21.235044 2.079167
20.522108 20.789568 2.723255
17.241564 17.414703 2.869227
17.240385 17.407303 3.450753
18.190062 18.366652 4.258136
17.212017 17.353607 4.620823
0.408267 0.171574 -0.355175
0.415195 0.178344 -0.342425
0.457682 0.221487 -0.356762
0.453397 0.216799 -0.334207
0.466326 0.229631 -0.324241
0.491977 0.255382 -0.321743
2.891076 2.693805 -1.732509
3.098643 2.902584 -1.735381
3.318256 3.123298 -1.731673
3.554806 3.362141 -1.722078
3.839241 3.648029 -1.717086
4.161785 3.972128 -1.710031
4.524868 4.338420 -1.697312
4.950971 4.766515 -1.680601
5.468248 5.286234 -1.664896
6.084563 5.905329 -1.641935
6.820637 6.709767 -1.612649
7.819724 7.722905 -1.581677
8.001998 7.905772 -1.346460
8.123523 8.023766 -1.094222
8.108310 8.002508 -0.821523
9.451597 9.365465 -0.641961
17.149862 17.180822 -0.584438
0.000111 -0.244758 -0.009149
0.000111 -0.244758 -0.009149
20.914709 20.969061 1.370745
17.640312 17.635307 1.739324
19.580427 19.587917 2.582179
17.488165 17.462479 2.893339
17.283560 17.243071 3.438550
17.345333 17.293301 4.035501
17.243959 17.184690 4.602357
0.405901 0.164636 -0.351078
0.414020 0.172527 -0.339471
0.459188 0.217863 -0.355810
0.459910 0.218265 -0.336887
0.470398 0.228488 -0.325084
0.500016 0.258093 -0.324985
2.907162 2.675650 -1.731723
3.113325 2.880545 -1.733182
3.337597 3.104487 -1.731659
3.582832 3.348046 -1.725268
3.866337 3.629608 -1.718860
4.183291 3.945731 -1.708913
4.551983 4.311846 -1.697297
4.988001 4.746532 -1.683357
5.495880 5.250875 -1.663632
6.119886 5.870544 -1.641920
6.865942 6.673722 -1.613608
7.865486 7.678099 -1.581662
8.006822 7.814821 -1.339235
8.078375 7.881158 -1.081717
8.103623 7.903696 -0.816322
9.461954 9.262846 -0.638850
17.330555 17.157024 -0.587008
21.129869 20.964466 -0.018493
0.000106 -0.244403 -0.009136
20.921684 20.726143 1.362990
17.609100 17.399618 1.726147
18.035194 17.813923 2.363893
17.941181 17.707228 2.950814
17.383991 17.143616 3.438568
17.450239 17.197672 4.036489
17.283106 17.018534 4.585369
0.404588 0.159002 -0.348002
0.422596 0.176650 -0.344358
0.464354 0.218069 -0.357675
0.468896 0.222264 -0.341363
0.480817 0.233786 -0.330207
0.513349 0.265768 -0.331484
2.929188 2.664433 -1.734794
3.137869 2.869467 -1.736809
3.362747 3.090273 -1.734383
3.599422 3.323704 -1.723332
3.888586 3.607635 -1.718846
4.208082 3.921192 -1.708898
4.583652 4.291358 -1.699311
5.017513 4.717189 -1.683343
5.539510 5.229510 -1.666949
6.163060 5.841389 -1.643759
6.911283 6.640010 -1.614892
7.878679 7.598121 -1.574952
8.006640 7.722700 -1.331545
8.071390 7.781512 -1.074618
8.102314 7.806626 -0.811401
9.457028 9.149431 -0.634895
17.464535 17.091084 -0.588120
0.000102 -0.244049 -0.009122
0.000102 -0.244049 -0.009122
21.348661 20.909414 1.382998
21.303230 20.849636 2.077833
17.877317 17.445032 2.329285
18.131830 17.690580 2.965196
17.464310 17.018234 3.434142
17.480400 17.022058 4.019678
17.909525 17.439726 4.724760
0.403303 0.153340 -0.344926
0.421350 0.170819 -0.341404
0.467083 0.215660 -0.357661
0.478036 0.226105 -0.345839
0.483557 0.231366 -0.330194
0.547572 0.293892 -0.351007
2.943750 2.644763 -1.733237
3.157095 2.853021 -1.737522
3.381902 3.071215 -1.734369
3.621272 3.304606 -1.723958
3.909325 3.584182 -1.718235
4.234761 3.899946 -1.709987
4.609689 4.265234 -1.699297
5.050199 4.692668 -1.684713
5.571403 5.200225 -1.667350
6.198357 5.808608 -1.644115
6.949197 6.596468 -1.614228
7.875697 7.505728 -1.565452
8.021191 7.643371 -1.326180
8.067749 7.683603 -1.067892
8.091614 7.704267 -0.805780
9.439879 9.022128 -0.630096
21.361744 20.716946 -0.713290
0.000097 -0.243694 -0.009109
0.000097 -0.243694 -0.009109
21.011990 20.337721 1.353311
21.209072 20.516237 2.056880
20.925051 20.231052 2.712960
17.989090 17.345951 2.925133
17.399103 16.757162 3.401944
17.703606 17.048639 4.048822
18.140451 17.462946 4.758790
0.415371 0.161038 -0.353078
0.429894 0.174887 -0.346292
0.473448 0.217106 -0.360466
0.492181 0.234994 -0.353907
0.492761 0.235223 -0.334461
2.827111 2.501767 -1.764986
2.974413 2.642780 -1.741708
3.176206 2.836432 -1.738236
3.404406 3.056553 -1.736408
3.645717 3.287990 -1.725866
3.932694 3.563304 -1.718817
4.264740 3.883268 -1.712732
4.639759 4.243008 -1.700803
5.080487 4.667450 -1.685622
5.599856 5.165694 -1.666502
6.243008 5.782721 -1.646696
6.994355 6.564789 -1.615836
7.867770 7.412276 -1.555393
8.001023 7.536492 -1.315698
8.091887 7.619341 -1.065267
8.082913 7.607870 -0.800580
9.428400 8.908397 -0.625953
21.707443 20.812508 -0.720657
0.000114 -0.243318 -0.009095
41.313736 39.788296 1.308551
21.140223 20.226458 1.353978
18.714121 17.870939 1.803980
17.583004 16.764170 2.265441
18.208633 17.357006 2.944381
17.513714 16.679369 3.405850
18.086872 17.220963 4.113566
18.679195 17.780281 4.873042
0.416452 0.157805 -0.352044
0.422266 0.163117 -0.338436
0.472258 0.211045 -0.357634
0.500081 0.237462 -0.357485
0.507251 0.244012 -0.342154
2.835437 2.477707 -1.760088
2.990996 2.625969 -1.741694
3.195244 2.819743 -1.738950
3.421216 3.034054 -1.735025
3.668746 3.269927 -1.727133
3.958695 3.544913 -1.720591
4.287753 3.856910 -1.712166
4.659929 4.211225 -1.698760
5.109537 4.637574 -1.685607
5.637514 5.138131 -1.668152
6.284355 5.751364 -1.648164
7.034873 6.526121 -1.616146
7.860248 7.315032 -1.545056
8.008471 7.454859 -1.309636
8.063807 7.502628 -1.055744
8.077556 7.510406 -0.795519
9.414654 8.790689 -0.621623
21.805262 20.665363 -0.719885
21.877792 20.720236 -0.018530
0.000109 -0.242963 -0.009082
21.159613 20.010788 1.347704
18.933731 17.867506 1.814832
17.641857 16.619991 2.260089
17.674873 16.645628 2.841996
17.775696 16.730082 3.437252
18.115929 17.042852 4.096756
18.447025 17.352608 4.785814
0.412589 0.149756 -0.346927
0.423393 0.159751 -0.337442
0.471105 0.204947 -0.354802
0.522359 0.253302 -0.370941
0.523254 0.253804 -0.350702
2.852386 2.462946 -1.760888
3.009291 2.609782 -1.742451
3.214704 2.802357 -1.739663
3.441409 3.015957 -1.735695
3.695035 3.253665 -1.729682
3.986638 3.526948 -1.722962
4.311301 3.832511 -1.712151
4.691920 4.189182 -1.700773
5.140380 4.611085 -1.686515
5.671258 5.108616 -1.668970
6.315911 5.712730 -1.647407
7.077772 6.487333 -1.616780
7.917987 7.283628 -1.547830
8.007916 7.363782 -1.302178
8.054732 7.402896 -1.048645
8.074308 7.418790 -0.790879
9.408642 8.678656 -0.617761
0.000104 -0.242609 -0.009068
0.000104 -0.242609 -0.009068
0.000104 -0.242609 -0.009068
21.479710 20.074694 1.360495
21.309414 19.906546 2.032494
17.715527 16.496595 2.257145
17.594219 16.370337 2.813054
17.952368 16.702568 3.452546
18.370222 17.084845 4.131726
18.558250 17.249943 4.787681
0.424863 0.157155 -0.355079
0.424433 0.156472 -0.336448
0.471108 0.200175 -0.352909
0.521300 0.246978 -0.368233
0.539271 0.263492 -0.359251
2.870583 2.449327 -1.762502
3.027028 2.594034 -1.743208
3.229470 2.781605 -1.738193
3.460118 2.996439 -1.735680
3.710949 3.228791 -1.727745
4.004113 3.500387 -1.721158
4.333303 3.806666 -1.711584
4.723010 4.167714 -1.702787
5.172532 4.585756 -1.687885
5.699121 5.073554 -1.668122
6.357293 5.683315 -1.649247
7.125047 6.454930 -1.618714
7.855844 7.139263 -1.527450
8.015400 7.283913 -1.296347
8.047814 7.309057 -1.042105
8.064446 7.322010 -0.785678
9.400117 8.568679 -0.613899
0.000099 -0.242254 -0.009055
0.000099 -0.242254 -0.009055
0.000099 -0.242254 -0.009055
21.781683 20.124292 1.372268
18.706703 17.242943 1.773481
18.027012 16.595829 2.284568
18.222559 16.766556 2.898101
17.930902 16.488455 3.429791
18.478378 16.987211 4.133687
18.309233 16.817535 4.697865
0.420858 0.149208 -0.349962
0.433112 0.160315 -0.341336
0.469775 0.194217 -0.350077
0.530666 0.250412 -0.372709
2.710480 2.271264 -1.760021
2.883354 2.430620 -1.760859
3.047376 2.580674 -1.745508
3.248198 2.764577 -1.738907
3.480090 2.978089 -1.736350
3.732273 3.209008 -1.728371
4.026999 3.478912 -1.721740
4.357973 3.783314 -1.712121
4.749748 4.142106 -1.703279
5.204531 4.560191 -1.689255
5.733960 5.044982 -1.669356
6.388419 5.644292 -1.648489
7.167844 6.418180 -1.619672
7.848903 7.048442 -1.517949
8.064431 7.243385 -1.297262
8.094094 7.265654 -1.042462
8.084476 7.254100 -0.783420
9.393559 8.461803 -0.610225
0.000094 -0.241899 -0.009041
0.000094 -0.241899 -0.009041
0.000094 -0.241899 -0.009041
21.613989 19.735794 1.354334
18.886221 17.208397 1.781000
18.078327 16.450214 2.278847
0.000094 -0.241899 -0.009041
18.303581 16.640423 3.482579
20.057535 18.245222 4.463806
19.085220 17.336699 4.871270
0.425638 0.149465 -0.351990
0.430286 0.153459 -0.337401
0.472279 0.191864 -0.350063
0.529534 0.244075 -0.370002
2.722253 2.253535 -1.758294
2.898704 2.414332 -1.760845
3.067655 2.567163 -1.747808
3.272337 2.752471 -1.742532
3.501348 2.960884 -1.737705
3.752095 3.187822 -1.728356
4.055408 3.462451 -1.724707
4.383906 3.761084 -1.713210
4.772063 4.112431 -1.702250
5.229239 4.527885 -1.688317
5.767195 5.014854 -1.670174
6.429478 5.614377 -1.650328
7.210443 6.381151 -1.620631
7.845526 6.961942 -1.509285
7.981526 7.081675 -1.277244
8.097560 7.182928 -1.037413
8.064271 7.149810 -0.777378
9.396381 8.364736 -0.607208
37.193134 33.800522 -1.195318
0.000111 -0.241523 -0.009027
0.000111 -0.241523 -0.009027
19.213943 17.313688 1.196564
0.000111 -0.241523 -0.009027
18.397722 16.550234 2.307011
18.280750 16.431765 2.876593
18.508797 16.633831 3.503150
19.794554 17.793461 4.381948
19.101845 17.150110 4.849847
0.421521 0.141589 -0.346872
0.435140 0.153681 -0.339348
0.479985 0.194230 -0.353808
0.532327 0.241382 -0.369988
2.733907 2.235754 -1.756567
2.913964 2.397962 -1.760830
3.078315 2.544860 -1.744707
3.286774 2.731444 -1.741061
3.522524 2.943545 -1.739060
3.775998 3.170320 -1.730264
4.075259 3.438114 -1.724096
4.406888 3.736128 -1.713195
4.807126 4.094312 -1.705784
5.259498 4.500640 -1.689225
5.801737 4.985842 -1.671408
6.464562 5.578927 -1.650684
7.249918 6.341191 -1.620941
7.841430 6.875743 -1.500621
7.995612 7.010587 -1.272810
8.026576 7.033560 -1.023044
8.043129 7.046001 -0.771337
16.896603 15.056708 -1.079036
37.407845 33.603550 -1.195904
37.384060 33.570141 -0.024675
0.000106 -0.241169 -0.009014
19.130880 17.037058 1.185109
0.000106 -0.241169 -0.009014
18.474901 16.427023 2.304624
18.656811 16.579323 2.920633
18.627741 16.547207 3.507335
21.278118 18.922422 4.686502
19.057047 16.910006 4.813268
0.428898 0.144037 -0.350941
0.434881 0.149133 -0.337374
0.483878 0.192923 -0.354733
0.537842 0.240966 -0.371770
2.740050 2.213098 -1.751415
2.924129 2.376118 -1.757559
3.093429 2.525690 -1.743921
3.306611 2.715307 -1.742503
3.541372 2.922965 -1.739044
3.799829 3.152673 -1.732171
4.097818 3.416231 -1.724677
4.431850 3.711558 -1.713732
4.826242 4.061773 -1.703741
5.286092 4.468421 -1.688748
5.836140 4.956624 -1.672641
6.496522 5.540674 -1.650296
7.287386 6.297109 -1.620600
7.837824 6.788472 -1.491957
7.986727 6.916980 -1.264653
8.023619 6.944989 -1.017249
8.022312 6.941291 -0.765294
16.942394 14.916570 -1.076203
37.813766 33.577183 -1.202557
0.000097 -0.240810 -0.009001
0.000097 -0.240810 -0.009001
19.425306 17.101267 1.197253
19.174480 16.865301 1.779810
18.690979 16.428085 2.319643
18.742977 16.462706 2.919031
18.588007 16.312948 3.481250
0.000097 -0.240810 -0.009001
0.000097 -0.240810 -0.009001
0.431049 0.142003 -0.350928
0.439647 0.149358 -0.339321
0.482327 0.187057 -0.351901
0.535168 0.233568 -0.368165
2.763608 2.206017 -1.757394
2.940516 2.360797 -1.758359
3.107453 2.507510 -1.743135
3.322196 2.695348 -1.741760
3.559533 2.902872 -1.739030
3.819311 3.131092 -1.732156
4.114503 3.389125 -1.722873
4.453093 3.685049 -1.713165
4.853844 4.036821 -1.704740
5.314598 4.439553 -1.689194
5.868351 4.923556 -1.673042
6.535128 5.506261 -1.651394
7.329698 6.261914 -1.621883
7.833702 6.704144 -1.483572
8.004274 6.852859 -1.261148
8.001026 6.844992 -1.009404
8.021708 6.858307 -0.761355
16.878643 14.691031 -1.066899
38.202637 33.531353 -1.208647
0.000114 -0.240434 -0.008987
0.000114 -0.240434 -0.008987
19.608744 17.063492 1.202455
18.828236 16.363024 1.738578
18.687946 16.227709 2.307071
18.749432 16.276066 2.905149
19.005619 16.489958 3.541536
0.000114 -0.240434 -0.008987
0.000114 -0.240434 -0.008987
0.433317 0.139804 -0.350914
0.441962 0.147111 -0.339307
0.484856 0.184548 -0.351887
0.533953 0.227228 -0.365457
2.775365 2.187562 -1.755667
2.962340 2.350203 -1.762414
3.126483 2.491808 -1.744663
3.338148 2.674707 -1.741017
3.584644 2.888844 -1.742438
3.837819 3.107478 -1.731501
4.140288 3.368769 -1.724647
4.477099 3.660980 -1.713701
4.884976 4.013385 -1.706753
5.341455 4.409217 -1.689179
5.906848 4.897731 -1.675525
6.574063 5.474057 -1.652861
7.374097 6.223875 -1.623166
7.824425 6.616209 -1.474350
7.956576 6.727098 -1.247177
8.005456 6.764959 -1.004728
8.015911 6.771634 -0.756994
16.872187 14.508142 -1.060971
18.022152 15.502247 -0.571963
0.000109 -0.240079 -0.008973
0.000109 -0.240079 -0.008973
19.530380 16.789639 1.191370
18.940083 16.269091 1.740126
19.153391 16.443253 2.352828
18.917522 16.226183 2.916059
20.152063 17.294573 3.736803
68.936790 59.700928 14.970535
0.000109 -0.240079 -0.008973
0.432904 0.135414 -0.348859
0.446819 0.147200 -0.341254
0.481967 0.177497 -0.348116
0.537972 0.225659 -0.366342
2.792028 2.174251 -1.757365
2.977204 2.333451 -1.762400
3.142152 2.474100 -1.744649
3.360531 2.660670 -1.743914
3.599771 2.866060 -1.741054
3.862792 3.090642 -1.734049
4.158117 3.342734 -1.723439
4.500937 3.636731 -1.714238
4.915267 3.990594 -1.708766
5.371105 4.381284 -1.690087
5.937831 4.865267 -1.675925
6.609831 5.439006 -1.653587
7.418642 6.188101 -1.624774
7.817381 6.531200 -1.465686
7.948493 6.639904 -1.239719
7.974879 6.657871 -0.995950
8.003344 6.680046 -0.752073
16.851042 14.319673 -1.054386
39.023205 33.452866 -1.221905
0.000104 -0.239725 -0.008960
0.000104 -0.239725 -0.008960
0.000104 -0.239725 -0.008960
19.066593 16.187454 1.743064
0.000104 -0.239725 -0.008960
20.221266 17.157692 3.102123
20.131071 17.073973 3.714328
0.000104 -0.239725 -0.008960
0.000104 -0.239725 -0.008960
0.432440 0.131031 -0.346804
0.447718 0.143848 -0.340260
0.488374 0.178506 -0.350921
0.546081 0.227563 -0.369920
2.812751 2.164356 -1.761632
2.991976 2.316620 -1.762385
3.160536 2.458712 -1.746177
3.377170 2.641615 -1.743900
3.620465 2.848079 -1.742408
3.879005 3.066220 -1.732753
4.181581 3.321554 -1.724617
4.523200 3.611114 -1.714223
4.936591 3.960056 -1.707736
5.403550 4.355665 -1.691918
5.968623 4.832608 -1.676326
6.646940 5.405037 -1.654684
7.457047 6.146920 -1.625083
7.812615 6.449070 -1.457580
7.935170 6.549191 -1.231563
7.967555 6.572077 -0.990155
7.989982 6.588835 -0.747152
16.835852 14.138398 -1.048271
18.200752 15.293034 -0.571876
0.000099 -0.239370 -0.008946
0.000099 -0.239370 -0.008946
0.000099 -0.239370 -0.008946
20.787724 17.463137 1.891841
19.238106 16.131910 2.339907
20.172821 16.915197 3.079439
20.314953 17.029949 3.729902
0.000099 -0.239370 -0.008946
0.000099 -0.239370 -0.008946
0.431925 0.126656 -0.344749
0.456569 0.147251 -0.345147
0.492136 0.177202 -0.351846
0.517382 0.198247 -0.349253
2.822407 2.144976 -1.759049
3.009890 2.301543 -1.763999
3.177445 2.442023 -1.746934
3.395149 2.623693 -1.744613
3.641585 2.829310 -1.743763
3.902340 3.047858 -1.734660
4.206417 3.301472 -1.726391
4.548898 3.587025 -1.715312
4.959225 3.930677 -1.707214
5.432221 4.325140 -1.692364
6.006103 4.803748 -1.678393
6.680300 5.365838 -1.654668
7.507272 6.115711 -1.627990
7.808310 6.365855 -1.449474
7.930140 6.466533 -1.224802
7.953416 6.481452 -0.983615
7.966335 6.487602 -0.741250
16.828323 13.965545 -1.042717
0.000116 -0.238994 -0.008932
0.000116 -0.238994 -0.008932
0.000116 -0.238994 -0.008932
0.000116 -0.238994 -0.008932
21.420624 17.784292 1.939921
20.767694 17.222532 2.513986
20.979940 17.394737 3.187427
0.000116 -0.238994 -0.008932
0.000116 -0.238994 -0.008932
0.000116 -0.238994 -0.008932
0.442020 0.131085 -0.350859
0.457509 0.143770 -0.344153
0.491873 0.172354 -0.349954
0.525449 0.200106 -0.352831
2.840687 2.132037 -1.761603
3.023069 2.283353 -1.763170
3.194713 2.424658 -1.747691
3.409216 2.601471 -1.743142
3.654866 2.805038 -1.741694
3.926135 3.028629 -1.736568
4.227338 3.276794 -1.726376
4.573829 3.563593 -1.716400
4.988337 3.905236 -1.708720
5.459925 4.295390 -1.692810
6.035047 4.769432 -1.678377
6.713988 5.328890 -1.655023
7.544839 6.071403 -1.627974
7.803676 6.285564 -1.441646
7.974365 6.423541 -1.225483
7.977869 6.421739 -0.981734
7.958988 6.403618 -0.737029
16.886211 13.844029 -1.041103
0.000111 -0.238639 -0.008919
0.000111 -0.238639 -0.008919
0.000111 -0.238639 -0.008919
0.000111 -0.238639 -0.008919
49.754803 41.138077 4.496062
20.514101 16.808975 2.471234
0.000111 -0.238639 -0.008919
0.000111 -0.238639 -0.008919
0.000111 -0.238639 -0.008919
0.000111 -0.238639 -0.008919
0.453417 0.136562 -0.357990
0.451643 0.134828 -0.338258
0.498333 0.173265 -0.352758
0.562419 0.225870 -0.375266
2.851493 2.113683 -1.759876
3.043184 2.270908 -1.766411
3.212845 2.408917 -1.749218
3.432705 2.588065 -1.746767
3.676690 2.787880 -1.743733
3.946356 3.007529 -1.737193
4.254910 3.258829 -1.729342
4.597130 3.538759 -1.716936
5.010641 3.875583 -1.708197
5.487456 4.265466 -1.693256
6.066821 4.737435 -1.679194
6.755062 5.297962 -1.657232
7.588660 6.034490 -1.629582
7.802972 6.209351 -1.434655
7.922218 6.303229 -1.211745
7.933160 6.307609 -0.971652
7.950947 6.319952 -0.732809
18.479370 14.993464 -1.133084
0.000107 -0.238284 -0.008906
0.000107 -0.238284 -0.008906
0.000107 -0.238284 -0.008906
0.000107 -0.238284 -0.008906
0.000107 -0.238284 -0.008906
20.755054 16.808458 2.488476
0.000107 -0.238284 -0.008906
0.000107 -0.238284 -0.008906
0.000107 -0.238284 -0.008906
0.000107 -0.238284 -0.008906
0.455571 0.134306 -0.357977
0.456492 0.134792 -0.340205
0.497946 0.168501 -0.350866
2.736369 1.994315 -1.783224
2.867798 2.099866 -1.761574
3.054748 2.251384 -1.764768
3.228042 2.390730 -1.749204
3.446033 2.566251 -1.745297
3.694065 2.767019 -1.743718
3.964991 2.985111 -1.737178
4.271999 3.232198 -1.728134
4.623291 3.516220 -1.718577
5.037257 3.849455 -1.709195
5.519331 4.239032 -1.695087
6.096885 4.703991 -1.679594
6.788372 5.260571 -1.657586
7.632302 5.997281 -1.631189
7.797021 6.129581 -1.426828
7.912053 6.218920 -1.204519
7.933697 6.231973 -0.967162
7.942188 6.236587 -0.728588
18.625637 14.935086 -1.136627
18.911461 15.156949 -0.582565
0.000102 -0.237930 -0.008892
0.000102 -0.237930 -0.008892
0.000102 -0.237930 -0.008892
48.975250 39.545296 4.383760
0.000102 -0.237930 -0.008892
0.000102 -0.237930 -0.008892
0.000102 -0.237930 -0.008892
0.000102 -0.237930 -0.008892
0.000102 -0.237930 -0.008892
0.442991 0.120150 -0.346735
0.464066 0.136904 -0.344112
0.507154 0.171533 -0.355549
2.732488 1.965418 -1.772434
2.884036 2.085943 -1.763271
3.073304 2.237546 -1.767196
3.248889 2.377092 -1.752274
3.466474 2.550211 -1.747466
3.715697 2.749577 -1.745757
3.986441 2.964951 -1.738445
4.300854 3.215073 -1.731697
4.644839 3.489892 -1.718561
5.059199 3.819518 -1.708673
5.549588 4.211187 -1.696457
6.131360 4.674052 -1.681244
6.827607 5.227891 -1.659425
7.674231 5.958541 -1.632472
7.802745 6.060055 -1.421232
7.901178 6.134946 -1.197292
7.925866 6.150296 -0.961739
7.928071 6.149788 -0.723948
17.234373 13.637716 -1.047513
0.000097 -0.237575 -0.008879
0.000097 -0.237575 -0.008879
0.000097 -0.237575 -0.008879
0.000097 -0.237575 -0.008879
48.464531 38.669659 4.317817
0.000097 -0.237575 -0.008879
0.000097 -0.237575 -0.008879
0.000097 -0.237575 -0.008879
0.000097 -0.237575 -0.008879
0.000097 -0.237575 -0.008879
0.455791 0.126529 -0.354887
0.462116 0.131314 -0.341158
0.505356 0.165659 -0.352717
2.757720 1.960034 -1.780501
2.900208 2.071912 -1.764969
3.085089 2.217358 -1.765553
3.258125 2.354107 -1.749174
3.479565 2.528248 -1.745995
3.730420 2.725502 -1.744372
3.997412 2.936419 -1.735225
4.311711 3.183500 -1.728103
4.672893 3.467391 -1.720753
5.084000 3.791875 -1.709164
5.578953 4.180966 -1.697364
6.161938 4.639162 -1.681644
6.869157 5.194944 -1.661634
7.720599 5.923227 -1.634729
7.810551 5.990540 -1.415916
7.892714 6.053802 -1.190531
7.911130 6.063967 -0.955571
7.919011 6.065726 -0.719727
17.285866 13.516205 -1.045804
0.000114 -0.237199 -0.008865
0.000114 -0.237199 -0.008865
0.000114 -0.237199 -0.008865
0.000114 -0.237199 -0.008865
48.638248 38.337128 4.312851
49.529182 39.015560 5.867552
0.000114 -0.237199 -0.008865
0.000114 -0.237199 -0.008865
0.000114 -0.237199 -0.008865
0.000114 -0.237199 -0.008865
0.461987 0.127367 -0.357936
0.465668 0.130007 -0.342124
0.520225 0.172850 -0.361159
2.760884 1.936255 -1.774200
2.912441 2.053905 -1.764098
3.102460 2.201613 -1.767166
3.276341 2.337361 -1.750702
3.498855 2.510221 -1.747435
3.753858 2.708320 -1.747096
4.008717 2.907151 -1.732006
4.334929 3.160559 -1.729281
4.693288 3.438778 -1.720186
5.112381 3.765565 -1.710670
5.600466 4.144537 -1.695963
6.200010 4.610097 -1.684126
6.909010 5.160492 -1.663472
7.764767 5.883772 -1.636336
7.791368 5.900333 -1.405856
7.915865 5.996162 -1.188421
7.934275 6.006170 -0.953877
7.907666 5.980770 -0.715366
17.494402 13.513758 -1.053379
46.246281 36.086773 -1.392222
0.000109 -0.236844 -0.008852
0.000109 -0.236844 -0.008852
50.838398 39.621941 2.983855
49.543186 38.578552 4.372751
49.184189 38.269592 5.799443
0.000109 -0.236844 -0.008852
0.000109 -0.236844 -0.008852
0.000109 -0.236844 -0.008852
0.000109 -0.236844 -0.008852
0.455945 0.118732 -0.351797
0.467765 0.127679 -0.342110
0.523971 0.171300 -0.362084
2.767715 1.916297 -1.770594
2.922332 2.035747 -1.762370
3.121819 2.189114 -1.770407
3.294025 2.321074 -1.752229
3.520015 2.495559 -1.750333
3.770252 2.687680 -1.747080
4.011247 2.873477 -1.725582
4.358362 3.140168 -1.731054
4.718304 3.416408 -1.721825
5.131601 3.734955 -1.709640
5.638700 4.124270 -1.700102
6.226133 4.576840 -1.684110
6.941226 5.125809 -1.664197
7.692451 5.755624 -1.613905
7.789576 5.829100 -1.399423
7.871661 5.888606 -1.176543
7.891515 5.899637 -0.944540
7.891850 5.897688 -0.710865
17.704258 13.514858 -1.061142
46.533707 35.894531 -1.394727
0.000100 -0.236485 -0.008838
0.000100 -0.236485 -0.008838
0.000100 -0.236485 -0.008838
48.949955 37.674889 4.301531
0.000100 -0.236485 -0.008838
0.000100 -0.236485 -0.008838
0.000100 -0.236485 -0.008838
0.000100 -0.236485 -0.008838
0.000100 -0.236485 -0.008838
0.462018 0.119697 -0.354846
0.469793 0.125421 -0.342097
0.537430 0.177336 -0.369586
2.783937 1.904425 -1.773273
2.936804 2.020338 -1.763211
3.128494 2.165892 -1.766322
3.305339 2.300758 -1.750671
3.532752 2.473346 -1.748861
3.787019 2.666262 -1.747065
4.033588 2.854122 -1.727490
4.377738 3.115371 -1.731039
4.736208 3.387192 -1.720706
5.163609 3.712744 -1.712667
5.663731 4.092090 -1.700086
6.262366 4.546113 -1.686176
6.971364 5.083696 -1.663809
7.682032 5.679233 -1.604792
7.786709 5.755507 -1.392712
7.847489 5.800098 -1.167921
7.879880 5.820641 -0.939117
7.884320 5.819675 -0.707065
17.913889 13.518336 -1.068998
0.000117 -0.236109 -0.008824
0.000117 -0.236109 -0.008824
0.000117 -0.236109 -0.008824
0.000117 -0.236109 -0.008824
51.149567 38.909657 4.475331
49.437481 37.572014 5.778405
0.000117 -0.236109 -0.008824
0.000117 -0.236109 -0.008824
21.769995 16.382727 4.482275
0.000117 -0.236109 -0.008824
0.451799 0.107932 -0.345646
0.474708 0.125099 -0.344043
0.527241 0.164901 -0.361117
2.786624 1.880655 -1.766973
2.951574 2.004314 -1.764053
3.145168 2.150381 -1.767935
3.317380 2.279215 -1.749114
3.545787 2.450433 -1.747390
3.805188 2.645913 -1.747734
4.050358 2.829362 -1.726833
4.399076 3.090848 -1.731619
4.760071 3.362538 -1.721794
5.194685 3.688239 -1.715186
5.690121 4.060933 -1.700532
6.286675 4.507962 -1.685327
7.011302 5.050915 -1.666018
7.663588 5.593277 -1.593731
7.778527 5.678561 -1.385163
7.649091 5.575935 -1.133485
7.863328 5.734384 -0.932950
7.869807 5.737141 -0.702703
18.124125 13.509944 -1.076572
0.000112 -0.235755 -0.008811
0.000112 -0.235755 -0.008811
0.000112 -0.235755 -0.008811
23.671740 17.671906 1.366283
23.512550 17.545036 2.043469
49.756084 37.363880 5.790292
50.760258 38.094902 7.409777
0.000112 -0.235755 -0.008811
0.000112 -0.235755 -0.008811
0.000112 -0.235755 -0.008811
0.460650 0.110857 -0.350735
0.468430 0.116450 -0.338148
0.529526 0.162204 -0.361104
2.805923 1.870300 -1.771447
2.965879 1.988726 -1.764894
3.157405 2.131497 -1.767106
3.336244 2.263747 -1.751413
3.565683 2.433684 -1.749559
3.823228 2.625436 -1.748404
4.075538 2.812021 -1.730022
4.418167 3.065820 -1.731604
4.780721 3.335426 -1.721778
5.212535 3.655131 -1.713649
5.719451 4.031940 -1.701901
6.315462 4.473206 -1.685727
7.046360 5.014328 -1.667114
7.652856 5.516200 -1.584618
7.814051 5.635220 -1.385424
7.637962 5.498757 -1.126956
7.668221 5.517294 -0.906092
7.857800 5.657376 -0.698623
18.367653 13.529094 -1.086209
0.000107 -0.235400 -0.008797
0.000107 -0.235400 -0.008797
0.000107 -0.235400 -0.008797
22.311899 16.442383 1.281711
23.585775 17.388180 2.040993
50.244640 37.280792 5.821993
0.000107 -0.235400 -0.008797
0.000107 -0.235400 -0.008797
0.000107 -0.235400 -0.008797
0.000107 -0.235400 -0.008797
0.462635 0.108556 -0.350722
0.474646 0.117221 -0.341075
0.526146 0.155309 -0.357332
2.810832 1.849145 -1.766943
2.978652 1.971977 -1.764879
3.175799 2.116338 -1.769534
3.349120 2.243770 -1.750626
3.579496 2.412351 -1.748816
3.844664 2.606401 -1.750442
