# This PCD file was generated using the MATLAB® pcwrite function
# from Computer Vision Toolbox®.
# .PCD v.7 - Point Cloud Data file format
VERSION .7
FIELDS x y z
SIZE 4 4 4
TYPE F F F
COUNT 1 1 1
WIDTH 1628
HEIGHT 1
VIEWPOINT 0 0 0 1 0 0 0
POINTS 1628
DATA ascii
-3.276120 1.805280 -1.442412
-3.261493 1.796352 -1.334333
-3.260180 1.797055 -1.233117
-3.269404 1.804680 -1.137761
-0.001842 -0.352845 -0.012763
-5.644463 3.376856 -1.619152
-0.001842 -0.352845 -0.012763
-3.303896 1.832907 -0.760997
-3.300771 1.810097 -0.662997
-3.318393 1.823245 -0.572377
-3.341383 1.839060 -0.481325
-3.338851 1.838998 -0.387358
-3.352832 1.849763 -0.295291
-3.342036 1.843424 -0.201290
-3.350755 1.850755 -0.107943
-3.365993 1.862394 -0.014877
-3.371454 1.866757 0.078799
-3.454755 1.923260 0.177924
-3.431051 1.909273 0.272341
-3.438823 1.916019 0.369280
-3.494723 1.953710 0.474503
-0.001842 -0.352845 -0.012763
-3.501844 1.961754 0.674378
-3.518276 1.973404 0.779334
-0.488859 -0.028931 -0.359918
-0.512802 -0.012786 -0.357917
-2.805130 1.511861 -1.805069
-2.956163 1.613704 -1.796816
-3.136597 1.735277 -1.797911
-3.350818 1.878691 -1.806926
-3.545006 2.009780 -1.794077
-3.782453 2.169859 -1.790160
-3.271447 1.829686 -1.445806
-3.267578 1.828656 -1.341996
-3.260075 1.825190 -1.237859
-5.161726 3.097338 -1.796039
-5.584288 3.382557 -1.774813
-3.945962 2.287284 -1.139880
-0.001845 -0.352492 -0.012750
-3.309211 1.864283 -0.765050
-3.324031 1.854024 -0.670121
-3.327259 1.856908 -0.575977
-3.336571 1.864713 -0.482457
-3.339054 1.867938 -0.388820
-3.351699 1.877139 -0.296242
-3.345569 1.874640 -0.202199
-3.350931 1.879814 -0.108290
-3.364832 1.889849 -0.014852
-3.374862 1.898159 0.079285
-3.424582 1.932959 0.177035
-3.432899 1.939312 0.273620
-0.001845 -0.352492 -0.012750
-0.001845 -0.352492 -0.012750
-0.001845 -0.352492 -0.012750
-3.476974 1.974537 0.672148
-3.522354 2.006631 0.783430
-0.489834 -0.023846 -0.361945
-0.510846 -0.009500 -0.357901
-2.792885 1.527354 -1.804101
-2.946268 1.632058 -1.797684
-3.127890 1.755136 -1.799594
-3.334877 1.896275 -1.805265
-3.528286 2.028448 -1.792500
-3.769852 2.192343 -1.790854
-0.001848 -0.352139 -0.012738
-3.294594 1.873738 -1.357995
-3.287385 1.870460 -1.252746
-0.001848 -0.352139 -0.012738
-3.565898 2.061369 -1.141920
-0.001848 -0.352139 -0.012738
-3.295137 1.880364 -0.860567
-3.308153 1.890813 -0.767617
-0.001848 -0.352139 -0.012738
-3.325984 1.884118 -0.577901
-3.340241 1.895316 -0.484755
-3.342719 1.898611 -0.390656
-3.350389 1.904552 -0.297194
-3.344288 1.902031 -0.202827
-3.351670 1.907787 -0.108638
-3.366771 1.919618 -0.014829
-3.380063 1.930222 0.079817
-3.453127 1.980381 0.179371
-0.001848 -0.352139 -0.012738
-0.001848 -0.352139 -0.012738
-0.001848 -0.352139 -0.012738
-0.001848 -0.352139 -0.012738
-0.001848 -0.352139 -0.012738
-12.752329 8.295630 2.881796
-0.486582 -0.021745 -0.360908
-0.508905 -0.006285 -0.357885
-2.792543 1.550253 -1.810650
-2.938096 1.650849 -1.799451
-3.113078 1.770902 -1.797850
-3.322265 1.915225 -1.805233
-3.516469 2.049506 -1.793240
-3.763280 2.218961 -1.794462
-4.034404 2.406215 -1.793723
-0.001851 -0.351786 -0.012725
-0.001851 -0.351786 -0.012725
-5.109568 3.147698 -1.791536
-3.423109 1.993013 -1.100780
-0.001851 -0.351786 -0.012725
-3.295510 1.907947 -0.863869
-3.490010 2.043067 -0.812143
-3.336301 1.917835 -0.677538
-3.328159 1.913055 -0.580383
-3.348975 1.928827 -0.487752
-3.344892 1.927699 -0.392306
-3.352574 1.933686 -0.298427
-3.346486 1.931167 -0.203642
-3.357164 1.939215 -0.109128
-3.368898 1.948880 -0.014806
-3.378812 1.957312 0.080167
-0.001851 -0.351786 -0.012725
-0.001851 -0.351786 -0.012725
-0.001851 -0.351786 -0.012725
-0.001851 -0.351786 -0.012725
-3.533555 2.069892 0.586879
-3.501215 2.048524 0.682233
-12.595259 8.292508 2.857138
-0.487446 -0.016555 -0.362934
-0.505411 -0.003906 -0.356888
-0.529250 0.012632 -0.353873
-2.918820 1.663526 -1.794929
-3.106016 1.794338 -1.801244
-3.307253 1.934225 -1.804386
-3.500645 2.069642 -1.792434
-3.744446 2.240143 -1.792969
-4.011791 2.426190 -1.790945
-3.391336 1.998092 -1.408584
-3.352145 1.972567 -1.287290
-3.353087 1.973976 -1.184575
-3.346732 1.971224 -1.080954
-3.302063 1.940942 -0.966948
-3.455121 2.048962 -0.908852
-3.493052 2.077053 -0.816192
-3.334157 1.945780 -0.679781
-3.327721 1.942098 -0.582585
-3.346820 1.956920 -0.489349
-3.341157 1.954634 -0.393394
-3.353715 1.964111 -0.299659
-3.349309 1.962703 -0.204551
-3.356260 1.969134 -0.109474
-3.366699 1.977149 -0.014780
-0.001835 -0.351407 -0.012711
-0.001835 -0.351407 -0.012711
-0.001835 -0.351407 -0.012711
-0.001835 -0.351407 -0.012711
-0.001835 -0.351407 -0.012711
-3.345033 1.970293 0.557238
-3.502680 2.081491 0.685501
-0.001835 -0.351407 -0.012711
-0.492563 -0.008487 -0.368024
-0.497684 -0.004645 -0.352950
-0.540161 0.025130 -0.362315
-2.907167 1.680661 -1.794899
-3.090637 1.810484 -1.799500
-3.290657 1.952055 -1.802724
-3.483624 2.088001 -1.790857
-3.732509 2.264162 -1.794391
-3.992169 2.448139 -1.789538
-3.292478 1.958070 -1.373286
-3.298092 1.963662 -1.271744
-0.001838 -0.351054 -0.012699
-0.001838 -0.351054 -0.012699
-3.480975 2.096319 -1.022828
-3.445613 2.073154 -0.910068
-3.496248 2.110542 -0.820242
-3.333822 1.974325 -0.682351
-3.320532 1.966703 -0.583669
-3.353003 1.990165 -0.492112
-3.342508 1.984454 -0.395042
-3.354629 1.994610 -0.300890
-3.347389 1.990313 -0.205178
-3.357572 1.999100 -0.109868
-3.367552 2.007772 -0.014756
-0.001838 -0.351054 -0.012699
-3.361200 2.005751 0.176614
-3.368982 2.012875 0.272920
-3.264083 1.940868 0.357249
-3.260631 1.939204 0.451076
-3.208069 1.903845 0.536192
-0.001838 -0.351054 -0.012699
-12.446749 8.410377 2.846975
-0.483503 -0.010189 -0.362903
-0.495636 -0.001365 -0.352935
-0.536474 0.027661 -0.361359
-2.890692 1.695128 -1.792174
-3.074813 1.827048 -1.797755
-3.275855 1.970263 -1.801878
-3.469104 2.108973 -1.790823
-3.712357 2.283398 -1.792170
-3.974449 2.470355 -1.788817
-0.001841 -0.350701 -0.012686
-3.397876 2.064291 -1.315270
-3.416509 2.078364 -1.216538
-3.428107 2.088299 -1.115903
-3.492192 2.134731 -1.030188
-3.428410 2.091037 -0.909201
-3.498027 2.142386 -0.823922
-3.336073 2.005812 -0.685570
-3.329783 2.002128 -0.587548
-3.352038 2.019532 -0.493943
-3.343207 2.014960 -0.396690
-3.358987 2.026909 -0.302403
-3.349723 2.022045 -0.206086
-3.358252 2.029731 -0.110262
-3.376757 2.043664 -0.014737
-3.275632 1.973566 0.078540
-3.295042 1.988966 0.173697
-3.304888 1.996759 0.268659
-3.207014 1.928805 0.352291
-3.140174 1.882815 0.435841
-3.119183 1.868645 0.523188
-12.491939 8.547612 2.499090
-12.444151 8.519778 2.858513
-0.480119 -0.008048 -0.361866
-0.492180 0.000834 -0.351938
-0.541456 0.036238 -0.366042
-2.877396 1.711073 -1.791245
-3.062611 1.844536 -1.797725
-3.263904 1.990527 -1.802660
-3.456368 2.130356 -1.791561
-3.693074 2.301164 -1.789951
-3.958136 2.493555 -1.788780
-4.257728 2.709910 -1.786772
-3.421529 2.110336 -1.329558
-3.405600 2.100585 -1.217610
-3.428565 2.117930 -1.120438
-3.493607 2.166531 -1.034775
-3.422652 2.116219 -0.911252
-3.503164 2.176042 -0.828343
-3.335295 2.034514 -0.688139
-3.330657 2.032003 -0.590029
-3.346394 2.044941 -0.495074
-3.345721 2.046114 -0.398525
-3.358200 2.055871 -0.303494
-3.352250 2.053276 -0.206995
-3.361148 2.060454 -0.110704
-3.382400 2.077423 -0.014716
-0.001844 -0.350347 -0.012673
-0.001844 -0.350347 -0.012673
-0.001844 -0.350347 -0.012673
-3.121497 1.894677 0.344006
-3.130857 1.902999 0.436336
-3.144927 1.914694 0.529876
-12.446854 8.621027 2.500144
-12.435854 8.619371 2.868201
-0.475409 -0.007035 -0.359808
-0.495864 0.008010 -0.355845
-0.542144 0.041680 -0.367906
-2.862967 1.725348 -1.789420
-3.045535 1.859308 -1.795124
-3.247432 2.007478 -1.800999
-3.437984 2.146722 -1.789213
-3.677742 2.322747 -1.789916
-3.940168 2.515560 -1.788058
-4.236979 2.732498 -1.785451
-3.413464 2.134860 -1.331911
-3.391427 2.120512 -1.217577
-3.428366 2.148241 -1.124972
-3.491612 2.196154 -1.038437
-3.403220 2.133373 -0.909968
-3.500805 2.206411 -0.831279
-3.341096 2.067349 -0.692009
-3.331332 2.061936 -0.592510
-3.345849 2.073251 -0.496906
-3.346786 2.075638 -0.400173
-3.357210 2.084887 -0.304586
-3.354931 2.084052 -0.207904
-3.360144 2.089524 -0.111050
-3.384535 2.108971 -0.014692
-0.001825 -0.349973 -0.012660
-0.001825 -0.349973 -0.012660
-0.001825 -0.349973 -0.012660
-3.327014 2.072997 0.369173
-3.207734 1.986859 0.449322
-3.139813 1.938964 0.531294
-0.001825 -0.349973 -0.012660
-12.439541 8.731746 2.881215
-0.476146 -0.001845 -0.361834
-0.488116 0.007163 -0.351907
-0.548354 0.051501 -0.373528
-2.856361 1.746891 -1.792982
-3.036747 1.880902 -1.797662
-3.232327 2.025419 -1.800152
-3.424618 2.168508 -1.789951
-3.660318 2.343777 -1.789152
-3.916036 2.532990 -1.784597
-4.209459 2.751204 -1.781565
-0.001828 -0.349620 -0.012647
-3.363227 2.130079 -1.212574
-3.429043 2.180387 -1.130012
-3.492554 2.228123 -1.043024
-3.384141 2.149796 -0.908685
-3.503411 2.239730 -0.835329
-3.341027 2.097972 -0.694903
-3.334936 2.094329 -0.595549
-3.357021 2.112226 -0.500599
-3.349984 2.108771 -0.402194
-3.359214 2.116335 -0.305957
-3.356535 2.116086 -0.208812
-3.361700 2.121628 -0.111490
-3.386427 2.140620 -0.014669
-0.001828 -0.349620 -0.012647
-0.001828 -0.349620 -0.012647
-3.437297 2.182380 0.283720
-0.001828 -0.349620 -0.012647
-0.001828 -0.349620 -0.012647
-12.461012 8.848829 2.156311
-12.426818 8.829944 2.517779
-12.421794 8.832590 2.889800
-0.467228 -0.003883 -0.356714
-0.486041 0.010327 -0.351891
-0.544623 0.053944 -0.372573
-2.847108 1.765797 -1.794749
-3.022393 1.897642 -1.796774
-3.218595 2.044354 -1.800120
-3.410051 2.188555 -1.789917
-3.641749 2.362953 -1.787660
-3.902389 2.558093 -1.785931
-4.188498 2.773485 -1.780245
-0.001831 -0.349267 -0.012635
-3.342714 2.145176 -1.210331
-3.423714 2.207393 -1.133023
-3.493247 2.260187 -1.047611
-3.372823 2.171939 -0.909485
-3.508904 2.275514 -0.840121
-3.345888 2.131638 -0.698772
-3.335124 2.124461 -0.598030
-3.360341 2.144883 -0.503128
-3.351752 2.140251 -0.404028
-3.367353 2.152669 -0.307890
-3.359906 2.148844 -0.209814
-3.361858 2.152027 -0.111883
-3.388074 2.172368 -0.014645
-3.485758 2.246922 0.086172
-3.437251 2.212541 0.185170
-0.001831 -0.349267 -0.012635
-0.001831 -0.349267 -0.012635
-12.462169 8.958369 1.798665
-12.434782 8.940948 2.161115
-12.424317 8.939517 2.528213
-12.419048 8.942004 2.901708
-0.477612 0.008441 -0.365887
-0.488150 0.016603 -0.354817
-0.549342 0.062731 -0.377255
-2.834881 1.782515 -1.794718
-3.005088 1.912091 -1.794174
-3.206215 2.064308 -1.800902
-3.390969 2.205167 -1.787569
-3.626079 2.384230 -1.787625
-3.885584 2.580874 -1.785894
-4.162888 2.792202 -1.777001
-4.528729 3.070729 -1.785859
-3.320626 2.158944 -1.207537
-3.412013 2.229761 -1.134004
-3.844409 2.557661 -1.156616
-3.345784 2.182216 -0.906118
-3.495296 2.297216 -0.840458
-3.353636 2.167808 -0.703291
-3.339822 2.158251 -0.601349
-3.353853 2.170518 -0.504259
-3.354861 2.173029 -0.406049
-3.368830 2.184364 -0.309262
-3.361419 2.180520 -0.210722
-3.361768 2.182522 -0.112276
-3.384667 2.200619 -0.014618
-3.400514 2.214319 0.084204
-0.001834 -0.348914 -0.012622
-0.001834 -0.348914 -0.012622
-0.001834 -0.348914 -0.012622
-12.452744 9.063847 1.805231
-12.426883 9.047386 2.169249
-12.416248 9.045792 2.537678
-12.409213 9.046917 2.912139
-0.461860 0.001121 -0.355662
-0.484644 0.018706 -0.353820
-0.549764 0.068382 -0.379118
-2.822573 1.799150 -1.794689
-2.994893 1.931908 -1.795856
-3.190811 2.081984 -1.800055
-3.380603 2.228370 -1.789850
-3.608811 2.404282 -1.786862
-3.862690 2.598982 -1.783118
-4.153763 2.823381 -1.780809
-4.505946 3.094774 -1.784626
-3.301548 2.174875 -1.205848
-3.410933 2.260303 -1.138537
-3.849242 2.596662 -1.163048
-3.337352 2.206563 -0.907751
-3.480000 2.317651 -0.840424
-3.389374 2.225628 -0.713663
-3.325322 2.177798 -0.601315
-3.356679 2.203368 -0.506787
-3.356139 2.204705 -0.407883
-3.368469 2.214951 -0.310492
-3.367446 2.215931 -0.211912
-3.366219 2.216731 -0.112811
-3.389012 2.234968 -0.014596
-3.390449 2.237859 0.084375
-0.001815 -0.348539 -0.012609
-3.434236 2.273935 0.287425
-12.436587 9.158502 1.440364
-12.440916 9.168344 1.811567
-12.426044 9.160051 2.178770
-12.405807 9.151075 2.546819
-12.400121 9.153243 2.922940
-0.465275 0.008333 -0.359729
-0.481143 0.020772 -0.352824
-0.550153 0.074042 -0.380982
-2.808745 1.814634 -1.793760
-2.974544 1.943967 -1.791542
-3.174900 2.100102 -1.799208
-3.361321 2.244776 -1.787501
-3.588470 2.421966 -1.784642
-3.846613 2.623363 -1.783766
-4.133931 2.846447 -1.780130
-4.483008 3.118702 -1.783392
-3.283497 2.192403 -1.204710
-5.323073 3.772738 -1.777819
-3.804019 2.598343 -1.154695
-3.332959 2.235056 -0.910635
-3.465658 2.339823 -0.840760
-3.430802 2.288769 -0.725335
-3.344815 2.224393 -0.607426
-3.368687 2.243603 -0.510713
-3.365030 2.242579 -0.410650
-3.375326 2.252286 -0.312424
-3.371615 2.250259 -0.213007
-3.367208 2.248646 -0.113251
-3.387867 2.266382 -0.014570
-0.001818 -0.348186 -0.012596
-3.413028 2.288458 0.186470
-0.001818 -0.348186 -0.012596
-12.428772 9.270254 1.446187
-12.433022 9.276655 1.818598
-12.416366 9.270346 2.187184
-12.402241 9.265976 2.557904
-12.398002 9.265781 2.935588
-0.460448 0.009312 -0.357672
-0.474818 0.020757 -0.349867
-0.544861 0.075468 -0.379086
-2.797271 1.832720 -1.794628
-2.963759 1.964141 -1.793223
-3.165075 2.122070 -1.801618
-3.342985 2.262744 -1.785924
-3.573442 2.444711 -1.785334
-3.824990 2.642358 -1.781674
-4.113406 2.870114 -1.779449
-4.463872 3.146765 -1.783947
-3.255177 2.200970 -1.199707
-5.290927 3.798629 -1.775236
-3.756366 2.596536 -1.145419
-3.336496 2.269049 -0.915602
-3.440863 2.352790 -0.838499
-3.454025 2.339735 -0.733429
-0.001821 -0.347833 -0.012583
-3.361075 2.270008 -0.511843
-3.368433 2.277548 -0.412856
-3.368154 2.278169 -0.313093
-3.365571 2.277956 -0.213537
-3.370647 2.283697 -0.113785
-3.383785 2.294815 -0.014543
-0.001821 -0.347833 -0.012583
-3.428787 2.333636 0.188350
-12.427987 9.378312 1.083629
-12.420193 9.378858 1.451823
-12.428841 9.392269 1.826557
-12.410634 9.381141 2.196151
-12.390134 9.371692 2.567046
-12.384006 9.373507 2.946024
-0.457030 0.011243 -0.356635
-0.479528 0.029233 -0.354753
-0.543796 0.080046 -0.380010
-2.780457 1.845831 -1.791903
-2.948961 1.980424 -1.792335
-3.149369 2.139479 -1.800772
-3.327881 2.282326 -1.785890
-3.555831 2.464455 -1.784571
-3.807708 2.664692 -1.781638
-4.096301 2.895275 -1.780053
-4.440688 3.170395 -1.782714
-3.249495 2.227182 -1.202987
-5.277551 3.837821 -1.778741
-3.705796 2.591878 -1.135218
-3.350479 2.311681 -0.923486
-3.405235 2.357034 -0.833639
-3.433848 2.356261 -0.732420
-3.349182 2.290416 -0.613502
-3.355306 2.297046 -0.513206
-3.354838 2.298470 -0.413010
-3.360809 2.304049 -0.313761
-3.359807 2.305066 -0.214068
-3.372691 2.317049 -0.114272
-3.388894 2.330740 -0.014521
-3.401247 2.342329 0.086115
-12.436904 9.498490 0.719925
-12.428067 9.494662 1.088709
-12.421710 9.496335 1.458753
-12.420785 9.502292 1.833821
-12.402492 9.490951 2.204843
-12.384959 9.483717 2.577807
-12.377061 9.484119 2.957935
-0.458983 0.017449 -0.359682
-0.480068 0.034526 -0.356698
-0.539953 0.082417 -0.379054
-2.764982 1.859948 -1.790076
-2.934100 1.996600 -1.791447
-3.132144 2.155655 -1.799110
-3.309800 2.299506 -1.784313
-3.539594 2.485236 -1.784536
-3.790319 2.686916 -1.781601
-4.068700 2.912057 -1.776168
-4.417372 3.193890 -1.781479
-3.243602 2.253440 -1.206266
-3.381147 2.365618 -1.149055
-3.647854 2.580623 -1.122709
-3.362556 2.353346 -0.930952
-0.001809 -0.347101 -0.012557
-3.396619 2.359127 -0.727834
-3.350962 2.323603 -0.616540
-3.360206 2.332788 -0.516200
-3.348875 2.325563 -0.414095
-3.367307 2.341146 -0.315693
-3.358516 2.335956 -0.214881
-3.377581 2.353025 -0.114853
-3.398412 2.370546 -0.014501
-0.001809 -0.347101 -0.012557
-12.433010 9.612767 0.723153
-12.419447 9.605097 1.093098
-12.408319 9.602930 1.464021
-12.411886 9.612541 1.841085
-12.390410 9.598516 2.212980
-12.375834 9.593532 2.587922
-12.370770 9.596228 2.970217
-0.450176 0.015043 -0.354562
-0.468365 0.029970 -0.349819
-0.527847 0.078111 -0.372459
-2.755018 1.878428 -1.791842
-2.919148 2.012681 -1.790560
-3.121942 2.177454 -1.801521
-3.294521 2.318865 -1.784280
-3.517432 2.501246 -1.781588
-3.768393 2.705513 -1.779510
-4.049853 2.935802 -1.776129
-4.396919 3.219618 -1.781439
-4.771823 3.525062 -1.777128
-3.362476 2.382948 -1.148006
-3.380239 2.398232 -1.045985
-3.536654 2.527283 -0.983003
-0.001812 -0.346748 -0.012544
-3.371742 2.371578 -0.725848
-3.349405 2.354393 -0.619019
-3.364811 2.368664 -0.519193
-3.353563 2.361422 -0.416488
-3.367276 2.373391 -0.317063
-3.367857 2.375706 -0.216352
-3.382174 2.389135 -0.115434
-0.001812 -0.346748 -0.012544
-12.427567 9.720022 0.351672
-12.417336 9.718526 0.725735
-12.414599 9.719535 1.097902
-12.403378 9.717234 1.470398
-12.395946 9.718019 1.847425
-12.385196 9.712501 2.222504
-12.364311 9.702330 2.597713
-12.359052 9.704834 2.981390
-0.446757 0.016885 -0.353525
-0.470242 0.036313 -0.352745
-0.517187 0.074791 -0.366805
-2.738015 1.891213 -1.789118
-2.904130 2.028650 -1.789672
-3.097446 2.187661 -1.795788
-3.276260 2.335814 -1.782703
-3.500980 2.521806 -1.781553
-3.755112 2.731097 -1.781528
-4.038213 2.965428 -1.779296
-4.373357 3.242815 -1.780205
-4.752421 3.555273 -1.778190
-0.001815 -0.346395 -0.012531
-0.001815 -0.346395 -0.012531
-3.334242 2.395095 -0.931717
-0.001815 -0.346395 -0.012531
-3.420262 2.443690 -0.739469
-3.352196 2.389022 -0.622335
-3.361409 2.398413 -0.521021
-3.357958 2.397418 -0.418881
-3.374718 2.412033 -0.319135
-3.375310 2.414385 -0.217728
-0.001815 -0.346395 -0.012531
-0.001815 -0.346395 -0.012531
-12.420429 9.833586 0.353266
-12.414769 9.835829 0.729149
-12.410395 9.835509 1.102845
-12.394451 9.829283 1.476407
-12.394565 9.836236 1.856079
-12.379064 9.826770 2.232030
-12.355000 9.813828 2.608153
-12.351032 9.817396 2.993673
-0.453932 0.027474 -0.360656
-0.468022 0.039371 -0.352729
-0.517481 0.080354 -0.368668
-2.723709 1.906162 -1.788189
-2.889002 2.044551 -1.788784
-3.082815 2.205803 -1.795756
-3.266449 2.359698 -1.785756
-3.485836 2.543468 -1.782246
-3.733001 2.749416 -1.779437
-4.017608 2.987785 -1.778616
-4.348215 3.264635 -1.778375
-4.723948 3.578033 -1.775938
-5.172337 3.953504 -1.776021
-3.342417 2.432709 -1.044069
-3.334928 2.428377 -0.936266
-3.351114 2.443696 -0.835729
-0.001818 -0.346042 -0.012519
-0.001818 -0.346042 -0.012519
-3.379244 2.445904 -0.526109
-3.380442 2.448807 -0.423513
-0.001818 -0.346042 -0.012519
-11.653225 9.301676 -0.724521
-11.718163 9.362000 -0.372364
-12.415933 9.943422 -0.019487
-12.412372 9.947429 0.354861
-12.405109 9.948338 0.732194
-12.399145 9.946652 1.107235
-12.387718 9.944106 1.482786
-12.384584 9.948434 1.863577
-12.367492 9.937473 2.240723
-12.355438 9.934385 2.620856
-12.342113 9.930215 3.005956
-0.450468 0.029314 -0.359619
-0.473816 0.049120 -0.358595
-0.512303 0.081415 -0.366772
-2.712058 1.923320 -1.789057
-2.875204 2.061491 -1.788753
-3.063410 2.220896 -1.793280
-3.242323 2.371715 -1.781092
-3.472004 2.566236 -1.783668
-3.716011 2.773075 -1.780084
-3.995445 3.008785 -1.777296
-4.327345 3.289978 -1.778334
-4.700595 3.606338 -1.775895
-5.135640 3.973621 -1.771917
-3.357133 2.479162 -1.053735
-3.351321 2.476193 -0.945398
-3.367553 2.491754 -0.843860
-0.001799 -0.345667 -0.012505
-0.001799 -0.345667 -0.012505
-0.001799 -0.345667 -0.012505
-9.562450 7.656145 -1.181035
-0.001799 -0.345667 -0.012505
-11.300374 9.120089 -0.706194
-11.815282 9.558131 -0.377004
-12.420541 10.072535 -0.019429
-12.408026 10.065352 0.356594
-12.397643 10.063623 0.735425
-12.392839 10.066592 1.112321
-12.378263 10.061339 1.489167
-12.367654 10.055732 1.870149
-12.363811 10.059494 2.251363
-12.336491 10.043442 2.630005
-13.921192 11.381902 3.408768
-0.450842 0.034568 -0.361645
-0.463481 0.045516 -0.352697
-0.508414 0.083652 -0.365817
-2.702650 1.943184 -1.791721
-2.864045 2.080709 -1.790435
-3.048590 2.238843 -1.793247
-3.223329 2.388875 -1.779515
-3.452326 2.584140 -1.782176
-3.693690 2.791134 -1.777993
-3.978951 3.034547 -1.778539
-4.304876 3.313965 -1.777697
-4.671890 3.628728 -1.773643
-5.097419 3.992200 -1.767305
-5.537659 4.370084 -1.738754
-5.603150 4.427383 -1.579917
-6.161646 4.906742 -1.541180
-6.776453 5.383914 -1.474040
-0.001802 -0.345314 -0.012493
-8.278298 6.660923 -1.283324
-9.508739 7.707935 -1.180213
-0.001802 -0.345314 -0.012493
-11.699622 9.573631 -0.734216
-11.875467 9.725935 -0.380556
-11.979135 9.820686 -0.019126
-12.396329 10.181845 0.358192
-12.392283 10.181776 0.738841
-12.378266 10.176902 1.116573
-12.369996 10.173232 1.495361
-12.366547 10.177330 1.879268
-12.368515 10.186082 2.263388
-13.851322 11.452542 2.968706
-13.835446 11.446925 3.404437
-0.443495 0.032947 -0.357546
-0.459971 0.047309 -0.351701
-0.504669 0.085686 -0.364861
-0.543196 0.119019 -0.370837
-2.843180 2.091625 -1.786122
-3.038281 2.259744 -1.795658
-3.209415 2.408388 -1.780253
-3.428342 2.598255 -1.778500
-3.674690 2.810848 -1.777272
-3.952253 3.051574 -1.775296
-4.279400 3.335309 -1.775867
-4.646722 3.652596 -1.772497
-5.070903 4.020566 -1.766752
-0.001805 -0.344961 -0.012480
-5.571145 4.456080 -1.578619
-6.116424 4.929654 -1.537417
-6.730851 5.410485 -1.471059
-7.364817 5.954713 -1.378486
-8.246588 6.713859 -1.284423
-9.462103 7.759971 -1.179954
-11.077051 9.146562 -1.038558
-0.001805 -0.344961 -0.012480
-11.982661 9.936437 -0.385617
-11.987433 9.943786 -0.019074
-12.391949 10.298156 0.359924
-12.389030 10.302793 0.742442
-12.376796 10.295636 1.121933
-12.359043 10.287482 1.501556
-16.343321 13.725063 2.500175
-16.330034 13.718093 3.006960
-16.318729 13.717757 3.517329
-16.314098 13.723147 4.036731
-0.442612 0.036969 -0.358551
-0.453751 0.046876 -0.348744
-0.503495 0.090108 -0.365784
-0.541880 0.123644 -0.371719
-2.833181 2.111884 -1.788659
-3.025532 2.280478 -1.797254
-3.192124 2.425962 -1.779448
-3.414153 2.620744 -1.779921
-3.658738 2.835419 -1.778605
-3.938331 3.079622 -1.777821
-4.258138 3.360248 -1.775826
-4.622928 3.680448 -1.772453
-5.045679 4.050055 -1.766707
-5.512323 4.459836 -1.747895
-5.542552 4.489417 -1.578568
-6.079087 4.961048 -1.535878
-6.700575 5.452095 -1.471653
-7.321312 5.993478 -1.377308
-8.217795 6.772007 -1.286219
-9.394213 7.796415 -1.177268
-11.023562 9.215077 -1.038752
-11.696507 9.801984 -0.740904
-11.852296 9.944010 -0.383307
-11.849169 9.948187 -0.018939
-12.389300 10.420846 0.361795
-12.374228 10.414959 0.745398
-12.358595 10.408520 1.126189
-16.340124 13.882864 1.999761
-16.329418 13.878006 2.510711
-16.316477 13.876229 3.020125
-16.301928 13.873042 3.532005
-16.300930 13.876636 4.053846
-0.440343 0.039933 -0.358536
-0.452728 0.051061 -0.349708
-0.495607 0.088770 -0.362009
-0.552522 0.138987 -0.380684
-2.817217 2.127799 -1.787771
-2.999386 2.288571 -1.790707
-3.170084 2.440340 -1.776328
-3.395090 2.640088 -1.779157
-3.636141 2.853061 -1.776514
-3.909426 3.095764 -1.773936
-4.230343 3.380766 -1.773399
-4.596795 3.704812 -1.771306
-5.026765 4.086675 -1.769196
-5.503538 4.508592 -1.753851
-5.521967 4.528072 -1.580603
-6.054328 5.001524 -1.537310
-6.658650 5.485595 -1.469970
-7.268305 6.021533 -1.374176
-8.135104 6.785630 -1.279866
-9.348731 7.854997 -1.177565
-11.014812 9.319550 -1.043018
-11.682644 9.912414 -0.743726
-12.223617 10.394588 -0.396819
-11.649986 9.893811 -0.018774
-12.370235 10.534138 0.363259
-12.359658 10.532089 0.748541
-12.350349 10.527338 1.131276
-13.450194 11.503509 1.652313
-16.313271 14.035419 2.521482
-0.001789 -0.344233 -0.012454
-16.292276 14.031013 3.547972
-16.284023 14.033283 4.070966
-0.440681 0.045108 -0.360561
-0.453061 0.056315 -0.351654
-0.497073 0.095475 -0.364812
-0.547051 0.140143 -0.378871
-2.798876 2.140743 -1.785171
-2.980068 2.302528 -1.788232
-3.160883 2.465045 -1.780152
-3.377861 2.659935 -1.779122
-3.616264 2.873057 -1.775792
-3.890967 3.119837 -1.774539
-4.210265 3.406676 -1.773955
-4.571957 3.730304 -1.770711
-5.002612 4.117192 -1.769658
-5.475494 4.540567 -1.753802
-5.509869 4.574476 -1.585136
-6.019051 5.032726 -1.536145
-6.619059 5.518965 -1.468613
-7.298226 6.122746 -1.386678
-8.120649 6.856452 -1.283990
-9.334117 7.938138 -1.181596
-10.915710 9.344763 -1.038864
-0.001792 -0.343880 -0.012441
-11.711745 10.065328 -0.382510
-0.001792 -0.343880 -0.012441
-12.353693 10.646737 0.364767
-12.349049 10.649920 0.751867
-12.341178 10.646386 1.136364
-13.285092 11.494995 1.640391
-13.401399 11.606621 2.079892
-13.439508 11.644346 2.511056
-16.275457 14.184088 3.562647
-16.269819 14.188717 4.088454
-0.434592 0.044543 -0.357483
-0.453338 0.061599 -0.353598
-0.493205 0.097514 -0.363856
-0.554877 0.153199 -0.386039
-2.783178 2.155969 -1.784283
-2.962068 2.317554 -1.786572
-3.137809 2.477377 -1.776260
-3.353573 2.673475 -1.775445
-3.599089 2.895431 -1.776441
-3.872368 3.143809 -1.775141
-4.187179 3.429940 -1.773318
-4.542704 3.751779 -1.768460
-4.971109 4.141086 -1.767583
-5.438632 4.564532 -1.750982
-5.504673 4.627469 -1.591753
-5.982156 5.062384 -1.534608
-6.605759 5.575784 -1.473108
-7.247591 6.153126 -1.384105
-8.080528 6.904778 -1.284156
-9.330712 8.032023 -1.187119
-10.911669 9.454491 -1.043689
-11.960477 10.403533 -0.768636
-0.001795 -0.343527 -0.012429
-12.289607 10.710177 -0.019001
-0.001795 -0.343527 -0.012429
-0.001795 -0.343527 -0.012429
-0.001795 -0.343527 -0.012429
-13.116113 11.480969 1.627912
-13.218789 11.581455 2.062166
-13.258490 11.621032 2.490063
-13.366041 11.726129 2.938814
-13.444264 11.804859 3.393864
-0.437446 0.052009 -0.361551
-0.452294 0.065718 -0.354563
-0.497207 0.106615 -0.368539
-0.558627 0.162737 -0.390513
-2.771416 2.174742 -1.785965
-2.954800 2.342304 -1.791424
-3.118782 2.493275 -1.774684
-3.338903 2.695600 -1.776867
-3.580374 2.916465 -1.776404
-3.848017 3.162585 -1.773180
-4.163960 3.453069 -1.772681
-4.519063 3.778212 -1.768417
-4.939491 4.164774 -1.765508
-5.410269 4.596135 -1.750933
-5.497615 4.679236 -1.597952
-5.997329 5.139546 -1.546429
-6.558394 5.602162 -1.470126
-7.205665 6.191113 -1.383207
-8.041601 6.954210 -1.284556
-9.314766 8.115414 -1.191149
-10.850647 9.513481 -1.043184
-11.561360 10.166172 -0.747123
-11.576289 10.186769 -0.381859
-12.246469 10.799946 -0.018918
-12.269155 10.828027 0.366278
-12.305771 10.868816 0.757321
-12.312568 10.878530 1.145846
-12.950699 11.468065 1.615801
-13.047177 11.563979 2.046061
-13.098676 11.614719 2.472954
-13.188472 11.704728 2.914979
-13.258029 11.776299 3.364403
-0.435166 0.054875 -0.361535
-0.452484 0.071044 -0.356507
-0.501093 0.115815 -0.373220
-0.541237 0.152994 -0.380617
-2.755549 2.189793 -1.785077
-2.930751 2.352730 -1.786506
-3.103765 2.512792 -1.775422
-3.318615 2.712612 -1.775375
-3.559584 2.936747 -1.775681
-3.827761 3.185055 -1.773141
-4.137821 3.473468 -1.770850
-4.497352 3.807929 -1.769477
-4.910596 4.190897 -1.764447
-5.385156 4.632476 -1.752269
-5.486385 4.729402 -1.603317
-5.930071 5.143365 -1.537469
-6.531338 5.646847 -1.471694
-7.228042 6.290364 -1.394867
-8.019940 7.019561 -1.287748
-9.312823 8.212390 -1.197044
-10.916792 9.692842 -1.055021
-0.001782 -0.342795 -0.012402
-0.001782 -0.342795 -0.012402
-11.925611 10.638390 -0.018687
-12.278147 10.966589 0.368656
-12.308548 11.002156 0.761667
-12.304400 11.005870 1.151494
-12.783795 11.455906 1.603692
-12.882056 11.550315 2.030879
-12.925647 11.598494 2.453627
-13.019657 11.693336 2.893409
-13.086981 11.759382 3.338637
-0.432807 0.057790 -0.361519
-0.443645 0.068128 -0.351590
-0.497076 0.117920 -0.372264
-0.519971 0.139501 -0.368028
-2.752826 2.217059 -1.792753
-2.921887 2.376123 -1.790544
-3.084063 2.529004 -1.773844
-3.303695 2.734567 -1.776797
-3.540642 2.957546 -1.775644
-3.804629 3.204795 -1.771821
-4.114385 3.496284 -1.770213
-4.463541 3.824932 -1.765570
-4.888656 4.223412 -1.765924
-5.350730 4.658446 -1.750372
-5.489416 4.789702 -1.612433
-5.889305 5.167345 -1.534821
-6.489885 5.680491 -1.470336
-7.218754 6.359180 -1.400388
-7.995017 7.084963 -1.290705
-9.295439 8.299035 -1.201258
-10.902642 9.796659 -1.059143
-12.072349 10.892078 -0.787707
-11.464484 10.329646 -0.382009
-12.033378 10.866745 -0.018684
-12.278086 11.102318 0.370853
-12.291224 11.118160 0.764812
-12.297203 11.131317 1.157139
-12.624537 11.440480 1.591946
-12.721873 11.539220 2.016391
-12.762602 11.585153 2.435683
-12.855634 11.675880 2.871833
-12.922326 11.746252 3.314347
-0.429308 0.059374 -0.360483
-0.443887 0.073333 -0.353535
-0.493210 0.119829 -0.371309
-0.515963 0.141529 -0.367113
-0.521667 0.147205 -0.350634
-2.904842 2.392022 -1.789698
-3.069327 2.547801 -1.774583
-3.285921 2.753898 -1.776762
-3.520223 2.976941 -1.774923
-3.781376 3.224410 -1.770500
-4.088044 3.516343 -1.768383
-4.438073 3.849601 -1.764975
-4.856657 4.246531 -1.763849
-5.320441 4.688186 -1.749862
-5.481591 4.844062 -1.619046
-5.879339 5.224171 -1.540704
-6.451849 5.712930 -1.469306
-7.169922 6.391519 -1.398373
-7.982374 7.157048 -1.295294
-9.267338 8.370268 -1.203796
-10.903649 9.915681 -1.064808
-11.497355 10.477687 -0.754555
-11.512007 10.498648 -0.385458
-0.001788 -0.342089 -0.012377
-12.288177 11.241003 0.373276
-12.299138 11.259011 0.769620
-12.288948 11.257076 1.162785
-12.460297 11.426633 1.580019
-12.559371 11.523952 2.001439
-12.607333 11.577154 2.419126
-12.682301 11.655970 2.848967
-12.759703 11.732969 3.290425
-0.429399 0.064645 -0.362508
-0.436347 0.071517 -0.349597
-0.494292 0.126752 -0.374111
-0.507897 0.140011 -0.363505
-0.513520 0.145653 -0.347192
-2.885093 2.405271 -1.787223
-3.053467 2.567588 -1.775320
-3.267496 2.773696 -1.776726
-3.498326 2.994927 -1.773517
-3.750551 3.237988 -1.765974
-4.065080 3.540887 -1.768342
-4.412466 3.874126 -1.764380
-4.826555 4.272945 -1.762788
-5.288567 4.716413 -1.748889
-5.477082 4.900237 -1.626495
-5.851444 5.262372 -1.541764
-6.417234 5.752823 -1.469574
-7.119548 6.422132 -1.396079
-7.893126 7.162188 -1.288012
-9.221249 8.430950 -1.204464
-10.923871 10.054315 -1.072436
-11.830766 10.924983 -0.780288
-0.001769 -0.341715 -0.012364
-11.862947 10.966645 -0.018475
-12.298806 11.389960 0.375886
-12.289328 11.388690 0.773508
-12.289759 11.392759 1.169403
-0.001769 -0.341715 -0.012364
-12.396854 11.510724 1.986719
-12.444007 11.559544 2.400902
-12.530295 11.649982 2.830302
-12.585607 11.710919 3.263917
-0.425811 0.066268 -0.361472
-0.433966 0.074365 -0.349582
-0.483959 0.122587 -0.368458
-0.499962 0.138322 -0.359896
-0.504275 0.142598 -0.342894
-2.869233 2.422191 -1.787190
-3.032670 2.581646 -1.772972
-3.248708 2.790957 -1.775963
-3.479048 3.015381 -1.773480
-3.731884 3.260533 -1.766578
-4.040605 3.561218 -1.767110
-4.383986 3.895798 -1.762681
-4.800714 4.300179 -1.762743
-5.260747 4.748498 -1.749302
-5.477239 4.959669 -1.635193
-5.811604 5.287097 -1.539487
-6.407651 5.814640 -1.475367
-7.093334 6.475722 -1.398530
-7.836889 7.195486 -1.285852
-9.210756 8.522919 -1.209612
-10.858085 10.111856 -1.071788
-11.744104 10.972490 -0.778786
-11.805295 11.035007 -0.398999
-11.675267 10.917105 -0.018320
-12.288593 11.516472 0.377810
-12.289746 11.521311 0.777854
-12.279372 11.519130 1.175051
-12.262966 11.507018 1.572069
-0.001772 -0.341362 -0.012351
-0.001772 -0.341362 -0.012351
-12.361012 11.621282 2.807105
-12.426331 11.692452 3.239990
-0.419836 0.065384 -0.358394
-0.439129 0.084429 -0.355448
-0.476283 0.120722 -0.364683
-0.492159 0.136462 -0.356288
-0.498891 0.143319 -0.341165
-2.863728 2.449235 -1.793671
-3.013672 2.596304 -1.771396
-3.225294 2.804758 -1.773016
-3.461024 3.037012 -1.774129
-3.705644 3.277041 -1.763976
-4.018056 3.584788 -1.767069
-4.355388 3.917304 -1.760982
-4.772511 4.326765 -1.762190
-5.234130 4.781790 -1.750177
-5.468049 5.014333 -1.641806
-5.765464 5.309467 -1.536093
-6.374589 5.852057 -1.475637
-7.062485 6.525090 -1.400143
-7.804638 7.249191 -1.287415
-9.279547 8.689848 -1.225018
-10.856302 10.231642 -1.077451
-11.803809 11.158135 -0.786770
-11.832644 11.193873 -0.401970
-11.656034 11.029205 -0.018250
-12.276546 11.638335 0.379641
-12.279819 11.649467 0.781741
-12.270782 11.648568 1.180977
-12.253686 11.639766 1.580126
-12.241703 11.631825 1.983669
-12.233902 11.632096 2.386938
-0.001775 -0.341008 -0.012338
-12.282397 11.691248 3.220500
-0.422322 0.073040 -0.362461
-0.437838 0.088600 -0.356412
-0.476055 0.126361 -0.366546
-0.485490 0.135968 -0.353577
-0.488280 0.139011 -0.336011
-0.514243 0.164748 -0.333092
-3.001425 2.619694 -1.774447
-3.206567 2.824203 -1.772980
-3.436167 3.051960 -1.771353
-3.693549 3.308639 -1.768423
-3.991979 3.606230 -1.765835
-4.329419 3.941325 -1.760387
-4.741996 4.352621 -1.761129
-5.207301 4.814950 -1.751051
-5.467680 5.076388 -1.650919
-5.760749 5.370597 -1.543461
-6.343350 5.895670 -1.476878
-7.003059 6.546561 -1.396175
-7.777870 7.313833 -1.290372
-9.214450 8.733927 -1.223448
-10.809452 10.308335 -1.078766
-12.113777 11.601426 -0.811647
-11.614541 11.116785 -0.396924
-11.775420 11.279117 -0.018250
-12.267839 11.773138 0.381752
-12.263883 11.777225 0.785446
-12.256872 11.774073 1.186487
-12.235435 11.760903 1.586886
-12.229752 11.763269 1.993495
-12.218218 11.755647 2.397585
-12.196428 11.742061 2.801803
-0.001778 -0.340655 -0.012325
-0.412612 0.068540 -0.356320
-0.434126 0.090229 -0.355416
-0.469611 0.125700 -0.363711
-0.480211 0.136576 -0.351765
-0.481656 0.138348 -0.333425
-0.511301 0.168072 -0.333075
-2.979125 2.632053 -1.771328
-3.185647 2.840345 -1.771488
-3.417898 3.073383 -1.772001
-3.672487 3.330192 -1.768385
-3.963789 3.624107 -1.763409
-4.301979 3.963818 -1.759241
-4.713523 4.378840 -1.760576
-5.174793 4.842438 -1.750079
-5.462651 5.134448 -1.658782
-5.726367 5.402652 -1.543037
-6.283553 5.908788 -1.471298
-6.938007 6.561992 -1.391091
-7.718179 7.343432 -1.287746
-9.133831 8.759078 -1.219642
-10.780434 10.403171 -1.081903
-12.290927 11.916824 -0.827884
-11.878115 11.512921 -0.407812
-11.914945 11.553399 -0.018259
-12.258700 11.904694 0.383815
-12.253215 11.907332 0.789428
-12.240484 11.898432 1.191860
-12.230282 11.896309 1.595498
-12.231423 11.905532 2.005405
-12.214119 11.892024 2.410733
-12.187986 11.873894 2.816136
-12.171370 11.865334 3.228829
-0.411470 0.072471 -0.357326
-0.431647 0.093064 -0.355400
-0.451989 0.113713 -0.352420
-0.472426 0.134604 -0.348157
-0.475082 0.137604 -0.330841
-0.504425 0.167545 -0.330617
-2.959365 2.646891 -1.769752
-3.172530 2.864281 -1.774366
-3.394942 3.091286 -1.770594
-3.648617 3.348952 -1.767065
-3.943579 3.649939 -1.764561
-4.269617 3.982780 -1.756437
-4.679464 4.399389 -1.757994
-5.146669 4.876194 -1.750952
-5.454783 5.192202 -1.666227
-5.705982 5.450885 -1.546693
-6.247461 5.945225 -1.471241
-6.880185 6.586528 -1.387680
-7.622021 7.335947 -1.279072
-8.849855 8.578651 -1.188796
-10.751609 10.502725 -1.085318
-0.001762 -0.339928 -0.012299
-11.557783 11.327211 -0.399282
-0.001762 -0.339928 -0.012299
-12.248449 12.036550 0.385880
-12.245702 12.041952 0.793687
-12.226555 12.030785 1.197791
-12.221822 12.034181 1.604112
-12.216507 12.032664 2.014768
-12.201135 12.025239 2.422772
-12.184556 12.016621 2.832415
-12.172626 12.008341 3.248147
-0.415035 0.081395 -0.362414
-0.427841 0.094729 -0.354404
-0.449299 0.116726 -0.352404
-0.455835 0.123714 -0.338263
-0.468536 0.136800 -0.328256
-0.495114 0.164253 -0.326530
-2.939007 2.662120 -1.768174
-3.144916 2.873527 -1.769235
-3.376446 3.112475 -1.771242
-3.625982 3.368912 -1.766385
-3.916539 3.668840 -1.762731
-4.244643 4.007664 -1.756394
-4.652111 4.426600 -1.757949
-5.116562 4.906087 -1.750903
-5.452483 5.252347 -1.674923
-5.673567 5.483003 -1.546641
-6.219739 5.992395 -1.473458
-6.866554 6.653232 -1.392921
-7.670933 7.477820 -1.294824
-9.099298 8.939910 -1.229183
-10.768603 10.646015 -1.093222
-11.506536 11.406715 -0.784700
-11.875099 11.786789 -0.412143
-11.875763 11.795527 -0.018114
-12.234899 12.170835 0.387948
-12.237027 12.176909 0.797947
-12.220626 12.168421 1.204415
-12.208183 12.159565 1.611613
-12.199174 12.158584 2.023899
-12.186403 12.153780 2.434255
-12.173233 12.144145 2.846099
-12.167138 12.146149 3.265988
-0.413866 0.085298 -0.363419
-0.425398 0.097470 -0.354388
-0.445506 0.118317 -0.351449
-0.449515 0.122746 -0.335553
-0.461996 0.135960 -0.325670
-0.487116 0.162200 -0.323257
-2.933744 2.690782 -1.775084
-3.126349 2.891953 -1.769199
-3.349969 3.125476 -1.767782
-3.598000 3.383261 -1.763143
-3.892058 3.690319 -1.762094
-4.218217 4.030996 -1.755800
-4.621899 4.450884 -1.756889
-5.079514 4.928821 -1.748546
-5.443634 5.310317 -1.682367
-5.643004 5.521173 -1.547700
-6.192530 6.035880 -1.475352
-6.806840 6.673136 -1.388953
-7.519280 7.409675 -1.276613
-9.090315 9.035243 -1.234889
-10.730142 10.734002 -1.095656
-11.353197 11.380730 -0.778697
-11.917692 11.971706 -0.415862
-12.012859 12.078259 -0.018119
-12.228789 12.305418 0.390148
-12.223048 12.307858 0.801931
-12.203827 12.296337 1.210067
-12.197412 12.298037 1.620229
-12.193175 12.297610 2.035117
-12.176104 12.288255 2.446849
-12.157818 12.277613 2.860115
-12.150929 12.274387 3.281242
-0.408952 0.085619 -0.361361
-0.425215 0.102849 -0.356333
-0.437890 0.116208 -0.347674
-0.445516 0.124476 -0.334638
-0.455418 0.135124 -0.323085
-0.480341 0.161471 -0.320798
-0.495282 0.177260 -0.310817
-3.108415 2.912145 -1.769892
-3.334556 3.151073 -1.770484
-3.570615 3.399421 -1.760540
-3.868086 3.713695 -1.762053
-4.185571 4.049358 -1.752997
-4.593400 4.478579 -1.756842
-5.044133 4.955004 -1.747110
-5.441030 5.375471 -1.691893
-5.618976 5.566294 -1.550614
-6.154593 6.072869 -1.475294
-6.763758 6.712313 -1.388612
-7.543278 7.527638 -1.288409
-9.009724 9.063498 -1.231453
-10.718053 10.854033 -1.101032
-11.309709 11.475656 -0.780384
-11.775336 11.970304 -0.413408
-12.231958 12.456152 -0.018160
-12.208799 12.435924 0.392080
-12.209867 12.445535 0.806196
-12.193369 12.436714 1.216695
-12.182685 12.433933 1.628476
-12.182406 12.437645 2.046106
-12.166549 12.429435 2.460280
-12.143981 12.414177 2.874778
-12.142261 12.416359 3.299457
-0.399395 0.080839 -0.355221
-0.419075 0.101842 -0.353376
-0.434050 0.117794 -0.346719
-0.436703 0.120896 -0.330132
-0.448961 0.134150 -0.320500
-0.470009 0.156537 -0.315898
-0.482162 0.169730 -0.304628
-3.084530 2.924936 -1.766944
-3.311146 3.165907 -1.768394
-3.549021 3.420295 -1.760501
-3.842068 3.733488 -1.760820
-4.159686 4.071626 -1.752402
-4.560263 4.499695 -1.754768
-5.014494 4.983453 -1.747062
-5.438547 5.437453 -1.701005
-5.589952 5.602237 -1.551674
-6.144745 6.137190 -1.481735
-6.740637 6.767576 -1.391900
-7.521078 7.595824 -1.292297
-9.010195 9.173425 -1.238833
-10.732211 10.995190 -1.108795
-0.001756 -0.338490 -0.012248
-11.619089 11.948190 -0.410392
-11.775623 12.117660 -0.017878
-12.206419 12.581962 0.394560
-12.204625 12.588614 0.810921
-12.186193 12.573154 1.223319
-12.175367 12.570217 1.637275
-12.172656 12.575882 2.057093
-12.161598 12.568164 2.473985
-12.141555 12.555431 2.891379
-12.131888 12.553703 3.316931
-0.408744 0.096021 -0.365412
-0.414142 0.102058 -0.351399
-0.424167 0.112909 -0.341066
-0.429171 0.118527 -0.326525
-0.440054 0.130479 -0.316203
-0.460810 0.153008 -0.311811
-0.481738 0.175552 -0.306155
-3.064426 2.941630 -1.766181
-3.291579 3.187221 -1.769041
-3.528615 3.442408 -1.761104
-3.815961 3.753102 -1.759587
-4.130836 4.093763 -1.751255
-4.528376 4.521980 -1.753201
-4.977527 5.007771 -1.745165
-5.428157 5.495764 -1.708448
-5.545243 5.625576 -1.549024
-6.103289 6.168517 -1.480704
-6.707833 6.817917 -1.393791
-7.473914 7.637897 -1.291998
-8.979775 9.251664 -1.242112
-10.683857 11.079416 -1.110665
-11.389848 11.837851 -0.795113
-11.475779 11.937827 -0.407801
-11.698782 12.184731 -0.017777
-16.157410 16.963566 0.529698
-12.192663 12.726230 0.815278
-12.169231 12.709781 1.229532
-12.165086 12.713954 1.646449
-12.163058 12.715890 2.068314
-12.141461 12.701338 2.485752
-12.121277 12.688280 2.905073
-12.123029 12.694208 3.335145
-0.403831 0.096256 -0.363355
-0.403228 0.095906 -0.344522
-0.422686 0.117058 -0.341989
-0.425237 0.120104 -0.325611
-0.436127 0.132021 -0.315331
-0.454252 0.151978 -0.309352
-0.481185 0.181460 -0.307681
-3.046751 2.960950 -1.766874
-3.268666 3.203722 -1.767635
-3.501663 3.457438 -1.758502
-3.789747 3.772562 -1.758353
-4.102647 4.115003 -1.750109
-4.501614 4.549768 -1.753662
-4.944025 5.033839 -1.744193
-5.431256 5.565210 -1.719641
-5.514508 5.659704 -1.549713
-6.075299 6.216559 -1.483245
-6.659770 6.849529 -1.392334
-7.408915 7.663507 -1.288906
-8.918662 9.300743 -1.241474
-10.695127 11.224611 -1.118564
-0.001762 -0.337783 -0.012222
-11.617905 12.234640 -0.415094
-11.629180 12.255180 -0.017681
-16.134451 17.146191 0.532532
-16.128172 17.144823 1.089364
-12.165558 12.857736 1.236993
-12.151369 12.846467 1.654694
-12.157659 12.862037 2.080461
-12.131879 12.842790 2.499460
-12.115156 12.828719 2.921352
-12.106302 12.827800 3.351511
-0.404877 0.102666 -0.366402
-0.407863 0.106214 -0.350388
-0.418955 0.118450 -0.341034
-0.417833 0.117560 -0.322003
-0.427302 0.128217 -0.311033
-0.449055 0.152150 -0.307708
-0.474549 0.180396 -0.305351
-3.027706 2.978796 -1.766839
-3.250107 3.223663 -1.768283
-3.481018 3.479304 -1.759105
-3.767305 3.796082 -1.758909
-4.076417 4.136785 -1.749515
-4.465597 4.567368 -1.750574
-4.902186 5.048747 -1.739990
-5.419538 5.621356 -1.726668
-5.489134 5.701896 -1.552257
-6.021286 6.231810 -1.478966
-6.630237 6.898643 -1.394506
-7.392288 7.735878 -1.293725
-8.832431 9.315498 -1.236924
-10.732716 11.396401 -1.129126
-11.480683 12.222564 -0.811056
-11.340353 12.077279 -0.407845
-16.143677 17.342001 -0.019719
-16.116077 17.323503 0.535360
-16.122780 17.342588 1.096064
-16.102381 17.325754 1.651535
-12.155704 13.004894 1.665905
-12.144279 13.001224 2.091451
-12.119406 12.978044 2.512334
-12.106845 12.973070 2.937957
-12.095051 12.968907 3.369727
-0.395419 0.097680 -0.360262
-0.404135 0.107608 -0.349392
-0.412752 0.117292 -0.338199
-0.411626 0.116315 -0.319293
-0.420983 0.126990 -0.308449
-0.438791 0.147023 -0.302808
-0.475262 0.187584 -0.307649
-3.007313 2.995149 -1.766077
-3.223894 3.237653 -1.765508
-3.458987 3.499640 -1.759067
-3.739600 3.813816 -1.757080
-4.049801 4.161249 -1.749472
-4.433384 4.589055 -1.749007
-4.872732 5.081002 -1.740863
-5.388005 5.658136 -1.727863
-5.454515 5.736179 -1.552574
-5.992631 6.276968 -1.481183
-6.601811 6.954353 -1.397513
-7.348332 7.781621 -1.294123
-8.811424 9.404955 -1.241693
-10.747197 11.553466 -1.137861
-11.592977 12.493402 -0.823902
-11.428112 12.319344 -0.413347
-16.128254 17.537317 -0.019627
-16.111862 17.524752 0.538834
-16.100956 17.524515 1.101747
-16.081421 17.514709 1.660419
-16.057199 17.499683 2.219301
-12.161596 13.176125 2.108003
-12.106385 13.123701 2.526325
-12.092272 13.116950 2.953919
-12.089127 13.117646 3.389792
-0.399701 0.108069 -0.366370
-0.397989 0.106462 -0.346435
-0.407706 0.117438 -0.336305
-0.407738 0.117765 -0.318379
-0.418215 0.129835 -0.308433
-0.433564 0.147163 -0.301164
-0.469689 0.187984 -0.306090
-2.989956 3.016084 -1.767497
-3.203270 3.256503 -1.765472
-3.443710 3.528953 -1.762872
-3.718724 3.840556 -1.758828
-4.019995 4.180547 -1.747774
-4.400242 4.611274 -1.747440
-4.841447 5.109333 -1.740814
-5.352092 5.687957 -1.727394
-5.437726 5.788414 -1.557714
-5.951955 6.311306 -1.480800
-6.543859 6.974902 -1.394104
-7.307967 7.834326 -1.295450
-8.671209 9.365355 -1.230058
-10.711752 11.652731 -1.141272
-11.403548 12.435641 -0.815831
-11.375443 12.412636 -0.414048
-16.110231 17.725792 -0.019534
-16.093388 17.718904 0.541993
-16.087696 17.724520 1.108361
-16.064581 17.704220 1.669579
-16.041567 17.690397 2.231654
-16.042561 17.703503 2.803441
-16.031487 17.696703 3.371334
-12.072253 13.251626 2.968261
-12.067801 13.255604 3.406533
-0.395986 0.109431 -0.365333
-0.383885 0.096032 -0.336617
-0.401565 0.116169 -0.333470
-0.401549 0.116450 -0.315670
-0.409550 0.125799 -0.304136
-0.431975 0.151374 -0.301962
-0.460565 0.184100 -0.302216
-2.968132 3.030814 -1.766006
-3.181279 3.273841 -1.764750
-3.407633 3.533425 -1.755785
-3.694613 3.862254 -1.758788
-3.997728 4.208304 -1.749387
-4.370382 4.635452 -1.746887
-4.808733 5.136006 -1.740304
-5.317330 5.719017 -1.727342
-5.424387 5.845106 -1.563965
-5.941040 6.376857 -1.487565
-6.500329 7.011339 -1.393764
-7.293691 7.913828 -1.301198
-8.591468 9.388615 -1.226626
-10.732327 11.816263 -1.150708
-11.065446 12.201849 -0.796981
-11.584826 12.799218 -0.424013
-16.101183 17.926619 -0.019446
-16.081650 17.916662 0.545332
-16.066582 17.911680 1.114325
-16.044765 17.892641 1.678602
-16.026918 17.884485 2.244378
-16.023643 17.892914 2.818633
-16.007105 17.879826 3.388409
-15.985075 17.866858 3.960365
-12.061909 13.407948 3.427340
-0.387763 0.105568 -0.360214
-0.387128 0.105144 -0.341502
-0.394304 0.113506 -0.329697
-0.395414 0.115060 -0.312960
-0.403323 0.124406 -0.301552
-0.425568 0.150060 -0.299504
-0.455120 0.184325 -0.300657
-2.945028 3.043989 -1.763787
-3.161666 3.293880 -1.765399
-3.382798 3.550491 -1.754465
-3.666607 3.879504 -1.756958
-3.966445 4.225805 -1.747136
-4.339139 4.657975 -1.745827
-4.770768 5.156613 -1.737947
-5.278512 5.745475 -1.726040
-5.417024 5.909266 -1.572071
-5.932159 6.445483 -1.494979
-6.478780 7.072848 -1.398166
-7.266972 7.979983 -1.304852
-8.539238 9.442795 -1.227108
-10.596579 11.803060 -1.143611
-10.995665 12.268745 -0.797073
-16.153135 18.194216 -0.590092
-16.085077 18.121931 -0.019353
-16.057680 18.102800 0.548306
-16.054321 18.111269 1.121031
-16.032490 18.091955 1.688597
-16.019690 18.089550 2.258400
-16.012186 18.093204 2.835449
-15.991543 18.075214 3.407707
-15.978277 18.072229 3.985095
-15.960680 18.064209 4.569540
-0.385207 0.108148 -0.360199
-0.381167 0.103752 -0.338546
-0.389399 0.113446 -0.327802
-0.395141 0.120387 -0.314740
-0.403011 0.129821 -0.303248
-0.423949 0.154240 -0.300302
-0.452120 0.187282 -0.300641
-2.927948 3.064071 -1.765208
-3.139476 3.310968 -1.764677
-3.361598 3.571698 -1.755068
-3.639795 3.897998 -1.755726
-3.937598 4.246018 -1.745990
-4.307790 4.680300 -1.744768
-4.741588 5.187310 -1.738822
-5.247225 5.780581 -1.727237
-5.407825 5.972053 -1.579806
-5.900750 6.488849 -1.496871
-6.424346 7.096909 -1.395594
-7.230639 8.035586 -1.306877
-8.446362 9.449944 -1.221814
-10.483490 11.814384 -1.138896
-10.908542 12.315568 -0.795947
-16.125772 18.379675 -0.592826
-16.073792 18.325228 -0.019262
-16.039906 18.298374 0.551557
-16.042923 18.314322 1.127923
-16.021051 18.294750 1.698873
-16.001553 18.284555 2.271127
-15.991204 18.284906 2.850876
-15.984563 18.283064 3.429229
-15.959379 18.266127 4.007237
-8.058568 9.062474 2.316477
-0.387107 0.115946 -0.364265
-0.378620 0.106298 -0.338530
-0.383376 0.111993 -0.324968
-0.394831 0.125720 -0.316520
-0.400321 0.132485 -0.303232
-0.421120 0.157022 -0.300286
-0.439531 0.178984 -0.294454
-2.905904 3.078399 -1.763717
-3.116009 3.326462 -1.763272
-3.336592 3.588458 -1.753748
-3.615343 3.919258 -1.755685
-3.902449 4.258708 -1.742085
-4.277585 4.703904 -1.744216
-4.707179 5.211920 -1.737850
-5.206859 5.805085 -1.725519
-5.403181 6.040925 -1.589024
-5.862637 6.524570 -1.497139
-6.393018 7.147687 -1.398044
-7.186189 8.081965 -1.307508
-8.419588 9.533625 -1.226024
-10.410753 11.871875 -1.138524
-0.001739 -0.335269 -0.012132
-16.117540 18.589798 -0.596310
-16.059383 18.527500 -0.019169
-16.033394 18.509562 0.555267
-16.028425 18.516335 1.134724
-16.002634 18.491955 1.708594
-15.980429 18.478420 2.283670
-15.983944 18.495180 2.869085
-13.867819 16.007082 2.993793
-0.001739 -0.335269 -0.012132
-8.004301 9.109068 2.316551
-0.380075 0.113247 -0.360167
-0.368211 0.099483 -0.331654
-0.379663 0.113184 -0.324013
-0.391009 0.126976 -0.315606
-0.398798 0.136501 -0.304073
-0.417011 0.158466 -0.299456
-0.440125 0.186093 -0.296752
-2.886221 3.095413 -1.763682
-3.094221 3.345252 -1.763234
-3.321260 3.616663 -1.757555
-3.590783 3.940363 -1.755645
-3.880068 4.288026 -1.744249
-4.242292 4.721386 -1.741635
-4.667933 5.232654 -1.735492
-5.180386 5.848222 -1.728797
-5.396776 6.110919 -1.598240
-5.819215 6.554049 -1.496107
-6.357441 7.196444 -1.399933
-7.135030 8.120533 -1.306975
-8.354922 9.573163 -1.224829
-10.327847 11.921590 -1.137309
-10.894672 12.598453 -0.805411
-16.106127 18.798923 -0.599746
-16.043726 18.737600 -0.019073
-16.022396 18.718235 0.558887
-16.008257 18.714224 1.141248
-15.984289 18.698460 1.718876
-15.970906 18.695293 2.298626
-15.958221 18.686169 2.884283
-13.678991 15.980124 2.973913
-13.663420 15.972515 3.476974
-7.956097 9.162865 2.318473
-0.377408 0.115845 -0.360151
-0.360035 0.095322 -0.326737
-0.379249 0.118499 -0.325876
-0.390554 0.132378 -0.317386
