# This PCD file was generated using the MATLAB® pcwrite function
# from Computer Vision Toolbox®.
# .PCD v.7 - Point Cloud Data file format
VERSION .7
FIELDS x y z
SIZE 4 4 4
TYPE F F F
COUNT 1 1 1
WIDTH 1579
HEIGHT 1
VIEWPOINT 0 0 0 1 0 0 0
POINTS 1579
DATA ascii
-5.426563 -40.931637 -2.891556
-5.924278 -44.618134 -2.105922
-0.000182 -0.087652 -0.003283
-11.129109 -83.296707 -0.017653
-0.000182 -0.087652 -0.003283
-9.006525 -67.158646 3.140973
-9.067325 -67.432877 4.736755
-0.000182 -0.087652 -0.003283
-0.000182 -0.087652 -0.003283
-0.000182 -0.087652 -0.003283
-0.000182 -0.087652 -0.003283
-3.013323 -22.233107 4.203619
-0.000181 -0.087301 -0.003270
-0.000181 -0.087301 -0.003270
-0.000181 -0.087301 -0.003270
-0.070213 -0.593602 -0.260010
-0.100018 -0.807052 -0.347370
-0.109640 -0.874441 -0.357266
-0.119268 -0.942650 -0.364173
-0.132820 -1.037462 -0.378085
-0.760777 -5.521779 -2.001604
-0.825016 -5.973272 -2.012698
-0.902714 -6.511342 -2.028733
-0.994128 -7.144074 -2.048061
-1.104945 -7.920825 -2.075711
-1.244663 -8.889257 -2.111176
-1.415147 -10.069891 -2.148144
-1.638711 -11.618152 -2.199680
-1.856814 -13.575191 -2.242531
-2.262896 -16.482830 -2.332232
-2.899930 -21.071543 -2.480448
-0.000181 -0.087301 -0.003270
-5.655104 -40.799572 -2.884528
-6.198585 -44.655064 -2.109344
-0.000181 -0.087301 -0.003270
-11.500256 -82.353378 -0.017444
-0.000181 -0.087301 -0.003270
-9.552305 -68.158195 3.190499
-9.825042 -69.924232 4.916198
-0.000181 -0.087301 -0.003270
-0.000181 -0.087301 -0.003270
-0.000181 -0.087301 -0.003270
-0.000181 -0.087301 -0.003270
-0.000181 -0.087301 -0.003270
-0.000163 -0.086925 -0.003256
-0.000163 -0.086925 -0.003256
-0.000163 -0.086925 -0.003256
-0.083346 -0.663601 -0.295905
-0.103884 -0.804300 -0.346500
-0.115214 -0.880666 -0.360507
-0.125532 -0.950737 -0.368015
-0.138015 -1.034473 -0.377343
-0.791533 -5.513243 -2.000219
-0.857272 -5.956830 -2.008838
-0.939160 -6.501916 -2.027525
-1.034761 -7.137882 -2.048044
-1.150598 -7.917798 -2.076706
-1.295045 -8.879655 -2.110697
-1.472605 -10.061209 -2.148125
-1.704510 -11.604274 -2.198919
-1.936430 -13.577595 -2.244782
-2.358410 -16.477011 -2.333324
-3.024414 -21.079695 -2.483443
-4.212401 -29.253895 -2.757683
-0.000163 -0.086925 -0.003256
-6.465176 -44.687466 -2.112578
-0.000163 -0.086925 -0.003256
-0.000163 -0.086925 -0.003256
-0.000163 -0.086925 -0.003256
-11.769622 -80.587349 3.776846
-10.229077 -69.879944 4.917226
-0.000163 -0.086925 -0.003256
-0.000163 -0.086925 -0.003256
-0.000163 -0.086925 -0.003256
-0.000163 -0.086925 -0.003256
-0.000163 -0.086925 -0.003256
-0.000163 -0.086574 -0.003243
-0.000163 -0.086574 -0.003243
-0.000163 -0.086574 -0.003243
-0.095007 -0.717541 -0.323720
-0.107746 -0.801553 -0.345630
-0.118687 -0.872407 -0.357238
-0.129274 -0.940502 -0.364145
-0.144027 -1.036995 -0.378785
-0.822755 -5.508229 -2.000202
-0.891352 -5.953322 -2.009462
-0.976942 -6.501705 -2.029296
-1.074471 -7.125744 -2.046372
-1.195378 -7.908772 -2.076181
-1.345655 -8.871694 -2.110678
-1.529180 -10.058286 -2.149355
-1.767914 -11.588404 -2.197788
-2.017016 -13.569411 -2.245410
-2.450996 -16.451048 -2.331630
-3.150384 -21.070841 -2.484579
-4.420656 -29.462368 -2.779802
-0.000163 -0.086574 -0.003243
-6.720760 -44.588715 -2.109735
-0.000163 -0.086574 -0.003243
-0.000163 -0.086574 -0.003243
-0.000163 -0.086574 -0.003243
-0.000163 -0.086574 -0.003243
-0.000163 -0.086574 -0.003243
-0.000163 -0.086574 -0.003243
-0.000163 -0.086574 -0.003243
-4.347349 -28.436029 4.022626
-0.000163 -0.086574 -0.003243
-0.000163 -0.086574 -0.003243
-0.000162 -0.086223 -0.003230
-0.000162 -0.086223 -0.003230
-0.000162 -0.086223 -0.003230
-0.101263 -0.734289 -0.332683
-0.112154 -0.802369 -0.346473
-0.124204 -0.878603 -0.360480
-0.134904 -0.944892 -0.366445
-0.148929 -1.032130 -0.377315
-0.853321 -5.505064 -2.000870
-0.924526 -5.943991 -2.008164
-1.013575 -6.493738 -2.028683
-1.114375 -7.123089 -2.047458
-1.241321 -7.907144 -2.077685
-1.393792 -8.857938 -2.109276
-1.585962 -10.045094 -2.148503
-1.833810 -11.575734 -2.197397
-2.092295 -13.557601 -2.245390
-2.540845 -16.426991 -2.330214
-3.268749 -21.060425 -2.485483
-4.597244 -29.517546 -2.787403
-4.694988 -30.108816 -2.133286
-0.000162 -0.086223 -0.003230
-0.000162 -0.086223 -0.003230
-0.000162 -0.086223 -0.003230
-0.000162 -0.086223 -0.003230
-0.000162 -0.086223 -0.003230
-0.000162 -0.086223 -0.003230
-0.000162 -0.086223 -0.003230
-0.000162 -0.086223 -0.003230
-0.000162 -0.086223 -0.003230
-0.000162 -0.086223 -0.003230
-0.000162 -0.086223 -0.003230
-0.000162 -0.085872 -0.003216
-0.000162 -0.085872 -0.003216
-0.000162 -0.085872 -0.003216
-0.109008 -0.758059 -0.345237
-0.114525 -0.790643 -0.341323
-0.128910 -0.877508 -0.360466
-0.140133 -0.945562 -0.367203
-0.152564 -1.019866 -0.372935
-0.885453 -5.499549 -2.000854
-0.958255 -5.938227 -2.008148
-1.051070 -6.491204 -2.029858
-1.156432 -7.117911 -2.047993
-1.286036 -7.897614 -2.077160
-1.446127 -8.851079 -2.109719
-1.645344 -10.037087 -2.148901
-1.900674 -11.556552 -2.195895
-2.170769 -13.550806 -2.246342
-2.639952 -16.424942 -2.332142
-3.390775 -21.048765 -2.486388
-4.758698 -29.441092 -2.782720
-4.831765 -29.826036 -2.115214
-0.000162 -0.085872 -0.003216
-0.000162 -0.085872 -0.003216
-0.000162 -0.085872 -0.003216
-0.000162 -0.085872 -0.003216
-11.780133 -71.960358 3.381009
-11.811007 -71.991272 5.079943
-0.000162 -0.085872 -0.003216
-11.531524 -70.060242 8.278000
-0.000162 -0.085872 -0.003216
-0.000162 -0.085872 -0.003216
-0.000162 -0.085872 -0.003216
-0.000162 -0.085521 -0.003203
-0.000162 -0.085521 -0.003203
-0.000162 -0.085521 -0.003203
-0.115645 -0.772899 -0.353302
-0.120079 -0.798532 -0.345589
-0.131657 -0.865605 -0.355570
-0.144928 -0.942550 -0.366418
-0.159810 -1.029647 -0.377288
-0.916939 -5.495871 -2.001522
-0.992882 -5.937854 -2.010053
-1.087309 -6.480937 -2.028649
-1.196587 -7.108887 -2.047424
-1.331645 -7.893534 -2.078156
-1.495604 -8.836505 -2.108317
-1.701224 -10.029325 -2.149298
-1.965714 -11.551235 -2.196987
-2.249977 -13.533448 -2.245672
-2.731396 -16.393497 -2.329890
-3.515741 -21.031828 -2.486827
-4.903063 -29.235245 -2.765939
-4.861170 -28.955307 -2.055329
-5.023142 -29.853678 -1.416114
-10.981277 -65.094589 -1.544973
-11.009008 -65.120346 -0.014272
-10.470004 -61.805164 1.439705
-10.485003 -61.828041 2.906788
-11.068804 -65.128113 4.599277
-10.611468 -62.374756 5.881114
-10.647286 -62.453346 7.384977
-4.844483 -28.402502 4.029387
-0.000162 -0.085521 -0.003203
-3.802016 -22.238926 4.227822
-0.000161 -0.085170 -0.003190
-0.000161 -0.085170 -0.003190
-0.000161 -0.085170 -0.003190
-0.110614 -0.720833 -0.327256
-0.120470 -0.776117 -0.335305
-0.137070 -0.869865 -0.357998
-0.149710 -0.941375 -0.366404
-0.165247 -1.028365 -0.377274
-0.949066 -5.495711 -2.003559
-1.029203 -5.946628 -2.015161
-1.125118 -6.479863 -2.030421
-1.238005 -7.107198 -2.049061
-1.376608 -7.885403 -2.078139
-1.546654 -8.831227 -2.109221
-1.759189 -10.012941 -2.148031
-2.033016 -11.535140 -2.196226
-2.326400 -13.528111 -2.246950
-2.825268 -16.377146 -2.329867
-3.630640 -20.999792 -2.485408
-4.956570 -28.579262 -2.706351
-4.972204 -28.610050 -2.032784
-4.918352 -28.271988 -1.342310
-10.620234 -60.824860 -1.445096
-10.655084 -60.898830 -0.013515
-0.000161 -0.085170 -0.003190
-9.704745 -55.304394 2.601975
-10.127578 -57.592339 4.070169
-9.944042 -56.434929 5.325553
-0.000161 -0.085170 -0.003190
-5.018525 -28.436192 4.038313
-0.000161 -0.085170 -0.003190
-0.000161 -0.085170 -0.003190
-0.000161 -0.084819 -0.003177
-0.000161 -0.084819 -0.003177
-0.000161 -0.084819 -0.003177
-0.111231 -0.702237 -0.318266
-0.120732 -0.753704 -0.325020
-0.134791 -0.830971 -0.340895
-0.154783 -0.940118 -0.366390
-0.169506 -1.019679 -0.374349
-0.980213 -5.489809 -2.003543
-1.063959 -5.940063 -2.015144
-1.163051 -6.472732 -2.030404
-1.278090 -7.097720 -2.048492
-1.422502 -7.874826 -2.077614
-1.597348 -8.823740 -2.109664
-1.817392 -10.008068 -2.149260
-2.097851 -11.517084 -2.195094
-2.407170 -13.519552 -2.247902
-2.919413 -16.362219 -2.330123
-3.757135 -20.991217 -2.487008
-0.000161 -0.084819 -0.003177
-4.907075 -27.308273 -1.942134
-5.000314 -27.770136 -1.319841
-9.710427 -53.742386 -1.278274
-9.724600 -53.767155 -0.012268
-9.778614 -53.958023 1.258907
-0.000161 -0.084819 -0.003177
-0.000161 -0.084819 -0.003177
-0.000161 -0.084819 -0.003177
-9.875672 -54.116520 6.410803
-5.192047 -28.462967 4.046406
-0.000161 -0.084819 -0.003177
-4.077104 -22.281178 4.244894
-0.000161 -0.084468 -0.003164
-0.000161 -0.084468 -0.003164
-0.000161 -0.084468 -0.003164
-0.117059 -0.713525 -0.324536
-0.121473 -0.736659 -0.317302
-0.134732 -0.806481 -0.330302
-0.158016 -0.929795 -0.362521
-0.175058 -1.020191 -0.375063
-1.011658 -5.485558 -2.004210
-1.094540 -5.922499 -2.011284
-1.199061 -6.467665 -2.030982
-1.318105 -7.088006 -2.047923
-1.464919 -7.860715 -2.076075
-1.646935 -8.810227 -2.108723
-1.873145 -9.999338 -2.149657
-2.162408 -11.508717 -2.195815
-2.480900 -13.485700 -2.244635
-3.013464 -16.346729 -2.330379
-3.876376 -20.963013 -2.486285
-5.043233 -27.195246 -2.580478
-5.001312 -26.943802 -1.918190
-5.095899 -27.398787 -1.303542
-10.030477 -53.797035 -1.280846
-10.057146 -53.835739 -0.012244
-0.000161 -0.084468 -0.003164
-0.000161 -0.084468 -0.003164
-0.000161 -0.084468 -0.003164
-0.000161 -0.084468 -0.003164
-10.167680 -54.009418 6.404817
-0.000161 -0.084468 -0.003164
-0.000161 -0.084468 -0.003164
-0.000161 -0.084468 -0.003164
-0.000161 -0.084117 -0.003151
-0.000161 -0.084117 -0.003151
-0.083082 -0.517694 -0.237960
-0.119900 -0.709003 -0.322727
-0.125241 -0.735612 -0.317289
-0.134731 -0.783800 -0.320523
-0.164818 -0.939413 -0.367134
-0.180795 -1.020645 -0.375777
-1.043461 -5.482984 -2.005563
-1.130663 -5.928771 -2.015751
-1.235064 -6.456543 -2.029773
-1.359153 -7.083726 -2.049009
-1.510057 -7.853708 -2.076564
-1.697160 -8.800247 -2.108704
-1.932315 -9.989616 -2.150054
-2.229410 -11.491483 -2.195054
-2.556081 -13.473234 -2.244939
-3.113024 -16.359880 -2.334815
-3.994045 -20.946554 -2.486957
-5.097390 -26.659775 -2.532244
-5.152148 -26.894613 -1.916762
-5.209884 -27.169460 -1.293976
-10.337363 -53.726242 -1.280519
-10.381304 -53.853146 -0.012211
-0.000161 -0.084117 -0.003151
-0.000161 -0.084117 -0.003151
-10.440240 -53.905682 3.821454
-0.000161 -0.084117 -0.003151
-10.469337 -53.904774 6.399529
-0.000161 -0.084117 -0.003151
-0.000161 -0.084117 -0.003151
-4.328599 -22.232786 4.244948
-0.000160 -0.083766 -0.003138
-0.000160 -0.083766 -0.003138
-0.087715 -0.527247 -0.243582
-0.122917 -0.704430 -0.320918
-0.128388 -0.730947 -0.315563
-0.137712 -0.777305 -0.318069
-0.170269 -0.939899 -0.367892
-0.188187 -1.028360 -0.379403
-1.074539 -5.476537 -2.005546
-1.162359 -5.906746 -2.010610
-1.273598 -6.452492 -2.030948
-1.400939 -7.082961 -2.051197
-1.556497 -7.846143 -2.077053
-1.747326 -8.789977 -2.108686
-1.988553 -9.974132 -2.149202
-2.295441 -11.480016 -2.195404
-2.633945 -13.449727 -2.243619
-3.208608 -16.351036 -2.336185
-4.117760 -20.922136 -2.486931
-5.106895 -25.880564 -2.460934
-5.067596 -25.658600 -1.830590
-5.395000 -27.261164 -1.299836
-10.678088 -53.777355 -1.283185
-10.674397 -53.709740 -0.012151
-0.000160 -0.083766 -0.003138
-0.000160 -0.083766 -0.003138
-0.000160 -0.083766 -0.003138
-10.768016 -53.836647 5.102270
-10.777160 -53.784870 6.392848
-0.000160 -0.083766 -0.003138
-0.000160 -0.083766 -0.003138
-0.000160 -0.083766 -0.003138
-0.000160 -0.083415 -0.003124
-0.000160 -0.083415 -0.003124
-0.091665 -0.533296 -0.247325
-0.126831 -0.705098 -0.321802
-0.132848 -0.733401 -0.317262
-0.139861 -0.767187 -0.313986
-0.175932 -0.942165 -0.369420
-0.192126 -1.019610 -0.376478
-1.104833 -5.466237 -2.004161
-1.197421 -5.907048 -2.013156
-1.310257 -6.444703 -2.030931
-1.441234 -7.074436 -2.051180
-1.601964 -7.840496 -2.078049
-1.796247 -8.773694 -2.107283
-2.045092 -9.960258 -2.148767
-2.359836 -11.460483 -2.194271
-2.710100 -13.430126 -2.242948
-3.303430 -16.337767 -2.336998
-4.240865 -20.913288 -2.488762
-5.233891 -25.745018 -2.450855
-5.057172 -24.856491 -1.775324
-5.142360 -25.228933 -1.204254
-0.000160 -0.083415 -0.003124
-10.964980 -53.558868 -0.012089
-0.000160 -0.083415 -0.003124
-0.000160 -0.083415 -0.003124
-11.042938 -53.701031 3.815841
-11.070560 -53.740238 5.099163
-11.074580 -53.665150 6.386167
-0.000160 -0.083415 -0.003124
-0.000160 -0.083415 -0.003124
-0.000160 -0.083415 -0.003124
-0.000160 -0.083064 -0.003111
-0.000160 -0.083064 -0.003111
-0.102939 -0.573888 -0.269853
-0.128217 -0.693521 -0.316403
-0.136576 -0.732263 -0.317248
-0.143041 -0.762441 -0.312345
-0.179720 -0.935357 -0.367093
-0.197503 -1.018127 -0.376464
-1.136583 -5.463103 -2.005513
-1.232501 -5.907112 -2.015701
-1.347674 -6.440448 -2.032106
-1.480263 -7.060015 -2.049508
-1.647023 -7.832691 -2.078537
-1.847481 -8.768566 -2.108648
-2.099890 -9.938389 -2.146666
-2.426149 -11.450207 -2.194993
-2.786122 -13.410092 -2.242278
-3.398199 -16.323935 -2.337810
-4.367692 -20.921230 -2.492685
-5.370138 -25.659534 -2.445614
-5.174736 -24.707514 -1.766765
-0.000160 -0.083064 -0.003111
-0.000160 -0.083064 -0.003111
-11.251699 -53.394684 -0.012026
-11.264426 -53.362888 1.252317
-0.000160 -0.083064 -0.003111
-11.316785 -53.472248 3.804196
-11.342970 -53.503811 5.082890
-11.398680 -53.673977 6.395028
-0.000160 -0.083064 -0.003111
-5.336560 -25.108072 4.196487
-0.000160 -0.083064 -0.003111
-0.000163 -0.082709 -0.003098
-0.000163 -0.082709 -0.003098
-0.114039 -0.610886 -0.290503
-0.133337 -0.699372 -0.319979
-0.138787 -0.724043 -0.313810
-0.148230 -0.766581 -0.314772
-0.183219 -0.926715 -0.363995
-0.202091 -1.012972 -0.374994
-1.167684 -5.452230 -2.004127
-1.266415 -5.901402 -2.016324
-1.383458 -6.428498 -2.030896
-1.522061 -7.052644 -2.050041
-1.690376 -7.817039 -2.076998
-1.898573 -8.755196 -2.108168
-2.155368 -9.920053 -2.145398
-2.490319 -11.429939 -2.193860
-2.865139 -13.392958 -2.242255
-3.494090 -16.301191 -2.337508
-4.495450 -20.914009 -2.494981
-5.348875 -24.826897 -2.369093
-5.333421 -24.734524 -1.770931
-5.383560 -24.924276 -1.192602
-0.000163 -0.082709 -0.003098
-11.555503 -53.269939 -0.011968
-11.573122 -53.261536 1.251583
-0.000163 -0.082709 -0.003098
-11.621459 -53.349220 3.800348
-11.638108 -53.380821 5.077560
-11.691816 -53.537201 6.386727
-0.000163 -0.082709 -0.003098
-5.472129 -25.038010 4.190039
-0.000163 -0.082709 -0.003098
-0.000163 -0.082358 -0.003085
-0.000163 -0.082358 -0.003085
-0.124242 -0.642648 -0.308334
-0.137559 -0.701762 -0.321761
-0.142880 -0.724658 -0.314653
-0.150182 -0.756449 -0.310690
-0.189935 -0.934334 -0.367837
-0.208672 -1.016907 -0.377164
-1.199426 -5.448751 -2.005480
-1.300327 -5.895518 -2.016948
-1.421229 -6.425662 -2.032667
-1.562183 -7.043419 -2.050024
-1.735330 -7.808728 -2.077487
-1.947641 -8.739979 -2.107226
-2.212414 -9.901018 -2.144130
-2.557161 -11.412685 -2.193469
-2.937738 -13.368708 -2.240936
-3.587018 -16.278530 -2.337205
-4.616447 -20.909569 -2.497509
-5.531861 -24.998468 -2.388419
-5.406003 -24.391439 -1.748528
-5.489219 -24.745270 -1.185468
-9.796793 -44.027313 -1.055715
-11.844178 -53.124081 -0.011907
-11.858161 -53.143055 1.250385
-0.000163 -0.082358 -0.003085
-11.922775 -53.257687 3.798725
-11.942792 -53.259956 5.072786
-11.990745 -53.429867 6.382135
-0.000163 -0.082358 -0.003085
-5.628797 -25.043264 4.196546
-0.000163 -0.082358 -0.003085
-0.000162 -0.082008 -0.003072
-0.000162 -0.082008 -0.003072
-0.134620 -0.672540 -0.325227
-0.141236 -0.700589 -0.321748
-0.148684 -0.732243 -0.318919
-0.157724 -0.771250 -0.318000
-0.192914 -0.923835 -0.363967
-0.214211 -1.015300 -0.377150
-1.230313 -5.441405 -2.005463
-1.334802 -5.887354 -2.016931
-1.457558 -6.411185 -2.030862
-1.600934 -7.028320 -2.048351
-1.782001 -7.801701 -2.078482
-1.997907 -8.730165 -2.107669
-2.268469 -9.885844 -2.143694
-2.621933 -11.395511 -2.193078
-3.016081 -13.348765 -2.240589
-3.682436 -16.266912 -2.338575
-4.736413 -20.865965 -2.495624
-5.680498 -24.968742 -2.388762
-5.568117 -24.456797 -1.755490
-5.581530 -24.476255 -1.174126
-10.069421 -44.020679 -1.056935
-12.129786 -52.968872 -0.011845
-12.169198 -53.055813 1.250064
-0.000162 -0.082008 -0.003072
-12.220302 -53.150845 3.796129
-12.239445 -53.149197 5.068940
-12.299033 -53.322601 6.378007
-0.000162 -0.082008 -0.003072
-5.779120 -25.038919 4.201434
-0.000162 -0.082008 -0.003072
-0.000162 -0.081656 -0.003059
-0.000162 -0.081656 -0.003059
-0.135999 -0.662798 -0.320517
-0.146422 -0.706373 -0.325325
-0.151196 -0.725753 -0.316337
-0.161699 -0.769988 -0.317987
-0.198620 -0.925969 -0.365496
-0.219577 -1.013696 -0.377136
-1.261585 -5.435706 -2.006130
-1.369088 -5.882913 -2.018195
-1.494415 -6.404186 -2.031440
-1.640474 -7.016768 -2.047782
-1.824659 -7.783442 -2.076437
-2.048572 -8.721947 -2.108573
-2.323097 -9.864666 -2.142010
-2.685683 -11.374139 -2.191945
-3.092438 -13.330828 -2.240567
-3.777385 -16.252800 -2.339666
-4.839279 -20.766417 -2.487003
-5.830997 -24.966290 -2.391711
-5.712509 -24.441467 -1.756720
-5.729245 -24.474485 -1.175593
-10.332830 -44.006374 -1.057968
-12.438277 -52.915306 -0.011800
-0.000162 -0.081656 -0.003059
-0.000162 -0.081656 -0.003059
-12.512878 -53.024883 3.792279
-12.540720 -53.060036 5.067318
-12.566471 -53.086224 6.358337
-0.000162 -0.081656 -0.003059
-0.000162 -0.081656 -0.003059
-5.267218 -22.211954 4.279179
-0.000162 -0.081306 -0.003045
-0.000162 -0.081306 -0.003045
-0.143477 -0.678841 -0.329896
-0.151685 -0.712119 -0.328902
-0.154895 -0.724514 -0.316323
-0.167801 -0.777579 -0.322042
-0.203030 -0.922651 -0.364711
-0.226686 -1.019306 -0.380034
-1.292829 -5.429817 -2.006798
-1.400684 -5.867208 -2.015615
-1.529004 -6.387704 -2.029039
-1.680842 -7.008725 -2.048316
-1.869444 -7.774339 -2.076925
-2.097371 -8.705866 -2.107631
-2.379869 -9.852682 -2.142407
-2.750199 -11.356217 -2.191553
-3.167769 -13.308608 -2.239896
-3.873216 -16.241978 -2.341314
-4.975473 -20.809319 -2.495570
-5.921142 -24.711212 -2.370465
-0.000162 -0.081306 -0.003045
-5.684767 -23.673548 -1.138635
-10.593609 -43.978848 -1.058720
-12.757824 -52.906593 -0.011762
-12.755961 -52.818146 1.247948
-0.000162 -0.081306 -0.003045
-0.000162 -0.081306 -0.003045
-12.857368 -53.034981 5.072004
-12.866357 -52.991402 6.355833
-0.000162 -0.081306 -0.003045
-0.000162 -0.081306 -0.003045
-0.000162 -0.081306 -0.003045
-0.000161 -0.080955 -0.003032
-0.000161 -0.080955 -0.003032
-0.149852 -0.689642 -0.336457
-0.155327 -0.710895 -0.328889
-0.159483 -0.726791 -0.318022
-0.171802 -0.776246 -0.322028
-0.209217 -0.926507 -0.367011
-0.231190 -1.014019 -0.378564
-1.320902 -5.410992 -2.002675
-1.430800 -5.845835 -2.011115
-1.565774 -6.380311 -2.029618
-1.721649 -7.002322 -2.049401
-1.912786 -7.759344 -2.075894
-2.146540 -8.691411 -2.107150
-2.435156 -9.834667 -2.141555
-2.816524 -11.345570 -2.192644
-3.244826 -13.293621 -2.240523
-3.964337 -16.211365 -2.340175
-5.081483 -20.725971 -2.489040
-5.887975 -23.966776 -2.302136
-5.835495 -23.736071 -1.710656
-5.735741 -23.296787 -1.122060
-13.053874 -52.839195 -1.273546
-13.077696 -52.895962 -0.011724
-0.000161 -0.080955 -0.003032
-0.000161 -0.080955 -0.003032
-0.000161 -0.080955 -0.003032
-0.000161 -0.080955 -0.003032
-0.000161 -0.080955 -0.003032
-0.000161 -0.080955 -0.003032
-0.000161 -0.080955 -0.003032
-0.000161 -0.080955 -0.003032
-0.000161 -0.080604 -0.003019
-0.000161 -0.080604 -0.003019
-0.153798 -0.690143 -0.337383
-0.156323 -0.699239 -0.323489
-0.164081 -0.729013 -0.319721
-0.176253 -0.776667 -0.322828
-0.215430 -0.930293 -0.369310
-0.236560 -1.012323 -0.378551
-1.353891 -5.412055 -2.006080
-1.464914 -5.840824 -2.012379
-1.603422 -6.376371 -2.031388
-1.761484 -6.991944 -2.049383
-1.957443 -7.749714 -2.076382
-2.195137 -8.674791 -2.106208
-2.491275 -9.820119 -2.141535
-2.879890 -11.323102 -2.191512
-3.321835 -13.278199 -2.241150
-4.055712 -16.182152 -2.339315
-5.206116 -20.719120 -2.491799
-5.958148 -23.665703 -2.276425
-5.868446 -23.293587 -1.681122
-5.700669 -22.596786 -1.089872
-0.000161 -0.080604 -0.003019
-0.000161 -0.080604 -0.003019
-0.000161 -0.080604 -0.003019
-0.000161 -0.080604 -0.003019
-0.000161 -0.080604 -0.003019
-0.000161 -0.080604 -0.003019
-0.000161 -0.080604 -0.003019
-0.000161 -0.080604 -0.003019
-0.000161 -0.080604 -0.003019
-0.000161 -0.080604 -0.003019
-0.000161 -0.080253 -0.003006
-0.000161 -0.080253 -0.003006
-0.155988 -0.683774 -0.334552
-0.161211 -0.703156 -0.326168
-0.167354 -0.725953 -0.318851
-0.178097 -0.766426 -0.318746
-0.222176 -0.935836 -0.372381
-0.242400 -1.012406 -0.379265
-1.384094 -5.398133 -2.004010
-1.500916 -5.842931 -2.016205
-1.640148 -6.368541 -2.031967
-1.802934 -6.982867 -2.049917
-2.001095 -7.736099 -2.075857
-2.245106 -8.657498 -2.105267
-2.550031 -9.808618 -2.142347
-2.947038 -11.307357 -2.191861
-3.401227 -13.271869 -2.243400
-4.148719 -16.147879 -2.337898
-5.316951 -20.657688 -2.488056
-6.033505 -23.397367 -2.253877
-5.905490 -22.869814 -1.652988
-5.790121 -22.408518 -1.082364
-0.000161 -0.080253 -0.003006
-0.000161 -0.080253 -0.003006
-0.000161 -0.080253 -0.003006
-7.293237 -28.064297 1.341003
-0.000161 -0.080253 -0.003006
-7.206540 -27.652727 2.651232
-7.220316 -27.685734 3.329252
-7.260104 -27.798304 4.019290
-0.000161 -0.080253 -0.003006
-0.000161 -0.080253 -0.003006
-0.000161 -0.079902 -0.002993
-0.000161 -0.079902 -0.002993
-0.161816 -0.691015 -0.339234
-0.167652 -0.712206 -0.331541
-0.170255 -0.721103 -0.317125
-0.184840 -0.775616 -0.323615
-0.225835 -0.928810 -0.370054
-0.249843 -1.017802 -0.382162
-1.413733 -5.386094 -2.002625
-1.530697 -5.817105 -2.010423
-1.675948 -6.352810 -2.030161
-1.842175 -6.970176 -2.049347
-2.044984 -7.718132 -2.074318
-2.292461 -8.636565 -2.103402
-2.604485 -9.787741 -2.141079
-3.009104 -11.280366 -2.189987
-3.476427 -13.239666 -2.241430
-4.241671 -16.125265 -2.338152
-5.424200 -20.569723 -2.481292
-5.982963 -22.648623 -2.184992
-5.926148 -22.418550 -1.622756
-5.927119 -22.390795 -1.083177
-7.296306 -27.506237 -0.666377
-7.311837 -27.545311 -0.007476
-7.323601 -27.550915 0.652591
-7.340112 -27.574287 1.319587
-7.349949 -27.591843 1.983784
-7.365208 -27.610418 2.651265
-7.386056 -27.649748 3.330211
-7.418589 -27.751862 4.018766
-6.688713 -24.994549 4.231093
-0.000161 -0.079902 -0.002993
-0.000160 -0.079551 -0.002980
-0.000160 -0.079551 -0.002980
-0.166257 -0.693133 -0.341099
-0.174108 -0.721240 -0.336913
-0.179048 -0.738992 -0.326527
-0.201312 -0.820046 -0.344759
-0.228768 -0.920008 -0.366955
-0.254085 -1.012435 -0.380692
-1.444763 -5.379327 -2.003292
-1.567203 -5.824572 -2.016171
-1.712474 -6.348539 -2.031932
-1.880296 -6.953531 -2.047674
-2.087601 -7.706235 -2.074299
-2.343231 -8.628489 -2.104767
-2.659703 -9.776478 -2.141891
-3.069001 -11.253557 -2.188113
-3.552160 -13.219079 -2.241408
-4.331947 -16.092583 -2.337013
-5.500565 -20.384413 -2.462684
-5.959050 -22.046499 -2.130064
-5.973171 -22.083342 -1.600915
-6.088009 -22.475475 -1.088944
-0.000160 -0.079551 -0.002980
-7.476213 -27.525570 -0.007448
-7.489580 -27.536871 0.653315
-7.503025 -27.567228 1.321291
-7.518263 -27.585279 1.986461
-7.528823 -27.605009 2.654821
-7.548810 -27.640276 3.334188
-7.585681 -27.736979 4.022969
-6.824598 -24.945028 4.229180
-0.000160 -0.079551 -0.002980
-0.000160 -0.079200 -0.002966
-0.125149 -0.531225 -0.266573
-0.169209 -0.690143 -0.340146
-0.176731 -0.716461 -0.335104
-0.189108 -0.760225 -0.337641
-0.215347 -0.853724 -0.361020
-0.234460 -0.921936 -0.368484
-0.257461 -1.003433 -0.377768
-1.473742 -5.365134 -2.001222
-1.597710 -5.805968 -2.012950
-1.748026 -6.336374 -2.031318
-1.918308 -6.936692 -2.046002
-2.130461 -7.690025 -2.073267
-2.390339 -8.607020 -2.102902
-2.712967 -9.745110 -2.138542
-3.134712 -11.232903 -2.187721
-3.625998 -13.200579 -2.241710
-4.421464 -16.057484 -2.335595
-5.525875 -20.035229 -2.424100
-6.056093 -21.920422 -2.121103
-6.069891 -21.940559 -1.593056
-6.129019 -22.138569 -1.074239
-7.625717 -27.488447 -0.667949
-7.643260 -27.514446 -0.007420
-7.612736 -27.386417 0.650765
-7.668700 -27.550131 1.322624
-7.686204 -27.575756 1.988999
-7.699522 -27.586346 2.657450
-7.716522 -27.628525 3.338164
-7.758197 -27.740152 4.029953
-6.981098 -24.936058 4.234717
-0.000160 -0.079200 -0.002966
-0.000160 -0.078849 -0.002953
-0.135891 -0.558637 -0.283218
-0.171865 -0.685376 -0.338254
-0.184403 -0.728801 -0.342272
-0.200067 -0.783097 -0.349611
-0.218438 -0.846807 -0.358565
-0.238950 -0.918404 -0.367699
-0.264476 -1.006919 -0.379937
-1.505087 -5.355950 -2.001205
-1.632192 -5.797868 -2.013574
-1.784607 -6.323714 -2.030704
-1.960011 -6.928525 -2.047086
-2.173444 -7.669451 -2.071221
-2.440354 -8.590459 -2.102421
-2.772957 -9.737879 -2.140603
-3.200311 -11.211883 -2.187330
-3.703807 -13.178498 -2.241688
-4.521046 -16.047764 -2.338078
-0.000160 -0.078849 -0.002953
-6.371427 -22.538921 -2.184718
-0.000160 -0.078849 -0.002953
-0.000160 -0.078849 -0.002953
-7.793128 -27.459661 -0.668336
-7.815245 -27.500975 -0.007393
-7.821243 -27.503859 0.654717
-7.840351 -27.534540 1.324142
-7.856914 -27.556187 1.990980
-7.872473 -27.574293 2.660822
-7.887496 -27.608627 3.341445
-7.929288 -27.718035 4.033600
-7.142086 -24.941275 4.242846
-0.000160 -0.078849 -0.002953
-0.000163 -0.078494 -0.002940
-0.143995 -0.575928 -0.293985
-0.175843 -0.685712 -0.339179
-0.189132 -0.730799 -0.344053
-0.204627 -0.783316 -0.350453
-0.224770 -0.852246 -0.361807
-0.246856 -0.927274 -0.372312
-0.271378 -1.010389 -0.382106
-1.534534 -5.347106 -2.001188
-1.660848 -5.773455 -2.008432
-1.820004 -6.311140 -2.030090
-1.997167 -6.913436 -2.045965
-2.216589 -7.654602 -2.070696
-2.487861 -8.576351 -2.102402
-2.824653 -9.714375 -2.138917
-3.259668 -11.184052 -2.185455
-3.777545 -13.150907 -2.240691
-4.610706 -16.023815 -2.338332
-5.579858 -19.350338 -2.348792
-6.612687 -22.887854 -2.222279
-6.447474 -22.303459 -1.624737
-6.551477 -22.632566 -1.101849
-7.963531 -27.458128 -0.669377
-7.978880 -27.493032 -0.007365
-7.994144 -27.509821 0.655996
-8.007854 -27.521183 1.325754
-8.023080 -27.555553 1.994216
-8.035394 -27.562035 2.664008
-8.056511 -27.598614 3.345887
-8.094638 -27.710970 4.039195
-7.292464 -24.940395 4.249681
-0.000163 -0.078494 -0.002940
-0.000163 -0.078143 -0.002927
-0.150305 -0.586437 -0.300830
-0.180340 -0.687728 -0.341044
-0.192897 -0.729359 -0.344040
-0.207134 -0.776568 -0.347871
-0.229346 -0.850538 -0.361793
-0.251751 -0.925499 -0.372298
-0.276729 -1.008449 -0.382092
-1.564696 -5.333954 -1.999803
-1.697405 -5.776156 -2.012898
-1.854777 -6.296545 -2.028880
-2.036031 -6.895583 -2.044292
-2.260174 -7.641351 -2.070677
-2.537108 -8.557344 -2.101459
-2.880112 -9.691490 -2.137649
-3.324935 -11.162275 -2.185063
-3.853327 -13.130479 -2.240993
-4.711403 -16.016705 -2.341372
-5.601170 -19.014660 -2.311836
-6.613310 -22.407978 -2.179262
-6.618368 -22.396439 -1.634356
-6.594298 -22.301071 -1.087518
-8.126204 -27.428713 -0.669765
-0.000163 -0.078143 -0.002927
-8.157132 -27.480234 0.656444
-8.176600 -27.510632 1.327551
-8.192831 -27.530067 1.995919
-8.207996 -27.545940 2.667195
-8.225096 -27.585657 3.350096
-8.268114 -27.694366 4.043955
-7.441555 -24.902016 4.250684
-0.000163 -0.078143 -0.002927
-0.000162 -0.077792 -0.002914
-0.157346 -0.598535 -0.308656
-0.183453 -0.684615 -0.340092
-0.196763 -0.727859 -0.344026
-0.213241 -0.781928 -0.351281
-0.233781 -0.848844 -0.361779
-0.254101 -0.914816 -0.368429
-0.282090 -1.006498 -0.382079
-1.594397 -5.322712 -1.999101
-1.730205 -5.765948 -2.012881
-1.889443 -6.281754 -2.027670
-2.076949 -6.888918 -2.045929
-2.303123 -7.626002 -2.070151
-2.585907 -8.542250 -2.101440
-2.932595 -9.671150 -2.136796
-3.386205 -11.141300 -2.184671
-3.932980 -13.114587 -2.242268
-4.806557 -16.000343 -2.343019
-5.627797 -18.697412 -2.277202
-6.767609 -22.440424 -2.186304
-6.588943 -21.836325 -1.596156
-6.736484 -22.295620 -1.089171
-8.410121 -27.798216 -0.679919
-8.319793 -27.466049 -0.007310
-8.330623 -27.467337 0.657354
-8.347830 -27.506702 1.329721
-8.363003 -27.522158 1.998876
-8.372295 -27.535517 2.670753
-8.394985 -27.575491 3.354769
-8.435680 -27.674332 4.048159
-7.588717 -24.888023 4.255575
-6.733343 -22.063990 4.325744
-0.000162 -0.077441 -0.002901
-0.161288 -0.600640 -0.310603
-0.187862 -0.686590 -0.341956
-0.199852 -0.724682 -0.343115
-0.217307 -0.780352 -0.351268
-0.238094 -0.847187 -0.361765
-0.258759 -0.913022 -0.368415
-0.289078 -1.009836 -0.384248
-1.623103 -5.311578 -1.998400
-1.762374 -5.753730 -2.012223
-1.925148 -6.270426 -2.027653
-2.112102 -6.867686 -2.043153
-2.345993 -7.610427 -2.069625
-2.633139 -8.527328 -2.101421
-2.987806 -9.653763 -2.136776
-3.451641 -11.126913 -2.185762
-4.010952 -13.109050 -2.245167
-4.897732 -15.980471 -2.344109
-5.665543 -18.450834 -2.250930
-6.873011 -22.339149 -2.180134
-6.786905 -22.046648 -1.614303
-6.883471 -22.331734 -1.092787
-8.628181 -27.938057 -0.684511
-0.000162 -0.077441 -0.002901
-8.494703 -27.456320 0.658264
-8.514534 -27.486433 1.331147
-8.529147 -27.516579 2.001972
-8.541526 -27.522619 2.674310
-8.565606 -27.566156 3.359675
-8.593792 -27.639685 4.050139
-7.740299 -24.871824 4.260465
-0.000162 -0.077441 -0.002901
-0.000140 -0.077069 -0.002887
-0.172644 -0.625947 -0.326268
-0.190306 -0.681778 -0.340064
-0.205179 -0.728277 -0.345794
-0.221891 -0.780459 -0.352110
-0.243750 -0.848889 -0.363379
-0.266906 -0.921731 -0.373028
-0.294459 -1.007821 -0.384234
-1.654702 -5.303299 -1.999067
-1.794463 -5.741330 -2.011565
-1.960201 -6.257063 -2.027039
-2.152940 -6.856519 -2.043686
-2.392267 -7.605661 -2.072141
-2.682044 -8.507489 -2.100478
-3.043391 -9.631790 -2.135924
-3.518923 -11.111493 -2.186852
-4.090074 -13.098560 -2.247415
-5.002705 -15.984789 -2.349100
-5.764099 -18.394804 -2.248115
-6.113112 -19.480286 -1.903951
-7.017360 -22.323380 -1.637622
-7.019337 -22.316141 -1.093972
-0.000140 -0.077069 -0.002887
-0.000140 -0.077069 -0.002887
-8.665514 -27.448530 0.659312
-8.683721 -27.472786 1.332945
-8.702061 -27.497461 2.004373
-8.713272 -27.499578 2.677126
-8.734598 -27.550097 3.363885
-8.774005 -27.640707 4.057958
-0.000140 -0.077069 -0.002887
-0.000140 -0.077069 -0.002887
-0.000140 -0.076718 -0.002874
-0.174846 -0.621256 -0.324295
-0.194449 -0.681987 -0.340990
-0.208495 -0.724998 -0.344883
-0.227033 -0.782250 -0.353808
-0.247071 -0.843644 -0.361737
-0.270207 -0.914505 -0.370701
-0.303247 -1.016400 -0.388587
-1.682456 -5.286173 -1.996312
-1.824133 -5.721529 -2.008345
-1.994583 -6.241687 -2.025829
-2.192542 -6.845489 -2.044220
-2.439154 -7.602443 -2.075162
-2.731162 -8.493415 -2.100920
-3.098510 -9.619871 -2.137151
-3.581108 -11.093199 -2.187201
-4.168476 -13.077476 -2.248042
-0.000140 -0.076718 -0.002874
-5.890928 -18.416685 -2.255056
-0.000140 -0.076718 -0.002874
-0.000140 -0.076718 -0.002874
-7.179361 -22.361233 -1.098242
-0.000140 -0.076718 -0.002874
-0.000140 -0.076718 -0.002874
-8.842536 -27.441957 0.660452
-8.854848 -27.463774 1.335022
-8.870901 -27.480721 2.006912
-8.883457 -27.503187 2.682353
-8.903697 -27.533001 3.368094
-8.950336 -27.644003 4.066055
-0.000140 -0.076718 -0.002874
-0.000140 -0.076718 -0.002874
-0.000139 -0.076367 -0.002860
-0.178959 -0.623227 -0.326241
-0.196721 -0.677179 -0.339098
-0.214891 -0.731963 -0.349357
-0.231098 -0.780587 -0.353794
-0.253201 -0.847073 -0.364165
-0.273735 -0.909132 -0.369145
-0.308050 -1.012497 -0.387845
-1.716536 -5.288533 -2.001085
-1.860768 -5.723182 -2.012811
-2.031251 -6.233374 -2.027003
-2.235689 -6.845158 -2.048062
-2.480653 -7.582428 -2.073623
-2.778362 -8.473496 -2.099977
-3.155090 -9.600977 -2.137131
-3.643922 -11.063929 -2.185697
-4.238549 -13.046129 -2.246720
-5.171432 -15.882120 -2.342641
-5.925259 -18.175472 -2.229481
-7.280766 -22.289827 -2.187301
-7.278095 -22.255539 -1.638681
-7.210208 -22.035719 -1.084192
-0.000139 -0.076367 -0.002860
-0.000139 -0.076367 -0.002860
-9.005223 -27.422184 0.661224
-9.023688 -27.446135 1.336727
-9.041064 -27.466705 2.009731
-9.056649 -27.481781 2.685541
-9.074763 -27.520523 3.373001
-9.125734 -27.642403 4.073597
-8.213380 -24.857428 4.282265
-0.000139 -0.076367 -0.002860
-0.000139 -0.076016 -0.002847
-0.181653 -0.620155 -0.325248
-0.201403 -0.679003 -0.340963
-0.216522 -0.723557 -0.345753
-0.233556 -0.773714 -0.351213
-0.257044 -0.843509 -0.363338
-0.280443 -0.912405 -0.371444
-0.313602 -1.010306 -0.387831
-1.745349 -5.274668 -1.999700
-1.893040 -5.708105 -2.011513
-2.066530 -6.217243 -2.025793
-2.268517 -6.813618 -2.042528
-2.518963 -7.548888 -2.068537
-2.820459 -8.438569 -2.095344
-3.208004 -9.576729 -2.135862
-3.707144 -11.042416 -2.185675
-4.314181 -13.016653 -2.246048
-5.293080 -15.943783 -2.356269
-6.030667 -18.133999 -2.228757
-7.395406 -22.194904 -2.182247
-7.458245 -22.369951 -1.650255
-7.464107 -22.361612 -1.102388
-7.899460 -23.634161 -0.583456
-0.000139 -0.076016 -0.002847
-9.180034 -27.405807 0.662181
-9.196110 -27.422050 1.338248
-9.212016 -27.453547 2.012688
-9.225132 -27.460901 2.688728
-9.249493 -27.501600 3.377443
-9.288141 -27.600307 4.075299
-8.357839 -24.814968 4.283270
-0.000139 -0.076016 -0.002847
-0.000139 -0.075665 -0.002834
-0.184787 -0.618754 -0.325234
-0.206005 -0.680822 -0.342827
-0.221390 -0.725323 -0.347535
-0.236395 -0.768577 -0.349487
-0.263243 -0.846866 -0.365765
-0.284043 -0.906914 -0.369888
-0.318384 -1.006381 -0.387090
-1.775249 -5.264169 -1.999683
-1.924206 -5.693163 -2.010214
-2.101248 -6.203086 -2.025179
-2.309145 -6.805540 -2.044164
-2.563209 -7.537560 -2.069531
-2.864142 -8.408951 -2.092094
-3.261391 -9.554046 -2.135009
-3.772173 -11.026121 -2.186766
-4.388012 -12.989387 -2.245700
-5.371634 -15.875193 -2.350671
-6.103206 -18.006479 -2.217350
-7.550268 -22.232632 -2.190218
-7.538876 -22.186548 -1.639879
-7.554899 -22.208252 -1.096937
-0.000139 -0.075665 -0.002834
-9.334133 -27.374016 -0.007141
-9.352185 -27.395664 0.663276
-9.369631 -27.415533 1.340604
-9.381824 -27.435545 2.015368
-9.400796 -27.459713 2.693956
-9.418917 -27.481356 3.381653
-9.456152 -27.574099 4.079505
-8.516229 -24.812723 4.291401
-0.000139 -0.075665 -0.002834
-0.000139 -0.075314 -0.002821
-0.193047 -0.632156 -0.334040
-0.206593 -0.670932 -0.338118
-0.223379 -0.718630 -0.344828
-0.240386 -0.766859 -0.349473
-0.266479 -0.841535 -0.364124
-0.288222 -0.903176 -0.369103
-0.328630 -1.018245 -0.392898
-1.803875 -5.249971 -1.998297
-1.957788 -5.685230 -2.011478
-2.135887 -6.188746 -2.024566
-2.352311 -6.804487 -2.048007
-2.602948 -7.513197 -2.066978
-2.914663 -8.399319 -2.093920
-3.313978 -9.529213 -2.133740
-3.831918 -10.994591 -2.184891
-4.464240 -12.969139 -2.246651
-5.475505 -15.881077 -2.356218
-6.139983 -17.779255 -2.193634
-7.689518 -22.222309 -2.193537
-7.733528 -22.336536 -1.654249
-7.846941 -22.637638 -1.120365
-9.496348 -27.349562 -0.677624
-9.507631 -27.366669 -0.007114
-9.523189 -27.380642 0.664279
-9.540098 -27.398497 1.342496
-9.554372 -27.424038 2.018604
-9.568851 -27.434832 2.696958
-9.593646 -27.475048 3.387720
-9.639230 -27.589853 4.090105
-8.667049 -24.787142 4.295644
-0.000139 -0.075314 -0.002821
-0.000138 -0.074963 -0.002808
-0.198576 -0.637267 -0.337946
-0.210030 -0.669392 -0.338104
-0.228280 -0.720361 -0.346610
-0.245569 -0.768520 -0.351171
-0.271502 -0.841364 -0.364924
-0.292980 -0.901147 -0.369089
-0.332823 -1.012488 -0.391429
-1.832378 -5.235593 -1.996911
-1.988787 -5.669934 -2.010179
-2.173608 -6.183177 -2.026932
-2.391026 -6.790478 -2.047988
-2.645740 -7.497734 -2.066959
-2.963221 -8.383891 -2.094362
-3.367072 -9.505954 -2.132888
-3.894081 -10.970142 -2.184499
-4.538421 -12.942863 -2.246627
-5.564466 -15.843332 -2.355357
-6.247135 -17.758234 -2.195464
-3.201755 -9.127670 -0.900077
-7.858257 -22.281857 -1.653519
-7.951404 -22.520168 -1.116783
-9.663276 -27.322325 -0.678290
-9.678684 -27.350689 -0.007085
-9.650824 -27.242090 0.662284
-9.713366 -27.387932 1.344759
-9.727086 -27.411434 2.021841
-9.743628 -27.427694 2.701816
-9.764624 -27.456413 3.392395
-9.803512 -27.550322 4.092643
-8.828468 -24.790365 4.305071
-0.000138 -0.074963 -0.002808
-0.000138 -0.074612 -0.002795
-0.198864 -0.627561 -0.333033
-0.216433 -0.676126 -0.342787
-0.232587 -0.720357 -0.347494
-0.250785 -0.770145 -0.352870
-0.275908 -0.839435 -0.364910
-0.302763 -0.912998 -0.375245
-0.341375 -1.018959 -0.395053
-1.861423 -5.222832 -1.996209
-2.017098 -5.647338 -2.006318
-2.210701 -6.175593 -2.028702
-2.430318 -6.778056 -2.048522
-2.690424 -7.487478 -2.068460
-3.009684 -8.362669 -2.093419
-3.420649 -9.484205 -2.132451
-3.954742 -10.941642 -2.183365
-4.613120 -12.918020 -2.246929
-5.642442 -15.775247 -2.350037
-6.312554 -17.620676 -2.182896
-3.206607 -8.977590 -0.887032
-0.000138 -0.074612 -0.002795
-0.000138 -0.074612 -0.002795
-3.287925 -9.178485 -0.228945
-3.293139 -9.187930 -0.004220
-3.302245 -9.203161 0.221154
-3.309529 -9.213359 0.449033
-9.897945 -27.392126 2.024661
-3.312435 -9.206425 0.902030
-9.939099 -27.446054 3.398230
-3.283654 -9.112338 1.347162
-8.971988 -24.742453 4.305752
-0.000138 -0.074612 -0.002795
-0.000141 -0.074257 -0.002781
-0.203940 -0.630926 -0.335959
-0.218778 -0.671153 -0.340894
-0.236405 -0.718599 -0.347480
-0.255412 -0.770032 -0.353712
-0.281703 -0.840860 -0.366524
-0.305818 -0.905631 -0.372917
-0.347445 -1.018363 -0.395767
-1.893246 -5.214875 -1.997561
-2.053760 -5.647733 -2.010784
-2.247795 -6.167788 -2.030472
-2.466711 -6.754133 -2.045744
-2.731726 -7.467871 -2.067427
-3.060164 -8.347962 -2.094322
-3.474119 -9.462172 -2.132014
-4.016573 -10.916482 -2.182972
-4.686550 -12.882668 -2.245607
-5.730759 -15.728133 -2.348061
-3.282510 -9.030774 -1.118023
-0.000141 -0.074257 -0.002781
-3.221734 -8.850732 -0.657907
-3.234011 -8.874659 -0.441385
-3.251300 -8.916962 -0.222898
-0.000141 -0.074257 -0.002781
-0.000141 -0.074257 -0.002781
-0.000141 -0.074257 -0.002781
-0.000141 -0.074257 -0.002781
-0.000141 -0.074257 -0.002781
-3.329571 -9.081327 1.118759
-3.276033 -8.927010 1.322436
-0.000141 -0.074257 -0.002781
-8.076076 -21.863575 4.371927
-0.000141 -0.073906 -0.002768
-0.206437 -0.627795 -0.334965
-0.222096 -0.669561 -0.340880
-0.238139 -0.711908 -0.344773
-0.258767 -0.766491 -0.352842
-0.287241 -0.842330 -0.368137
-0.311743 -0.907011 -0.374446
-0.348958 -1.005529 -0.391386
-1.920612 -5.200357 -1.996175
-2.085153 -5.633682 -2.010126
-2.282837 -6.154378 -2.030453
-2.508724 -6.752516 -2.049587
-2.773592 -7.449865 -2.066902
-3.107687 -8.334033 -2.095225
-3.526743 -9.437993 -2.131161
-4.076186 -10.885474 -2.181468
-4.751809 -12.839298 -2.242663
-5.805631 -15.662113 -2.343019
-3.324834 -8.991470 -1.115448
-3.197531 -8.640860 -0.857219
-0.000141 -0.073906 -0.002768
-0.000141 -0.073906 -0.002768
-0.000141 -0.073906 -0.002768
-3.414017 -9.191770 -0.004185
-3.412776 -9.178788 0.221565
-3.413864 -9.172054 0.448981
-3.373678 -9.060195 0.667032
-3.375343 -9.055098 0.890943
-3.384195 -9.069101 1.119707
-3.275195 -8.774776 1.302436
-0.000141 -0.073906 -0.002768
-0.000141 -0.073906 -0.002768
-0.000141 -0.073555 -0.002755
-0.210238 -0.627874 -0.335932
-0.225535 -0.667933 -0.340867
-0.241162 -0.708492 -0.343862
-0.263395 -0.766331 -0.353684
-0.289861 -0.835154 -0.365682
-0.318496 -0.910017 -0.376745
-0.358958 -1.015337 -0.396466
-1.950996 -5.188520 -1.996157
-2.115111 -5.615921 -2.008187
-2.318515 -6.142579 -2.031031
-2.546232 -6.731759 -2.047914
-2.812577 -7.424393 -2.064349
-3.157355 -8.316927 -2.095667
-3.581537 -9.414719 -2.130724
-4.139549 -10.858902 -2.181075
-4.826640 -12.815058 -2.243288
-5.846060 -15.490006 -2.322375
-3.381078 -8.984836 -1.117054
-3.214984 -8.538167 -0.848825
-3.224778 -8.555005 -0.638574
-3.236315 -8.580889 -0.428541
-3.254732 -8.620358 -0.216411
-3.473757 -9.185952 -0.004167
-3.477976 -9.192258 0.222416
-3.484740 -9.200430 0.451417
-0.000141 -0.073555 -0.002755
-0.000141 -0.073555 -0.002755
-0.000141 -0.073555 -0.002755
-3.272892 -8.614273 1.281324
-0.000141 -0.073555 -0.002755
-0.000141 -0.073555 -0.002755
-0.000140 -0.073204 -0.002742
-0.215404 -0.631145 -0.338858
-0.229684 -0.667872 -0.341792
-0.250726 -0.721707 -0.351927
-0.268045 -0.766150 -0.354526
-0.293578 -0.831413 -0.364855
-0.324123 -0.909485 -0.377502
-0.363036 -1.009437 -0.394997
-1.978377 -5.171587 -1.994087
-2.149059 -5.608603 -2.010091
-2.352029 -6.125201 -2.029821
-2.585245 -6.718439 -2.048447
-2.853441 -7.404098 -2.063315
-3.199110 -8.283736 -2.091955
-3.632944 -9.392406 -2.130287
-4.197584 -10.829783 -2.179942
-4.907832 -12.800569 -2.245861
-0.000140 -0.073204 -0.002742
-3.351585 -8.751155 -1.090325
-3.217767 -8.396012 -0.836525
-3.228221 -8.418712 -0.629746
-3.240553 -8.441937 -0.422540
-3.257669 -8.481795 -0.213402
-3.535570 -9.189679 -0.004150
-3.542863 -9.199059 0.223129
-3.548089 -9.207790 0.452830
-16.480345 -42.459503 3.170768
-19.626713 -50.525803 5.039998
-3.517118 -9.104712 1.129261
-3.270962 -8.463926 1.261602
-0.000140 -0.073204 -0.002742
-0.000140 -0.073204 -0.002742
-0.000140 -0.072853 -0.002729
-0.217226 -0.626321 -0.336884
-0.233005 -0.666234 -0.341779
-0.249777 -0.708310 -0.345630
-0.270711 -0.760884 -0.352801
-0.299948 -0.834460 -0.367282
-0.326091 -0.900452 -0.374404
-0.373206 -1.019113 -0.400078
-2.008400 -5.161512 -1.994754
-2.179504 -5.592254 -2.008792
-2.386163 -6.109450 -2.029207
-2.616395 -6.685210 -2.042912
-2.895622 -7.387202 -2.063296
-3.242767 -8.255790 -2.089629
-3.685281 -9.363052 -2.128602
-4.260608 -10.802508 -2.179549
-4.980278 -12.776293 -2.246486
-5.869861 -15.030106 -2.263253
-3.209054 -8.245649 -1.029226
-3.217577 -8.258950 -0.824596
-3.228002 -8.277081 -0.620499
-3.238217 -8.298817 -0.416259
-3.256926 -8.337907 -0.210252
-3.596814 -9.191137 -0.004133
-3.602582 -9.201102 0.223703
-3.607238 -9.203574 0.453687
-16.650061 -42.176147 3.156754
-19.922808 -50.400719 5.039310
-3.567601 -9.080256 1.128818
-3.274689 -8.332275 1.244660
-0.000140 -0.072853 -0.002729
-0.000140 -0.072853 -0.002729
-0.000140 -0.072502 -0.002716
-0.220511 -0.624676 -0.336870
-0.238481 -0.669406 -0.344582
-0.255540 -0.711452 -0.348309
-0.278146 -0.767307 -0.357067
-0.305689 -0.835765 -0.368896
-0.333746 -0.905009 -0.377475
-0.380897 -1.021722 -0.402247
-2.036963 -5.147758 -1.994052
-2.212926 -5.580637 -2.009414
-2.421920 -6.094815 -2.029189
-2.661615 -6.687522 -2.048409
-2.941865 -7.376723 -2.065304
-3.289106 -8.234818 -2.089147
-3.740921 -9.346769 -2.129829
-4.321599 -10.775625 -2.179157
-5.052643 -12.738835 -2.245164
-5.886165 -14.820960 -2.236758
-3.208136 -8.102538 -1.013647
-3.209903 -8.098848 -0.810435
-3.234454 -8.156144 -0.612791
-3.242397 -8.167828 -0.410631
-3.257560 -8.197469 -0.207197
-3.536099 -8.887780 -0.004069
-3.661152 -9.190351 0.224000
-3.672541 -9.209479 0.455101
-20.123592 -50.114773 3.761194
-0.000140 -0.072502 -0.002716
-3.632867 -9.088063 1.132551
-3.277026 -8.200877 1.227718
-0.000140 -0.072502 -0.002716
-0.000140 -0.072502 -0.002716
-0.000140 -0.072151 -0.002702
-0.221074 -0.616594 -0.332937
-0.237280 -0.656234 -0.337995
-0.255168 -0.699675 -0.342910
-0.279295 -0.758692 -0.353629
-0.308686 -0.830242 -0.367254
-0.337134 -0.899297 -0.375919
-0.391812 -1.033025 -0.408055
-2.066170 -5.135602 -1.994035
-2.243647 -5.567837 -2.009397
-2.456242 -6.082619 -2.029767
-2.690929 -6.650378 -2.041772
-2.987003 -7.370571 -2.068326
-3.336806 -8.217201 -2.089589
-3.788957 -9.316345 -2.127728
-4.376071 -10.738237 -2.176540
-5.132190 -12.725645 -2.248061
-5.892807 -14.593769 -2.207477
-3.216198 -7.989714 -1.001783
-0.000140 -0.072151 -0.002702
-3.232088 -8.016911 -0.603684
-3.240734 -8.030243 -0.404630
-3.259124 -8.071399 -0.204468
-3.486356 -8.620612 -0.004011
-3.727212 -9.202094 0.224851
-3.731800 -9.208803 0.456144
-20.474110 -50.150978 3.772805
-20.489376 -50.163403 5.038679
-3.690681 -9.085667 1.134891
-3.277225 -8.067908 1.210498
-0.000140 -0.072151 -0.002702
-0.000140 -0.072151 -0.002702
-0.000139 -0.071800 -0.002689
-0.225435 -0.618220 -0.334884
-0.245355 -0.665933 -0.344556
-0.262080 -0.706151 -0.347384
-0.283238 -0.756716 -0.353615
-0.315850 -0.834863 -0.370496
-0.344001 -0.902098 -0.378218
-0.401616 -1.040727 -0.412407
-2.094573 -5.121530 -1.993333
-2.276941 -5.555825 -2.010019
-2.487482 -6.057025 -2.026172
-2.728769 -6.634421 -2.041754
-3.029511 -7.350580 -2.067800
-3.381329 -8.187920 -2.087261
-3.846102 -9.294481 -2.128123
-4.440050 -10.713557 -2.176889
-3.390602 -8.299062 -1.465946
-5.915167 -14.410945 -2.184883
-3.215638 -7.862930 -0.988061
-3.218622 -7.862448 -0.790300
-3.231266 -7.885336 -0.595137
-3.242199 -7.904039 -0.399191
-3.262303 -7.948706 -0.201833
-3.484208 -8.476252 -0.003971
-3.783548 -9.189349 0.225103
-3.795910 -9.210137 0.457372
-20.749931 -50.002419 3.770633
-20.793880 -50.058990 5.040589
-3.749452 -9.076105 1.136536
-3.280412 -7.941936 1.194390
-0.000139 -0.071800 -0.002689
-0.000139 -0.071800 -0.002689
-0.178975 -0.498198 -0.277171
-0.230113 -0.619694 -0.336830
-0.246125 -0.657588 -0.340785
-0.264568 -0.700896 -0.345575
-0.289398 -0.759672 -0.356169
-0.318963 -0.829264 -0.368855
-0.347508 -0.896308 -0.376662
-0.414584 -1.055138 -0.419670
-2.125235 -5.110398 -1.994000
-2.309228 -5.544021 -2.010642
-2.521154 -6.040479 -2.025558
-2.766920 -6.616001 -2.041183
-3.066103 -7.320187 -2.064233
-3.427264 -8.166178 -2.086780
-3.896790 -9.270716 -2.127686
-4.496649 -10.676594 -2.174643
-3.337017 -8.030330 -1.421792
-3.338754 -8.030583 -1.216919
-3.217027 -7.732901 -0.974107
-3.224479 -7.743157 -0.780233
-3.236585 -7.768203 -0.587708
-3.243670 -7.777522 -0.393751
-3.263960 -7.821967 -0.199104
-3.492850 -8.357410 -0.003936
-3.849250 -9.194032 0.225816
-3.857024 -9.208023 0.458415
-21.069887 -49.935028 3.775005
-21.075962 -49.925201 5.039347
-3.808972 -9.072293 1.138878
-3.283952 -7.824069 1.179394
-0.000139 -0.071449 -0.002676
-0.000139 -0.071449 -0.002676
-0.182697 -0.500001 -0.279198
-0.232499 -0.616457 -0.335836
-0.250099 -0.657489 -0.341710
-0.269483 -0.702348 -0.347357
-0.290519 -0.750997 -0.352732
-0.324622 -0.830478 -0.370468
-0.355738 -0.902489 -0.380504
-0.423186 -1.059245 -0.422568
-2.152609 -5.096381 -1.993298
-2.337719 -5.523314 -2.008062
-2.554739 -6.023759 -2.024944
-2.800389 -6.593028 -2.038958
-3.103985 -7.293177 -2.061680
-3.473180 -8.148345 -2.087221
-3.949695 -9.247762 -2.127665
-4.552217 -10.637545 -2.172027
-3.447151 -8.165571 -1.449356
-3.510460 -8.310277 -1.262593
-3.218470 -7.617630 -0.961779
-3.222722 -7.620300 -0.769608
-3.236427 -7.648753 -0.580000
-3.244250 -7.659742 -0.388686
-3.264506 -7.699762 -0.196469
-3.487909 -8.217921 -0.003898
-3.910375 -9.195937 0.226437
-3.919819 -9.209182 0.459643
-21.285854 -49.671387 3.764061
-11.184451 -26.107891 2.637094
-3.861530 -9.051683 1.139130
-3.281024 -7.697921 1.163008
-0.000139 -0.071099 -0.002663
-0.000139 -0.071099 -0.002663
-0.193364 -0.517543 -0.291430
-0.236315 -0.616345 -0.336802
-0.254162 -0.657298 -0.342636
-0.273113 -0.700434 -0.347343
-0.298029 -0.757255 -0.356998
-0.329122 -0.828188 -0.370454
-0.362709 -0.905138 -0.382803
-0.428866 -1.056437 -0.422554
-2.183144 -5.084897 -1.993965
-2.369080 -5.509410 -2.008044
-2.589755 -6.010359 -2.025522
-2.839805 -6.577707 -2.039491
-3.144751 -7.273057 -2.061153
-3.520263 -8.125458 -2.086740
-4.004073 -9.223810 -2.127644
-4.614823 -10.609988 -2.172004
-3.499980 -8.159724 -1.451932
-3.549840 -8.267143 -1.259229
-3.218435 -7.498364 -0.948987
-3.223350 -7.502604 -0.759541
-3.238422 -7.530232 -0.572431
-3.244123 -7.539796 -0.383526
-3.264535 -7.579629 -0.193881
-3.490688 -8.092189 -0.003862
-3.973236 -9.196749 0.227058
-3.982763 -9.209923 0.460871
-11.174835 -25.689672 1.947915
-11.148300 -25.604536 2.592793
-3.922733 -9.050797 1.141935
-3.293692 -7.603570 1.151627
-3.294180 -7.597540 1.346027
-0.000138 -0.070747 -0.002650
-0.207077 -0.541225 -0.307743
-0.238853 -0.612995 -0.335809
-0.256941 -0.653828 -0.341683
-0.275394 -0.695173 -0.345534
-0.302831 -0.756783 -0.357840
-0.333608 -0.825870 -0.370440
-0.366912 -0.900936 -0.382018
-2.062276 -4.735577 -1.995174
-2.213613 -5.073218 -1.994632
-2.400543 -5.493176 -2.007386
-2.624934 -5.994521 -2.025503
-2.881485 -6.567424 -2.041678
-3.185868 -7.250390 -2.060121
-3.567998 -8.104081 -2.086720
-4.055939 -9.194186 -2.126374
-4.677295 -10.582088 -2.171982
-3.555051 -8.154711 -1.454832
-3.595227 -8.238340 -1.258094
-3.214423 -7.369712 -0.935034
-3.227232 -7.391888 -0.750219
-3.239146 -7.411974 -0.564864
-3.245633 -7.423203 -0.378555
-3.265393 -7.461010 -0.191339
-3.504260 -7.994174 -0.003831
-4.038642 -9.198263 0.227725
-4.048234 -9.211343 0.462193
-11.145556 -25.214008 1.916761
-11.220468 -25.359209 2.574648
-3.986411 -9.050606 1.144973
-3.908487 -8.866794 1.348801
-3.288247 -7.463895 1.325638
