# This PCD file was generated using the MATLAB® pcwrite function
# from Computer Vision Toolbox®.
# .PCD v.7 - Point Cloud Data file format
VERSION .7
FIELDS x y z
SIZE 4 4 4
TYPE F F F
COUNT 1 1 1
WIDTH 1682
HEIGHT 1
VIEWPOINT 0 0 0 1 0 0 0
POINTS 1682
DATA ascii
0.447076 0.230186 -0.353282
0.462556 0.246034 -0.345260
0.463001 0.246155 -0.326231
0.487007 0.271042 -0.322834
0.497188 0.281304 -0.309511
3.050078 2.942402 -1.731324
3.268762 3.169157 -1.729249
3.494897 3.402239 -1.715987
3.762283 3.677919 -1.705480
4.071672 3.998368 -1.696007
4.441233 4.379545 -1.688514
4.847229 4.799791 -1.668009
5.335745 5.303521 -1.646915
5.932685 5.919050 -1.622998
6.659390 6.731277 -1.596110
7.609413 7.722559 -1.560563
8.288842 8.427143 -1.413352
8.445786 8.584944 -1.152758
8.462071 8.598779 -0.868846
8.444921 8.574622 -0.582501
20.445496 21.081745 -0.704704
0.000498 -0.236880 -0.009421
29.176863 30.153730 0.955132
0.000498 -0.236880 -0.009421
29.723333 30.689901 2.976167
29.508463 30.444572 3.948196
18.277874 18.753897 3.064270
17.217188 17.645384 3.471101
15.741437 16.100998 3.710425
15.466981 15.804759 4.181541
0.398459 0.175358 -0.349313
0.417334 0.194588 -0.346610
0.457116 0.235561 -0.358906
0.469062 0.247568 -0.347940
0.472058 0.250317 -0.330499
0.492451 0.271188 -0.324449
2.889356 2.742790 -1.744375
3.070950 2.927822 -1.732767
3.285710 3.147930 -1.727867
3.514469 3.381032 -1.715334
3.786107 3.657913 -1.706064
4.096012 3.975212 -1.695995
4.455605 4.341763 -1.683938
4.873434 4.769345 -1.667074
5.371660 5.277254 -1.648153
5.973521 5.890754 -1.624470
6.699420 6.693169 -1.596099
7.655118 7.678946 -1.560553
8.295786 8.335370 -1.406131
8.465962 8.505028 -1.148647
8.471169 8.507262 -0.864632
8.442692 8.471695 -0.578926
19.869034 20.243595 -0.681073
40.203033 41.188641 -0.027988
29.363922 29.998465 0.955544
27.394547 27.950661 1.810900
0.000500 -0.236530 -0.009407
0.000500 -0.236530 -0.009407
18.992510 19.270691 3.165512
17.716486 17.953520 3.550809
0.000500 -0.236530 -0.009407
0.000500 -0.236530 -0.009407
0.409222 0.181999 -0.356445
0.416152 0.188787 -0.343655
0.463534 0.237059 -0.361710
0.476840 0.250313 -0.351518
0.474852 0.247939 -0.330485
0.501846 0.275126 -0.328506
2.885791 2.705369 -1.732020
3.086512 2.907770 -1.731298
3.307054 3.130065 -1.728540
3.537902 3.363783 -1.716604
3.809797 3.637739 -1.706648
4.119579 3.949809 -1.695431
4.473755 4.308104 -1.680884
4.907146 4.744844 -1.668448
5.405652 5.247022 -1.648559
6.011156 5.856953 -1.624830
6.744719 6.660448 -1.597388
7.710272 7.642238 -1.562217
8.293591 8.235275 -1.397515
8.431170 8.369717 -1.137265
8.447485 8.380266 -0.857054
8.429736 8.359076 -0.574695
19.853594 19.993608 -0.676597
22.852577 23.033014 -0.019903
28.431963 28.703854 0.919427
28.013018 28.257236 1.841064
0.000479 -0.236201 -0.009394
29.819029 30.051334 3.942085
18.721176 18.772112 3.101810
17.365299 17.382925 3.459171
15.536379 15.516061 3.618210
15.576153 15.550718 4.161593
0.404450 0.172587 -0.350306
0.424802 0.192859 -0.348543
0.462595 0.230875 -0.358878
0.479708 0.247815 -0.351505
0.483996 0.251966 -0.334753
0.508651 0.276477 -0.330934
2.905797 2.691163 -1.733550
3.105879 2.891611 -1.732014
3.330355 3.115306 -1.730581
3.559916 3.345044 -1.717232
3.832053 3.616091 -1.706636
4.147682 3.930444 -1.697075
4.497116 4.279864 -1.679857
4.941250 4.722369 -1.670283
5.437582 5.218494 -1.648963
6.045094 5.823640 -1.624819
6.792479 6.627685 -1.599002
7.763867 7.606491 -1.563880
8.289181 8.131220 -1.388435
8.423204 8.260495 -1.129425
8.439355 8.273732 -0.851297
8.428530 8.256804 -0.571214
19.982449 19.892069 -0.677015
0.000482 -0.235851 -0.009380
28.617266 28.549181 0.919885
28.431631 28.352196 1.857813
28.276842 28.176437 2.780639
29.882332 29.778879 3.928203
18.983145 18.817732 3.127066
18.399193 18.218533 3.644407
15.707723 15.513265 3.637635
15.747325 15.541798 4.183041
0.412804 0.176751 -0.355396
0.422254 0.185899 -0.344608
0.466447 0.229886 -0.359804
0.491260 0.254320 -0.357777
0.490641 0.253354 -0.337308
0.518070 0.280344 -0.334991
2.922091 2.675230 -1.733537
3.123824 2.874005 -1.732002
3.344274 3.091119 -1.727830
3.584494 3.328823 -1.719142
3.855530 3.595653 -1.707220
4.174329 3.909540 -1.698167
4.525801 4.256971 -1.680859
4.973874 4.698296 -1.671656
5.475395 5.191981 -1.650617
6.080928 5.788002 -1.624808
6.833478 6.592769 -1.599640
7.814507 7.567594 -1.564985
8.287992 8.037449 -1.380515
8.415531 8.158820 -1.122144
8.428885 8.166193 -0.845400
8.422045 8.156364 -0.567638
0.000483 -0.235501 -0.009366
0.000483 -0.235501 -0.009366
28.437332 28.050854 0.908902
28.411583 28.005247 1.845787
29.919220 29.482807 2.925760
29.466257 29.012175 3.850444
19.069990 18.686069 3.123367
17.755520 17.369335 3.496397
15.879385 15.497929 3.655763
15.652192 15.267253 4.133883
0.406671 0.166174 -0.348238
0.419795 0.178847 -0.340673
0.469202 0.227461 -0.359790
0.500516 0.258017 -0.362253
0.494806 0.252039 -0.338150
0.527519 0.284094 -0.339048
2.944577 2.663372 -1.736610
3.139565 2.853151 -1.730533
3.366062 3.074792 -1.729186
3.600183 3.302535 -1.716566
3.878192 3.573054 -1.707208
4.203614 3.891161 -1.700362
4.568948 4.246642 -1.686933
5.000812 4.668551 -1.671183
5.512145 5.166178 -1.652272
6.122535 5.760103 -1.626651
6.873886 6.552464 -1.599629
7.862141 7.525599 -1.565532
8.287424 7.939638 -1.372364
8.451007 8.095107 -1.120269
8.428807 8.070246 -0.840624
8.426126 8.061729 -0.564626
0.000485 -0.235151 -0.009352
0.000485 -0.235151 -0.009352
28.838516 28.111853 0.916411
28.791004 28.045130 1.859575
0.000485 -0.235151 -0.009352
19.522234 18.920193 2.533361
0.000485 -0.235151 -0.009352
18.364395 17.764879 3.596101
16.155830 15.588873 3.698486
0.000485 -0.235151 -0.009352
0.413894 0.168980 -0.352307
0.424664 0.179205 -0.342620
0.474391 0.227572 -0.361655
0.503343 0.255472 -0.362240
0.504080 0.255842 -0.342418
2.816811 2.508112 -1.761203
2.957260 2.642858 -1.734283
3.158644 2.836673 -1.731248
3.385062 3.055693 -1.729174
3.625926 3.287364 -1.719117
3.902796 3.553660 -1.708388
4.225940 3.865904 -1.699798
4.601629 4.227338 -1.689456
5.033150 4.644071 -1.672556
5.538947 5.130610 -1.651010
6.156961 5.725093 -1.626639
6.918493 6.518611 -1.600917
7.918042 7.491607 -1.567753
8.287428 7.846352 -1.364678
8.408998 7.959101 -1.108513
8.420748 7.967610 -0.835147
8.432264 7.973018 -0.561894
0.000487 -0.234801 -0.009338
0.000487 -0.234801 -0.009338
30.055243 28.969816 0.950060
28.734076 27.666265 1.845423
19.211578 18.412983 1.854125
29.638201 28.513523 3.829345
19.542374 18.707247 3.164383
19.006826 18.181532 3.701358
17.329960 16.544836 3.945727
16.640326 15.865679 4.345348
0.414983 0.165752 -0.351272
0.430803 0.180731 -0.345547
0.474508 0.222735 -0.359763
0.513886 0.260362 -0.367614
0.509505 0.255792 -0.344117
2.820719 2.480790 -1.753864
2.976436 2.628678 -1.735813
3.176277 2.818776 -1.731235
3.405303 3.037786 -1.729846
3.646151 3.266771 -1.719105
3.931439 3.538082 -1.711357
4.249491 3.841851 -1.699785
4.624450 4.198427 -1.688430
5.065381 4.619393 -1.673929
5.576833 5.105749 -1.653080
6.195438 5.693957 -1.627740
6.967218 6.488604 -1.603180
7.970945 7.454464 -1.569416
8.283783 7.750595 -1.356525
8.394369 7.851475 -1.100486
8.420433 7.873674 -0.830510
8.483704 7.928821 -0.562164
0.000489 -0.234451 -0.009324
0.000489 -0.234451 -0.009324
0.000489 -0.234451 -0.009324
29.293514 27.883917 1.871056
0.000489 -0.234451 -0.009324
0.000489 -0.234451 -0.009324
19.856249 18.791296 3.197518
19.091106 18.051580 3.697201
16.173027 15.245521 3.661290
16.237051 15.295798 4.216343
0.421077 0.167196 -0.354321
0.428197 0.173699 -0.341612
0.472087 0.215383 -0.355991
0.520696 0.261361 -0.370293
0.514932 0.255694 -0.345815
2.838113 2.465628 -1.754664
2.994713 2.612596 -1.736571
3.199209 2.805920 -1.734134
3.426039 3.019188 -1.730517
3.669000 3.248677 -1.720373
3.948936 3.511782 -1.709555
4.283348 3.826157 -1.703636
4.654115 4.176069 -1.689938
5.095502 4.590941 -1.674378
5.611748 5.077925 -1.654317
6.233759 5.662586 -1.628840
7.004134 6.444780 -1.602518
8.026457 7.416951 -1.571357
8.306563 7.678367 -1.352559
8.396045 7.757946 -1.094509
8.416348 7.774401 -0.825454
8.513171 7.860803 -0.560933
0.000487 -0.234097 -0.009310
37.897938 35.765015 -0.026234
37.854324 35.698132 1.185531
29.776686 28.020412 1.891602
19.561476 18.314100 1.866917
19.470104 18.220842 2.484694
0.000487 -0.234097 -0.009310
19.117262 17.860739 3.681380
16.066936 14.968019 3.617290
0.000487 -0.234097 -0.009310
0.415793 0.158095 -0.348183
0.429209 0.170465 -0.340618
0.474589 0.213089 -0.355977
0.528657 0.263695 -0.373872
0.532225 0.266699 -0.355220
2.859799 2.456342 -1.758722
3.017274 2.602483 -1.740416
3.219384 2.790347 -1.735577
3.446884 3.002915 -1.731873
3.691773 3.230442 -1.721642
3.970444 3.489326 -1.709542
4.303154 3.799895 -1.702519
4.680834 4.150849 -1.690433
5.129471 4.569411 -1.676674
5.639377 5.043181 -1.653472
6.273364 5.632313 -1.630311
7.047055 6.411316 -1.603805
8.074838 7.377806 -1.572461
8.294223 7.579079 -1.343476
8.417341 7.689442 -1.091514
8.404276 7.674307 -0.819975
0.000467 -0.233769 -0.009296
0.000467 -0.233769 -0.009296
0.000467 -0.233769 -0.009296
0.000467 -0.233769 -0.009296
0.000467 -0.233769 -0.009296
19.535200 18.083462 1.854568
19.686489 18.212246 2.498773
17.962719 16.585133 2.860243
16.307194 15.029507 3.122372
0.000467 -0.233769 -0.009296
16.206615 14.913876 4.162761
0.421819 0.159566 -0.351231
0.436615 0.173076 -0.344525
0.474578 0.208298 -0.354084
0.532819 0.262207 -0.374756
2.703989 2.281811 -1.758597
2.875706 2.439668 -1.758709
3.025455 2.577875 -1.735774
3.235378 2.770833 -1.734836
3.461902 2.978923 -1.729806
3.715816 3.213324 -1.723552
3.998819 3.473234 -1.712511
4.334059 3.781166 -1.705266
4.708851 4.126801 -1.691434
5.150754 4.532644 -1.674352
5.682083 5.020605 -1.656791
6.312386 5.599332 -1.631412
7.083778 6.369639 -1.603468
8.138687 7.347648 -1.576076
8.299824 7.494978 -1.337184
8.387030 7.570650 -1.081808
8.398452 7.575741 -0.814918
9.671149 8.755978 -0.629300
0.000469 -0.233419 -0.009282
0.000469 -0.233419 -0.009282
0.000469 -0.233419 -0.009282
0.000469 -0.233419 -0.009282
19.684507 18.005550 1.858464
19.671383 17.980469 2.483044
18.501017 16.890642 2.930445
16.227333 14.775479 3.089890
15.966737 14.523973 3.555502
16.394625 14.914021 4.188648
0.425417 0.158579 -0.352238
0.437755 0.169664 -0.343531
0.475886 0.204624 -0.353131
0.539690 0.263011 -0.377436
2.722857 2.269739 -1.761152
2.885679 2.418470 -1.755439
3.046165 2.563969 -1.738075
3.254520 2.753190 -1.735551
3.480334 2.959270 -1.729793
3.732008 3.187717 -1.721616
4.017928 3.447211 -1.711305
4.355706 3.755205 -1.704700
4.736072 4.100442 -1.691929
5.179548 4.504559 -1.674801
5.710818 4.986836 -1.656361
6.351685 5.568540 -1.632883
7.135890 6.339868 -1.606380
8.218623 7.334530 -1.583039
8.295831 7.400207 -1.329265
8.376018 7.468529 -1.074525
8.393337 7.481685 -0.810141
9.656631 8.636615 -0.624973
0.000471 -0.233069 -0.009268
21.430218 19.430239 -0.018700
0.000471 -0.233069 -0.009268
0.000471 -0.233069 -0.009268
0.000471 -0.233069 -0.009268
19.905212 17.985559 2.499346
19.423155 17.531725 3.060182
16.073755 14.462944 3.044357
16.237940 14.602524 3.596932
17.876232 16.087784 4.543168
0.425106 0.154140 -0.350183
0.436188 0.163954 -0.340577
0.479701 0.203410 -0.354057
0.542550 0.260256 -0.377422
2.734556 2.251936 -1.759426
2.902245 2.403375 -1.756240
3.059475 2.544232 -1.736519
3.278563 2.741002 -1.739178
3.504230 2.944571 -1.732519
3.755872 3.170345 -1.723525
4.043289 3.428190 -1.713082
4.378592 3.730391 -1.704688
4.765263 4.077344 -1.693437
5.213955 4.481517 -1.677097
5.748021 4.960748 -1.658432
6.387909 5.534849 -1.633612
7.177987 6.302983 -1.607343
8.178607 7.211453 -1.567124
8.342593 7.355330 -1.329717
8.367187 7.372299 -1.067802
8.388905 7.389300 -0.805503
9.657271 8.535555 -0.621772
21.616549 19.380522 -0.696386
21.589014 19.348501 -0.018711
0.000473 -0.232719 -0.009254
0.000473 -0.232719 -0.009254
20.581022 18.401039 1.923056
20.728937 18.521639 2.589518
0.000473 -0.232719 -0.009254
16.429955 14.616180 3.095742
16.220566 14.416521 3.574291
17.911531 15.932234 4.528390
0.423505 0.148595 -0.347106
0.438476 0.161795 -0.340563
0.476953 0.196266 -0.350285
0.544037 0.256265 -0.376510
0.000475 -0.232369 -0.009241
2.917385 2.386970 -1.756226
3.086402 2.536770 -1.742677
3.292861 2.719932 -1.737709
3.519675 2.922178 -1.731136
3.772576 3.146468 -1.722230
4.062885 3.403920 -1.712472
4.392741 3.697759 -1.701364
4.787115 4.047591 -1.692410
5.242473 4.453060 -1.677546
5.782217 4.931821 -1.659668
6.426866 5.503532 -1.635084
7.219926 6.265864 -1.608304
8.171281 7.119534 -1.557626
8.349226 7.274306 -1.323890
8.430098 7.341635 -1.070213
8.391091 7.303877 -0.801566
9.643679 8.422768 -0.617725
21.805048 19.324144 -0.698776
0.000475 -0.232369 -0.009241
0.000475 -0.232369 -0.009241
20.513050 18.132607 1.265752
20.384672 18.011105 1.894738
20.694111 18.274883 2.571756
18.044523 15.893765 2.812793
16.577225 14.577095 3.107417
16.597647 14.584798 3.638699
18.442871 16.220417 4.638932
0.428250 0.148775 -0.349134
0.447240 0.165396 -0.345450
0.487326 0.200898 -0.355908
0.540165 0.247541 -0.372007
2.757574 2.216156 -1.755975
2.934244 2.371174 -1.757027
3.095402 2.513179 -1.738806
3.308419 2.700034 -1.736967
3.545372 2.907824 -1.734546
3.796222 3.128794 -1.724140
4.086631 3.383350 -1.713651
4.413123 3.669445 -1.700246
4.811673 4.020290 -1.692397
5.271629 4.423497 -1.677995
5.815700 4.900367 -1.660488
6.460793 5.465650 -1.635071
7.260177 6.227148 -1.608941
8.165911 7.027836 -1.548407
8.298775 7.143309 -1.309224
8.364883 7.196776 -1.056591
8.374497 7.200025 -0.795807
9.633564 8.314384 -0.613961
0.000477 -0.232019 -0.009227
0.000477 -0.232019 -0.009227
0.000477 -0.232019 -0.009227
20.610991 18.007908 1.265301
20.882645 18.235168 1.930992
20.414062 17.807928 2.523444
18.681988 16.271309 2.897591
16.823683 14.619097 3.137143
16.923540 14.696611 3.690809
16.900917 14.671281 4.228615
0.431793 0.147713 -0.350141
0.449589 0.163085 -0.345437
0.481928 0.191356 -0.350257
0.534943 0.237602 -0.366605
2.769336 2.197715 -1.754249
2.950552 2.355775 -1.757828
3.108857 2.492674 -1.737250
3.332761 2.686831 -1.740595
3.563381 2.887686 -1.734533
3.820389 3.110314 -1.726049
4.109451 3.360645 -1.714234
4.432602 3.641762 -1.699129
4.839739 3.994562 -1.693398
5.298357 4.393412 -1.677982
5.848094 4.869694 -1.661308
6.497953 5.432580 -1.636170
7.301317 6.186889 -1.609579
8.157007 6.936590 -1.538909
8.300596 7.057584 -1.302699
8.357925 7.102704 -1.050240
8.376652 7.116488 -0.792010
9.627028 8.207392 -0.610383
18.574572 16.039604 -0.590539
18.588654 16.046074 -0.017238
18.589520 16.035236 0.556255
18.589245 16.023403 1.134306
18.597210 16.024506 1.709931
18.572388 15.991241 2.283334
18.540131 15.951522 2.860537
18.472904 15.887023 3.428186
0.000457 -0.231690 -0.009213
18.500580 15.888163 4.605684
0.428780 0.141057 -0.346045
0.445274 0.155120 -0.340521
0.491014 0.194705 -0.354941
0.543029 0.239542 -0.370183
2.790100 2.187985 -1.758517
2.962640 2.336690 -1.756186
3.130088 2.479918 -1.740322
3.348104 2.666717 -1.739853
3.582715 2.868697 -1.735204
3.838130 3.087356 -1.725395
4.140184 3.346006 -1.718395
4.450492 3.612767 -1.697460
4.866920 3.969490 -1.694399
5.327851 4.365712 -1.678892
5.877381 4.836285 -1.661294
6.534931 5.399261 -1.637270
7.342630 6.148969 -1.610540
8.142828 6.841782 -1.528573
8.294433 6.968339 -1.295242
8.354901 7.015656 -1.044634
8.366077 7.022734 -0.787091
9.619602 8.103750 -0.606899
18.621105 15.892139 -0.589068
18.623100 15.888049 -0.017201
18.625423 15.878559 0.554527
18.643255 15.882480 1.131913
18.670891 15.900541 1.708138
18.535868 15.772447 2.267424
21.013971 17.899132 3.227260
18.565416 15.780730 3.428198
17.249819 14.635423 3.724488
16.683796 14.137314 4.131786
0.447872 0.153501 -0.359300
0.450139 0.155173 -0.342468
0.493474 0.192234 -0.354927
0.545740 0.236766 -0.370169
2.804008 2.172244 -1.758502
2.977390 2.319941 -1.756172
3.145649 2.462193 -1.740309
3.360488 2.644096 -1.737655
3.601927 2.849571 -1.735875
3.860065 3.068011 -1.726663
4.163616 3.324925 -1.719575
4.475466 3.589904 -1.698550
4.891048 3.941754 -1.694385
5.352754 4.334033 -1.678417
5.915407 4.810320 -1.663779
6.568734 5.363146 -1.637628
7.383760 6.110798 -1.611501
8.142852 6.760280 -1.521028
8.334259 6.919517 -1.294996
8.340568 6.919817 -1.037722
8.357713 6.931929 -0.782453
9.617371 8.005680 -0.603790
22.002392 18.599712 -0.690965
0.000461 -0.230990 -0.009185
0.000461 -0.230990 -0.009185
0.000461 -0.230990 -0.009185
21.168205 17.846802 1.928250
18.629225 15.667075 2.267622
20.868624 17.565479 3.189049
18.679932 15.693195 3.432376
18.684303 15.685529 4.015092
16.998243 14.238841 4.189097
0.446161 0.147939 -0.356224
0.447029 0.148402 -0.338533
0.495890 0.189722 -0.354913
0.523888 0.213160 -0.353992
2.810887 2.150540 -1.754208
2.993413 2.304267 -1.756973
3.165328 2.447951 -1.742609
3.381268 2.628661 -1.739825
3.621059 2.830351 -1.736546
3.879000 3.046073 -1.726649
4.176718 3.295064 -1.716579
4.515037 3.579301 -1.705159
4.919432 3.917603 -1.695893
5.381938 4.305995 -1.679326
5.948833 4.780301 -1.665015
6.608355 5.331895 -1.639469
7.429173 6.076169 -1.613438
8.143733 6.680314 -1.513760
8.301062 6.808792 -1.283586
8.339061 6.835957 -1.032489
8.353168 6.845352 -0.778235
21.196684 17.712881 -1.313307
22.582169 18.872072 -0.705497
22.625431 18.901743 -0.018800
41.612659 34.932751 1.237969
0.000463 -0.230641 -0.009171
18.980455 15.790662 1.719550
21.535006 17.933983 2.609952
21.169727 17.613077 3.219408
18.647121 15.481063 3.409618
18.100794 15.009800 3.870457
18.892090 15.664675 4.634187
0.441736 0.140172 -0.351107
0.454559 0.150664 -0.342440
0.496955 0.186080 -0.353960
0.533285 0.216226 -0.358468
2.832875 2.141628 -1.759332
3.010773 2.289687 -1.758587
3.180702 2.430024 -1.742596
3.401953 2.613059 -1.741996
3.641508 2.812201 -1.737901
3.902165 3.027666 -1.728558
4.204293 3.277425 -1.719547
4.548702 3.563423 -1.709561
4.944722 3.890786 -1.696386
5.415452 4.281503 -1.681621
5.973079 4.742548 -1.663752
6.647842 5.300387 -1.641310
7.475951 6.042506 -1.615698
8.143949 6.600557 -1.506493
8.301881 6.728040 -1.277524
8.323154 6.740873 -1.025577
8.349416 6.760333 -0.774156
22.615839 18.692112 -1.393881
21.170137 17.469784 -0.658789
21.334145 17.600447 -0.018194
0.000465 -0.230291 -0.009157
20.975706 17.275724 1.256017
20.780584 17.106586 1.874397
21.659151 17.826614 2.612372
19.428398 15.955209 2.939583
19.177126 15.740076 3.489887
0.000465 -0.230291 -0.009157
19.101185 15.654003 4.663034
0.446564 0.140089 -0.353134
0.455458 0.147195 -0.341446
0.498058 0.182355 -0.353006
0.545547 0.221376 -0.364740
2.845104 2.124485 -1.758461
3.027071 2.273287 -1.759387
3.200688 2.414976 -1.744896
3.418283 2.593786 -1.741982
3.659497 2.790895 -1.737887
3.920861 3.005492 -1.728544
4.228834 3.257144 -1.721322
4.568179 3.534289 -1.708443
4.972849 3.866283 -1.697893
5.437606 4.245923 -1.680222
6.009162 4.714630 -1.665820
6.679579 5.262362 -1.641295
7.519130 6.003446 -1.616983
8.144678 6.519605 -1.499225
8.294073 6.638479 -1.270067
8.316800 6.652352 -1.019784
8.346157 6.674139 -0.770078
21.301863 17.379244 -1.306994
21.316423 17.384884 -0.660140
21.417988 17.456095 -0.018171
0.000463 -0.229937 -0.009143
20.965200 17.063465 1.249370
21.164803 17.215567 1.899822
19.414396 15.766912 2.329498
18.493780 14.997381 2.784388
17.364309 14.057099 3.143606
17.415400 14.093923 3.687974
16.808323 13.584657 4.082675
0.447311 0.136864 -0.352099
0.457565 0.145003 -0.341432
0.507171 0.185501 -0.357690
2.719126 1.995909 -1.774540
2.853024 2.103833 -1.755022
3.040042 2.255021 -1.758559
3.211140 2.393921 -1.742567
3.430155 2.570860 -1.739784
3.673907 2.767727 -1.736504
3.943835 2.986799 -1.730452
4.248842 3.233077 -1.721308
4.592759 3.510691 -1.709533
4.997857 3.839144 -1.698387
5.466328 4.217353 -1.681131
6.041434 4.681705 -1.666639
6.718143 5.227930 -1.642766
7.558395 5.965454 -1.617944
8.143570 6.440300 -1.491958
8.290793 6.558418 -1.263773
8.307334 6.567067 -1.013991
8.341000 6.589701 -0.765999
16.618496 13.352502 -1.016994
0.000465 -0.229587 -0.009129
37.314751 30.223862 -0.024784
0.000465 -0.229587 -0.009129
0.000465 -0.229587 -0.009129
21.209232 17.048388 1.894838
0.000465 -0.229587 -0.009129
20.850788 16.737959 3.125631
0.000465 -0.229587 -0.009129
20.093252 16.097931 4.235841
17.476486 13.966353 4.225380
0.445446 0.131285 -0.349023
0.462486 0.144822 -0.343379
0.508246 0.181717 -0.356737
2.723938 1.973333 -1.769138
2.869623 2.089474 -1.756721
3.055715 2.238961 -1.759359
3.230939 2.378628 -1.744868
3.455412 2.557825 -1.744138
3.698439 2.752780 -1.739913
3.962845 2.963683 -1.730439
4.264863 3.204570 -1.719505
4.612719 3.483314 -1.708967
5.024934 3.812198 -1.699387
5.499424 4.192238 -1.683426
6.069605 4.647168 -1.666625
6.754066 5.193196 -1.643864
7.598077 5.923320 -1.618580
8.144913 6.363743 -1.485248
8.327826 6.506948 -1.263294
8.328930 6.502983 -1.011740
8.332019 6.503023 -0.761640
16.807583 13.341852 -1.023548
21.847681 17.398806 -0.669997
0.000445 -0.229258 -0.009116
0.000445 -0.229258 -0.009116
21.010355 16.692545 1.240146
19.379774 15.373549 1.722522
17.702509 14.012849 2.103105
21.065641 16.706396 3.142787
17.240532 13.626089 3.091983
17.301607 13.665128 3.629108
18.204248 14.379465 4.380653
0.451542 0.132287 -0.352072
0.463256 0.141398 -0.342385
0.511981 0.180234 -0.357662
2.726812 1.950151 -1.762838
2.884332 2.074375 -1.757563
3.071307 2.222810 -1.760159
3.243036 2.358039 -1.743311
3.465575 2.533576 -1.741212
3.714075 2.730601 -1.739215
3.982658 2.942344 -1.731065
4.286058 3.181485 -1.720088
4.638546 3.460635 -1.710608
5.051142 3.785937 -1.700387
5.526310 4.162043 -1.683874
6.099126 4.613702 -1.667028
6.789799 5.158220 -1.644963
7.639556 5.884751 -1.619865
8.142543 6.284914 -1.477980
8.284266 6.393502 -1.250952
8.300652 6.401802 -1.003709
8.325443 6.419178 -0.757561
16.629368 13.040828 -1.008147
21.953533 17.276794 -0.670123
22.036242 17.336323 -0.018259
0.000446 -0.228908 -0.009102
21.487291 16.873962 1.262643
21.509865 16.885674 1.904033
17.762390 13.893656 2.100527
20.665110 16.189722 3.068672
17.551132 13.710480 3.133376
17.149443 13.381580 3.580583
17.162315 13.381930 4.110443
0.453621 0.130037 -0.352058
0.466755 0.140161 -0.343351
0.511576 0.175456 -0.355769
2.750538 1.943622 -1.770008
2.898981 2.059205 -1.758405
3.084362 2.203753 -1.759331
3.253530 2.336235 -1.740983
3.485818 2.517378 -1.743382
3.731561 2.708849 -1.739201
4.002345 2.920874 -1.731692
4.307126 3.158269 -1.720670
4.657316 3.431003 -1.709491
5.077235 3.759530 -1.701387
5.552278 4.129533 -1.683860
6.133902 4.582598 -1.668679
6.824746 5.120618 -1.645690
7.677726 5.843442 -1.620501
8.143750 6.207354 -1.471270
8.273934 6.307848 -1.243727
8.291819 6.317228 -0.998101
8.314609 6.330461 -0.753062
17.205923 13.339820 -1.038059
16.967358 13.141983 -0.517644
22.147907 17.211784 -0.018247
0.000449 -0.228558 -0.009088
21.073526 16.347631 1.232498
21.272196 16.491764 1.874052
18.025982 13.929849 2.121833
20.974911 16.240080 3.100656
17.538458 13.531865 3.116450
17.276476 13.316470 3.590305
17.260508 13.298982 4.115263
0.462513 0.132982 -0.357148
0.468926 0.137727 -0.343337
0.522307 0.179276 -0.361392
2.759142 1.924302 -1.767300
2.907818 2.039470 -1.755823
3.096874 2.185171 -1.758503
3.271605 2.319501 -1.742511
3.498623 2.495305 -1.741912
3.748420 2.687661 -1.739187
4.018927 2.896963 -1.731036
4.335615 3.140795 -1.724234
4.682885 3.408020 -1.711132
5.098588 3.729384 -1.700865
5.583429 4.102598 -1.685693
6.162240 4.549834 -1.669081
6.856058 5.083968 -1.646047
7.715179 5.799348 -1.620811
8.143211 6.131433 -1.464560
8.273426 6.228438 -1.237897
8.283399 6.231521 -0.992494
8.306619 6.247251 -0.748983
17.415354 13.338513 -1.045737
17.152912 13.129155 -0.520877
0.000450 -0.228208 -0.009074
0.000450 -0.228208 -0.009074
21.375259 16.386969 1.244634
17.762995 13.569017 1.556346
0.000450 -0.228208 -0.009074
21.099228 16.142523 3.105073
19.544247 14.924962 3.458318
17.445436 13.292683 3.609738
17.459343 13.293608 4.144113
0.459082 0.126539 -0.353050
0.475099 0.138646 -0.346264
0.528766 0.179938 -0.364197
2.775362 1.912477 -1.769980
2.923698 2.025244 -1.757521
3.115062 2.170985 -1.760931
3.290171 2.304918 -1.744811
3.517206 2.477733 -1.743354
3.769618 2.669806 -1.741226
4.039857 2.876417 -1.732304
4.345857 3.109138 -1.720641
4.703730 3.381321 -1.711118
5.122818 3.701468 -1.701358
5.606737 4.069540 -1.685216
6.192033 4.514722 -1.669483
6.895251 5.049507 -1.647887
7.751829 5.758916 -1.621446
8.143656 6.056962 -1.458128
8.262172 6.146084 -1.230904
8.275183 6.151467 -0.987259
8.293197 6.160695 -0.744483
17.569986 13.302349 -1.050411
17.345224 13.119520 -0.524297
0.000452 -0.227858 -0.009060
0.000452 -0.227858 -0.009060
21.408783 16.216476 1.241042
17.637989 13.310143 1.538449
17.942915 13.534141 2.093168
20.018667 15.120598 2.932506
17.544838 13.214030 3.089822
17.501844 13.171300 3.604899
17.585283 13.230208 4.155589
0.455713 0.119989 -0.348953
0.478648 0.137224 -0.347230
0.533977 0.179277 -0.366062
2.779486 1.889822 -1.764578
2.941339 2.011497 -1.760075
3.134649 2.157785 -1.764173
3.308072 2.287925 -1.746340
3.536165 2.459417 -1.744796
3.790738 2.651812 -1.743266
4.058192 2.852725 -1.732290
4.361009 3.080169 -1.718838
4.727504 3.356844 -1.712207
5.149129 3.673690 -1.702358
5.632936 4.038693 -1.685663
6.220795 4.480505 -1.669885
6.933370 5.015988 -1.649727
7.791924 5.716757 -1.622406
8.141925 5.981489 -1.451417
8.301417 6.098494 -1.231122
8.301801 6.094160 -0.985940
8.283816 6.078138 -0.740403
26.000874 19.550632 -1.543114
17.597612 13.148602 -0.529412
0.000454 -0.227508 -0.009046
0.000454 -0.227508 -0.009046
21.429596 16.031569 1.236617
19.011215 14.191320 1.651640
18.031380 13.438148 2.094295
20.715899 15.461252 3.021246
18.274132 13.606873 3.204530
17.773874 13.218287 3.645042
17.765175 13.201860 4.179263
0.471438 0.128065 -0.359147
0.476582 0.131681 -0.344275
0.532072 0.173349 -0.363230
2.793060 1.875200 -1.765462
2.955228 1.996457 -1.760917
3.141024 2.134541 -1.760088
3.321016 2.268059 -1.745555
3.551125 2.439984 -1.744781
3.802748 2.626896 -1.741197
4.073823 2.829232 -1.731634
4.377894 3.054975 -1.718227
4.748069 3.329908 -1.712192
5.169298 3.644071 -1.701836
5.657420 4.006538 -1.685648
6.246990 4.446040 -1.669870
6.971990 4.984598 -1.651937
7.821300 5.668569 -1.621417
8.144320 5.909804 -1.445544
8.256791 5.989999 -1.219244
8.268051 5.993908 -0.977722
8.272154 5.994693 -0.736183
17.509785 12.933442 -1.037621
46.359001 34.604584 -1.374120
0.000434 -0.227179 -0.009032
0.000434 -0.227179 -0.009032
21.595154 15.968319 1.240983
21.163101 15.632641 1.831626
21.016054 15.516599 2.432188
17.851587 13.136132 2.591310
17.999821 13.237200 3.142619
17.591042 12.926532 3.592312
0.000434 -0.227179 -0.009032
0.469262 0.122677 -0.356071
0.474380 0.126235 -0.341321
0.532882 0.169665 -0.362276
2.803332 1.858858 -1.764549
2.963633 1.976511 -1.758334
3.160442 2.121120 -1.763330
3.333436 2.248737 -1.744768
3.563422 2.417603 -1.743311
3.820635 2.606418 -1.741867
4.094390 2.808314 -1.732902
4.395187 3.028917 -1.717616
4.773111 3.306284 -1.713833
5.196158 3.618024 -1.703343
5.684838 3.976549 -1.686557
6.277751 4.411560 -1.670688
7.009108 4.948148 -1.653406
7.862026 5.631054 -1.623025
8.141408 5.834766 -1.438833
8.249946 5.913300 -1.213181
8.262712 5.918274 -0.973046
8.259811 5.911601 -0.731963
0.000436 -0.226830 -0.009018
46.897583 34.588875 -1.384030
0.000436 -0.226830 -0.009018
0.000436 -0.226830 -0.009018
21.824509 15.945156 1.248865
20.495663 14.949274 1.765960
21.259584 15.503338 2.449608
17.933016 13.036988 2.592021
0.000436 -0.226830 -0.009018
17.929136 13.014580 3.645399
17.998569 13.060910 4.198520
0.469941 0.119216 -0.355036
0.477866 0.124792 -0.342287
0.535240 0.166860 -0.362262
2.821407 1.846755 -1.768127
2.981029 1.962447 -1.760889
3.175392 2.104316 -1.764130
3.352514 2.232521 -1.747068
3.586581 2.402284 -1.746936
3.842939 2.589146 -1.744592
4.113862 2.785437 -1.733528
4.419057 3.006516 -1.719390
4.791830 3.277952 -1.713266
5.217311 3.586325 -1.702821
5.712090 3.946381 -1.687466
6.305943 4.376834 -1.671089
7.043575 4.911537 -1.654503
7.902992 5.589320 -1.624310
8.142667 5.763471 -1.432959
8.247808 5.836340 -1.207584
8.254094 5.836482 -0.967810
8.256410 5.835922 -0.728584
26.523907 19.235462 -1.553848
47.491920 34.595272 -1.395352
0.000438 -0.226480 -0.009005
0.000438 -0.226480 -0.009005
21.654064 15.621048 1.233617
20.487705 14.761838 1.757785
21.494495 15.486773 2.466289
17.746727 12.737369 2.553816
17.736193 12.724835 3.070172
18.118280 12.994064 3.668392
18.004021 12.900966 4.181532
0.474713 0.118883 -0.357064
0.481292 0.123411 -0.343253
0.540339 0.166183 -0.364127
2.831865 1.829779 -1.767215
2.992132 1.944537 -1.760018
3.185808 2.084195 -1.762487
3.368112 2.214601 -1.747825
3.598623 2.379728 -1.745466
3.857567 2.566211 -1.743892
4.132677 2.763156 -1.734154
4.442232 2.984704 -1.721164
4.815054 3.252902 -1.714355
5.239190 3.556569 -1.702806
5.742337 3.918318 -1.689297
6.340278 4.346508 -1.673156
7.073029 4.871218 -1.654488
7.949123 5.553343 -1.626893
8.153008 5.699372 -1.428758
8.240805 5.758747 -1.201521
8.248590 5.759963 -0.963134
8.245977 5.755828 -0.724644
26.789207 19.194138 -1.562740
48.057598 34.586632 -1.405966
0.000440 -0.226130 -0.008991
0.000440 -0.226130 -0.008991
21.696375 15.461302 1.230859
0.000440 -0.226130 -0.008991
20.838772 14.824390 2.380773
17.925774 12.710864 2.568891
17.927740 12.707438 3.090463
18.365412 13.013356 3.703036
18.077721 12.796277 4.181180
0.472548 0.113395 -0.353987
0.481943 0.119891 -0.342259
0.528320 0.153040 -0.354718
2.836744 1.808080 -1.762710
3.003494 1.926049 -1.759146
3.195006 2.062414 -1.760030
3.378041 2.191712 -1.745496
3.614027 2.358688 -1.745451
3.877127 2.545815 -1.745247
4.151878 2.740033 -1.734780
4.478291 2.970839 -1.727710
4.840298 3.227967 -1.715996
5.263120 3.526896 -1.703297
5.765237 3.883394 -1.688820
6.372087 4.312577 -1.674390
7.115976 4.838649 -1.657440
7.983270 5.506425 -1.626878
8.138145 5.615446 -1.420094
8.269704 5.705462 -1.200575
8.264537 5.697349 -0.960881
8.235906 5.674610 -0.720703
17.613939 12.384217 -1.026199
48.674736 34.595573 -1.417849
0.000438 -0.225776 -0.008976
0.000438 -0.225776 -0.008976
21.717531 15.281574 1.226808
18.746943 13.155363 1.594099
18.961119 13.298160 2.156219
18.120308 12.688811 2.585820
18.050928 12.634523 3.098534
18.951696 13.266226 3.805312
19.158869 13.403548 4.412980
0.468898 0.107050 -0.349890
0.485336 0.118456 -0.343225
0.529045 0.149312 -0.353764
2.854239 1.796183 -1.766287
3.018413 1.911677 -1.760844
3.211101 2.046421 -1.761644
3.399433 2.177883 -1.749339
3.628400 2.338808 -1.745436
3.889971 2.521634 -1.743862
4.168377 2.717149 -1.734765
4.500768 2.949444 -1.729483
4.863244 3.202590 -1.717085
5.282419 3.496684 -1.702775
5.790403 3.851596 -1.689267
6.398921 4.278384 -1.674791
7.140929 4.796916 -1.656682
8.024198 5.466413 -1.628486
8.139329 5.545908 -1.414498
8.230801 5.606419 -1.190092
8.243246 5.610873 -0.954526
8.230673 5.599778 -0.717324
17.053404 11.835324 -0.989782
49.181900 34.545185 -1.426859
68.703499 48.310406 -0.036190
0.000440 -0.225426 -0.008962
50.582203 35.468300 2.857956
18.862810 13.075119 1.597450
18.396658 12.741528 2.083479
17.878696 12.367007 2.541130
17.739191 12.259398 3.032459
21.331781 14.782255 4.267434
19.514446 13.493392 4.477321
0.477775 0.109701 -0.354980
0.491529 0.119090 -0.346152
0.534017 0.148724 -0.355630
2.859642 1.776472 -1.762681
3.038078 1.899787 -1.765111
3.228627 2.031381 -1.764071
3.411303 2.158165 -1.748552
3.647703 2.321430 -1.747605
3.910339 2.502748 -1.745901
4.189915 2.696691 -1.736672
4.518975 2.923816 -1.729468
4.882907 3.174875 -1.717070
5.313278 3.473165 -1.705803
5.820174 3.822971 -1.691098
6.427129 4.241792 -1.675192
7.181900 4.762650 -1.659263
8.025164 5.400345 -1.622297
8.138366 5.475426 -1.408624
8.222563 5.532230 -1.184260
8.241450 5.541129 -0.950595
8.224831 5.525185 -0.713944
17.036989 11.681901 -0.984978
49.596054 34.411697 -1.432999
69.400093 48.206169 -0.036323
0.000442 -0.225076 -0.008949
19.182835 13.146441 1.073911
18.876867 12.923283 1.592192
18.548449 12.684828 2.092013
0.000442 -0.225076 -0.008949
17.866093 12.195843 3.041920
18.261349 12.461105 3.636753
19.594738 13.382269 4.477710
0.475512 0.104273 -0.351904
0.495009 0.117521 -0.347118
0.539126 0.147904 -0.357495
2.874395 1.761834 -1.764462
3.043190 1.876927 -1.760815
3.240070 2.012063 -1.763242
3.428416 2.140318 -1.750080
3.661218 2.299033 -1.746862
3.927524 2.481590 -1.746571
4.208744 2.673206 -1.737298
4.534427 2.895123 -1.728260
4.908745 3.151405 -1.719262
5.336728 3.443022 -1.706295
5.840177 3.787525 -1.690159
6.455979 4.207273 -1.676009
7.212112 4.722652 -1.659618
8.094089 5.377679 -1.629429
8.133602 5.402893 -1.402191
8.215724 5.455441 -1.178430
8.228000 5.459644 -0.945173
8.208563 5.444063 -0.709723
17.023478 11.523081 -0.980175
0.000422 -0.224747 -0.008935
70.296982 48.232845 -0.036532
0.000422 -0.224747 -0.008935
19.237144 13.015751 1.072542
18.973644 12.829418 1.594016
19.019606 12.851181 2.136837
19.070969 12.876603 2.689196
18.448343 12.444039 3.128861
18.503328 12.472215 3.670427
19.697813 13.281684 4.482904
0.481653 0.104787 -0.354952
0.496962 0.115005 -0.347104
0.525226 0.134184 -0.347146
2.887274 1.746612 -1.765345
3.055248 1.859718 -1.760800
3.258925 1.997819 -1.766484
3.440459 2.119847 -1.749294
3.677217 2.279287 -1.747576
3.943050 2.459278 -1.746556
4.234766 2.655663 -1.741128
4.558645 2.873606 -1.730630
4.923345 3.120195 -1.717591
5.364163 3.416919 -1.708308
5.872859 3.760739 -1.692914
6.486254 4.173662 -1.677243
7.242130 4.682505 -1.659973
8.145766 5.344685 -1.633311
8.187152 5.370852 -1.405801
8.207280 5.380365 -1.172599
8.226062 5.388947 -0.941241
8.208118 5.374570 -0.706903
17.019855 11.376805 -0.976123
0.000424 -0.224397 -0.008921
0.000424 -0.224397 -0.008921
0.000424 -0.224397 -0.008921
19.569162 13.079199 1.086903
20.033667 13.389788 1.676941
19.061632 12.719407 2.133153
19.236509 12.828266 2.701957
18.493137 12.319057 3.124159
21.554457 14.384444 4.260375
0.000424 -0.224397 -0.008921
0.479275 0.099478 -0.351876
0.490229 0.106624 -0.341209
0.525836 0.130531 -0.346192
2.895612 1.728297 -1.763535
3.077676 1.849489 -1.766780
3.275086 1.980832 -1.768097
3.461555 2.105490 -1.753136
3.694676 2.260504 -1.749017
3.965145 2.440376 -1.749279
4.244993 2.627349 -1.738549
4.581146 2.850822 -1.732405
4.943109 3.091275 -1.717575
5.386667 3.387406 -1.708799
5.893169 3.724005 -1.691975
6.517104 4.138703 -1.678476
7.276012 4.643068 -1.661070
8.004354 5.180969 -1.598857
8.218555 5.321408 -1.405506
8.278940 5.360012 -1.178165
8.254951 5.339606 -0.940852
8.199822 5.298253 -0.703383
17.043295 11.249940 -0.973664
47.206745 31.533121 -1.348193
0.000426 -0.224047 -0.008907
0.000426 -0.224047 -0.008907
19.623867 12.952143 1.085720
18.790293 12.382848 1.566004
18.764271 12.355813 2.091331
18.885597 12.432296 2.642209
18.935865 12.456328 3.186385
0.000426 -0.224047 -0.008907
0.000426 -0.224047 -0.008907
0.486911 0.100797 -0.355944
0.500889 0.109863 -0.347076
0.533785 0.131649 -0.349937
2.908623 1.712409 -1.764418
3.088070 1.831083 -1.765908
3.289256 1.963297 -1.768896
3.475326 2.085267 -1.753121
3.712016 2.241582 -1.750458
3.975736 2.414734 -1.747210
4.258178 2.601099 -1.737252
4.592430 2.820532 -1.730003
4.962116 3.063096 -1.717560
5.402516 3.353448 -1.707262
5.922297 3.694640 -1.693806
6.543005 4.103674 -1.678876
7.307996 4.605958 -1.662166
8.001806 5.110745 -1.592018
8.095445 5.171098 -1.379265
8.364843 5.346381 -1.185591
8.350807 5.332790 -0.947920
8.196598 5.228081 -0.700423
17.001253 11.075970 -0.967454
0.000428 -0.223697 -0.008893
0.000428 -0.223697 -0.008893
0.000428 -0.223697 -0.008893
19.734398 12.862467 1.087683
20.943207 13.653451 1.739750
18.764490 12.204998 2.083576
18.910124 12.291889 2.635512
20.161663 13.110025 3.380244
0.000428 -0.223697 -0.008893
0.000428 -0.223697 -0.008893
0.487260 0.097458 -0.354910
0.502742 0.107408 -0.347062
0.537255 0.130001 -0.350861
2.925367 1.700414 -1.767995
3.098347 1.812624 -1.765037
3.298736 1.942653 -1.767253
3.488154 2.066157 -1.753106
3.727712 2.221534 -1.751171
3.997135 2.396246 -1.749934
4.282306 2.582075 -1.740441
4.611472 2.795416 -1.730585
4.985776 3.037958 -1.719200
5.432755 3.328988 -1.710289
5.949636 3.663996 -1.695176
6.575115 4.069397 -1.680526
7.339814 4.565003 -1.662892
7.988605 5.038086 -1.583555
8.101561 5.108399 -1.375063
8.180088 5.158004 -1.155337
8.187024 5.158436 -0.926091
8.191165 5.157032 -0.697323
17.014006 10.948321 -0.964619
0.000430 -0.223348 -0.008879
72.879509 47.558056 -0.036955
0.000430 -0.223348 -0.008879
0.000430 -0.223348 -0.008879
21.173044 13.631303 1.752270
18.957907 12.172266 2.096926
19.148159 12.291818 2.658698
19.408970 12.452538 3.241412
0.000430 -0.223348 -0.008879
0.000430 -0.223348 -0.008879
0.486285 0.093049 -0.352854
0.504690 0.104765 -0.347048
2.798619 1.595109 -1.784541
2.936746 1.683384 -1.767980
3.114909 1.797489 -1.767591
3.314230 1.925963 -1.768866
3.501670 2.045759 -1.753091
3.737459 2.196679 -1.748971
4.009005 2.371493 -1.748549
4.295696 2.554906 -1.739144
4.635724 2.772500 -1.732954
5.001242 3.007447 -1.718081
5.452111 3.295988 -1.709766
5.980116 3.635305 -1.697468
6.603016 4.033928 -1.681343
7.373866 4.527249 -1.664359
7.988263 4.970517 -1.577366
8.100589 5.041506 -1.369746
8.176892 5.087006 -1.150435
8.185422 5.088452 -0.922346
8.188536 5.088402 -0.694503
16.979395 10.782315 -0.958971
18.108236 11.504952 -0.516698
0.000432 -0.222998 -0.008865
0.000432 -0.222998 -0.008865
0.000432 -0.222998 -0.008865
21.607727 13.739046 1.781732
19.122644 12.123721 2.107315
0.000432 -0.222998 -0.008865
19.513258 12.361300 3.246709
0.000432 -0.222998 -0.008865
0.000432 -0.222998 -0.008865
0.486643 0.089656 -0.351820
0.518306 0.109735 -0.354876
2.811998 1.581198 -1.786406
2.944659 1.664849 -1.766169
3.118899 1.775002 -1.763294
3.321938 1.904234 -1.766408
3.514694 2.025918 -1.753076
3.754477 2.177475 -1.750412
4.023883 2.348711 -1.748534
4.290851 2.517199 -1.730798
4.649677 2.744043 -1.731746
5.026251 2.983079 -1.720272
5.482072 3.271114 -1.712793
5.997312 3.598011 -1.696066
6.634033 4.000391 -1.682992
7.402761 4.486111 -1.664713
7.983159 4.902380 -1.570526
8.109084 4.981192 -1.366102
8.173885 5.018723 -1.145767
8.180643 5.018991 -0.918414
8.183717 5.018919 -0.691543
16.970129 10.638386 -0.954917
0.000411 -0.222669 -0.008852
0.000411 -0.222669 -0.008852
0.000411 -0.222669 -0.008852
51.929665 32.923229 2.844229
51.182831 32.433762 4.217000
20.739948 12.999722 2.277853
0.000411 -0.222669 -0.008852
0.000411 -0.222669 -0.008852
0.000411 -0.222669 -0.008852
0.000411 -0.222669 -0.008852
0.489884 0.088116 -0.352826
0.520211 0.107093 -0.354862
2.817882 1.562502 -1.783572
2.958493 1.650110 -1.767950
3.133412 1.759291 -1.764992
3.338762 1.888340 -1.768835
3.536933 2.011888 -1.757689
3.771395 2.158155 -1.751853
4.040219 2.326850 -1.749203
4.312983 2.496844 -1.733346
4.668294 2.718575 -1.732327
5.054398 2.960582 -1.723567
5.495563 3.235720 -1.710748
6.024159 3.566867 -1.697435
6.663212 3.965586 -1.684225
7.436417 4.447932 -1.666180
7.987534 4.840814 -1.565637
8.130555 4.929456 -1.364690
8.059601 4.880524 -1.125746
8.150124 4.933825 -0.911686
8.178351 4.949653 -0.688583
16.988499 10.513095 -0.952456
0.000413 -0.222319 -0.008838
74.827232 47.008183 -0.037259
0.000413 -0.222319 -0.008838
76.820374 48.190716 4.196424
52.013210 32.544010 4.269945
21.019680 13.008797 2.300278
0.000413 -0.222319 -0.008838
0.000413 -0.222319 -0.008838
0.000413 -0.222319 -0.008838
0.000413 -0.222319 -0.008838
0.493113 0.086545 -0.353833
0.522113 0.104454 -0.354847
2.822127 1.542846 -1.779799
2.970752 1.634344 -1.768832
3.140167 1.738682 -1.762408
3.349310 1.868455 -1.768006
3.540355 1.985976 -1.753045
3.785041 2.136742 -1.751837
4.061212 2.307860 -1.751926
4.323749 2.469306 -1.731407
4.694891 2.698050 -1.735889
5.067753 2.928729 -1.721896
5.523590 3.209453 -1.713268
6.047518 3.533470 -1.697881
6.698854 3.934711 -1.687123
7.466521 4.407439 -1.666905
7.981434 4.773095 -1.558797
8.150013 4.876591 -1.362999
8.018102 4.790143 -1.115961
8.107048 4.841779 -0.903652
8.174154 4.881686 -0.685762
16.938168 10.345632 -0.946244
0.000415 -0.221969 -0.008824
75.973839 47.122654 -0.037545
0.000415 -0.221969 -0.008824
0.000415 -0.221969 -0.008824
52.263714 32.283276 4.275118
0.000415 -0.221969 -0.008824
0.000415 -0.221969 -0.008824
0.000415 -0.221969 -0.008824
0.000415 -0.221969 -0.008824
0.000415 -0.221969 -0.008824
0.496349 0.084966 -0.354839
0.522487 0.100870 -0.353853
2.830737 1.525986 -1.778844
2.984423 1.619423 -1.770613
3.159099 1.725661 -1.766673
3.358179 1.847565 -1.766363
3.559304 1.969781 -1.756115
3.796970 2.114278 -1.751093
4.078915 2.286753 -1.753279
4.339178 2.444717 -1.731391
4.708360 2.669305 -1.734680
5.092356 2.903858 -1.724087
5.544919 3.178962 -1.713758
6.067405 3.497936 -1.697402
6.720996 3.895381 -1.686690
7.496411 4.366773 -1.667629
7.986557 4.712873 -1.554231
8.113524 4.789338 -1.352101
8.023180 4.729647 -1.112686
8.085233 4.764013 -0.898042
8.171144 4.814996 -0.683081
16.925591 10.203209 -0.942189
0.000413 -0.221615 -0.008810
76.747742 46.993866 -0.037684
0.000413 -0.221615 -0.008810
0.000413 -0.221615 -0.008810
0.000413 -0.221615 -0.008810
0.000413 -0.221615 -0.008810
0.000413 -0.221615 -0.008810
0.000413 -0.221615 -0.008810
0.000413 -0.221615 -0.008810
0.000413 -0.221615 -0.008810
0.501036 0.084237 -0.356867
0.531773 0.102739 -0.358740
2.845268 1.512749 -1.781648
2.993461 1.601633 -1.769700
3.176440 1.711543 -1.770083
3.381328 1.834597 -1.772045
3.567123 1.946707 -1.753785
3.815134 2.095618 -1.753262
4.092112 2.261870 -1.752579
4.356069 2.421002 -1.732016
4.734736 2.648436 -1.738242
5.117391 2.877921 -1.726278
5.567722 3.149326 -1.714756
6.094355 3.465231 -1.698771
6.752005 3.859827 -1.688339
7.531921 4.327644 -1.669466
7.992954 4.653800 -1.549990
8.094091 4.711586 -1.343993
8.034595 4.673373 -1.110343
8.096805 4.707367 -0.896160
8.257133 4.800987 -0.687689
16.923895 10.068553 -0.938790
0.000416 -0.221265 -0.008796
0.000416 -0.221265 -0.008796
0.000416 -0.221265 -0.008796
0.000416 -0.221265 -0.008796
0.000416 -0.221265 -0.008796
0.000416 -0.221265 -0.008796
0.000416 -0.221265 -0.008796
0.000416 -0.221265 -0.008796
0.000416 -0.221265 -0.008796
0.000416 -0.221265 -0.008796
0.499889 0.079830 -0.354811
0.515767 0.089148 -0.346963
2.852484 1.494365 -1.779753
3.005767 1.585115 -1.770582
3.183206 1.690219 -1.767499
3.389970 1.813547 -1.770402
3.584668 1.928694 -1.756084
3.832007 2.075199 -1.754702
4.106347 2.238611 -1.752563
4.386313 2.404223 -1.737768
4.750035 2.619652 -1.737630
5.128560 2.844805 -1.724054
5.590940 3.118556 -1.715754
6.120496 3.433412 -1.700139
6.782125 3.825241 -1.689987
7.566445 4.289584 -1.671303
7.992990 4.589333 -1.544450
8.093505 4.647874 -1.339233
8.097541 4.646427 -1.114977
8.154934 4.677026 -0.899311
8.162761 4.679758 -0.677581
16.916134 9.927205 -0.935016
0.000417 -0.220915 -0.008782
78.653252 46.908165 -0.038095
0.000417 -0.220915 -0.008782
0.000417 -0.220915 -0.008782
0.000417 -0.220915 -0.008782
0.000417 -0.220915 -0.008782
0.000417 -0.220915 -0.008782
0.000417 -0.220915 -0.008782
0.000417 -0.220915 -0.008782
0.000417 -0.220915 -0.008782
0.506047 0.079931 -0.357859
0.523527 0.090070 -0.350870
2.862329 1.478269 -1.779738
3.017653 1.569032 -1.771465
3.200375 1.675883 -1.770909
3.407931 1.798075 -1.773643
3.598584 1.909308 -1.756840
3.846778 2.054395 -1.755415
4.122075 2.216238 -1.753232
4.411127 2.385030 -1.741597
4.767968 2.593575 -1.738210
5.156068 2.821431 -1.727349
5.610069 3.086641 -1.715737
6.143106 3.399429 -1.700584
6.806996 3.787452 -1.690387
7.592291 4.246278 -1.671286
7.991722 4.526442 -1.538909
8.090752 4.583325 -1.334194
8.139109 4.608176 -1.116820
8.169294 4.622202 -0.897802
8.163383 4.616743 -0.675320
17.000074 9.845229 -0.936402
0.000397 -0.220587 -0.008768
78.966400 46.480251 -0.038059
0.000397 -0.220587 -0.008768
0.000397 -0.220587 -0.008768
0.000397 -0.220587 -0.008768
0.000397 -0.220587 -0.008768
0.000397 -0.220587 -0.008768
0.000397 -0.220587 -0.008768
0.000397 -0.220587 -0.008768
0.000397 -0.220587 -0.008768
0.498868 0.072140 -0.351721
0.529833 0.090057 -0.353796
2.872047 1.462085 -1.779723
3.024827 1.550166 -1.769654
3.209679 1.656850 -1.770037
3.419486 1.778748 -1.773627
3.609189 1.887956 -1.756053
3.863041 2.034436 -1.756855
4.134411 2.191854 -1.752531
4.430979 2.362803 -1.743503
4.787394 2.568337 -1.739386
5.171834 2.791061 -1.726781
5.635716 3.058521 -1.717749
6.168917 3.367292 -1.701952
6.831665 3.749522 -1.690785
7.622992 4.205792 -1.672381
7.984862 4.460711 -1.532394
8.109750 4.532003 -1.332781
8.137623 4.544493 -1.112849
8.155787 4.551280 -0.893310
8.154951 4.548861 -0.672359
18.908552 10.829052 -1.037031
0.000399 -0.220236 -0.008754
0.000399 -0.220236 -0.008754
0.000399 -0.220236 -0.008754
23.971766 13.748261 1.276206
23.619614 13.537460 1.893856
0.000399 -0.220236 -0.008754
0.000399 -0.220236 -0.008754
0.000399 -0.220236 -0.008754
0.000399 -0.220236 -0.008754
0.000399 -0.220236 -0.008754
0.506503 0.073064 -0.355789
0.527088 0.084736 -0.350841
2.872528 1.440572 -1.774070
3.038048 1.534832 -1.771435
3.222013 1.639596 -1.770877
3.434112 1.761200 -1.775240
3.621284 1.867495 -1.756037
3.872726 2.010632 -1.755383
4.153124 2.171167 -1.754569
4.447426 2.338536 -1.744128
4.806687 2.542974 -1.740562
5.189093 2.761576 -1.726765
5.654497 3.026351 -1.717732
6.197908 3.336891 -1.704244
6.851012 3.708508 -1.689935
7.651747 4.164103 -1.673105
7.986078 4.400186 -1.527503
8.167844 4.503417 -1.337784
8.175245 4.503860 -1.114226
8.141748 4.480690 -0.888818
8.154632 4.486209 -0.670099
0.000401 -0.219886 -0.008740
0.000401 -0.219886 -0.008740
80.729523 46.277096 -0.038403
0.000401 -0.219886 -0.008740
24.044859 13.606333 1.275862
23.714006 13.410509 1.895132
0.000401 -0.219886 -0.008740
0.000401 -0.219886 -0.008740
0.000401 -0.219886 -0.008740
0.000401 -0.219886 -0.008740
0.000401 -0.219886 -0.008740
0.506685 0.069635 -0.354755
0.524278 0.079439 -0.347887
2.883580 1.425226 -1.774994
3.048117 1.517666 -1.771419
3.235804 1.623140 -1.772575
3.443886 1.740842 -1.774410
3.639647 1.850588 -1.759107
3.887124 1.989555 -1.756095
4.168444 2.148470 -1.755238
4.465380 2.315096 -1.745393
4.822516 2.515591 -1.740546
5.211177 2.734818 -1.728404
5.676471 2.995993 -1.718730
6.223372 3.304366 -1.705612
6.883734 3.675112 -1.692417
7.685431 4.125156 -1.674942
7.985134 4.338815 -1.522287
8.100290 4.402650 -1.322423
8.128118 4.414746 -1.104207
8.139267 4.417315 -0.885631
8.181584 4.439507 -0.670081
17.154058 9.541201 -0.935396
0.000403 -0.219537 -0.008726
0.000403 -0.219537 -0.008726
0.000403 -0.219537 -0.008726
22.346468 12.459388 1.181229
23.597719 13.163822 1.879604
0.000403 -0.219537 -0.008726
0.000403 -0.219537 -0.008726
0.000403 -0.219537 -0.008726
21.741093 12.075490 4.086598
0.000403 -0.219537 -0.008726
0.506850 0.066223 -0.353720
0.536625 0.082754 -0.354734
2.896067 1.410656 -1.776858
3.054949 1.498671 -1.769608
3.246354 1.604813 -1.772559
3.453868 1.719828 -1.773580
3.651525 1.829956 -1.759091
3.901400 1.968385 -1.756808
4.182435 2.124055 -1.755221
4.481564 2.290618 -1.746018
4.841527 2.489992 -1.741722
5.228630 2.704206 -1.728387
5.694908 2.963609 -1.718712
6.247571 3.269623 -1.706518
6.905015 3.633595 -1.691983
7.716215 4.082688 -1.676037
7.985451 4.278563 -1.517396
8.094794 4.336411 -1.317104
8.120049 4.348733 -1.099537
8.138052 4.355093 -0.882630
8.210816 4.392200 -0.670203
17.368515 9.531606 -0.943909
0.000405 -0.219187 -0.008713
0.000405 -0.219187 -0.008713
0.000405 -0.219187 -0.008713
22.603918 12.434305 1.191064
22.995867 12.643107 1.825328
23.641945 12.993587 2.509347
0.000405 -0.219187 -0.008713
0.000405 -0.219187 -0.008713
21.953253 12.024486 4.112836
0.000405 -0.219187 -0.008713
0.502527 0.060224 -0.349622
0.530780 0.075675 -0.349819
2.910333 1.396375 -1.779661
3.065088 1.480860 -1.769592
3.249210 1.581479 -1.768262
3.464959 1.700234 -1.773565
3.660375 1.806798 -1.757533
3.915946 1.946450 -1.757520
4.207355 2.106624 -1.759998
4.501338 2.267063 -1.747924
4.855846 2.460642 -1.741109
5.243695 2.673464 -1.727818
5.717065 2.931960 -1.719710
6.270963 3.235807 -1.707424
6.937377 3.599780 -1.694463
7.746046 4.041388 -1.677131
7.986114 4.217071 -1.512505
8.093193 4.274686 -1.312622
8.120953 4.286364 -1.096030
8.133698 4.289695 -0.879257
