# This PCD file was generated using the MATLAB® pcwrite function
# from Computer Vision Toolbox®.
# .PCD v.7 - Point Cloud Data file format
VERSION .7
FIELDS x y z
SIZE 4 4 4
TYPE F F F
COUNT 1 1 1
WIDTH 1628
HEIGHT 1
VIEWPOINT 0 0 0 1 0 0 0
POINTS 1628
DATA ascii
5.634615 -2.178431 -1.874555
6.133025 -2.358860 -1.875302
6.725583 -2.572115 -1.877721
7.308233 -2.783447 -1.847240
7.406811 -2.820186 -1.680301
7.486728 -2.851731 -1.506497
7.522895 -2.830639 -1.319119
7.515543 -2.829462 -1.128508
7.529805 -2.837450 -0.940811
20.884848 -7.585032 -2.078565
20.981573 -7.623391 -1.567914
21.590981 -7.848385 -1.079659
0.000372 -0.165361 -0.006253
0.000372 -0.165361 -0.006253
28.635994 -10.383061 0.693418
53.072857 -19.112757 2.610186
62.974892 -22.672306 4.656417
0.000372 -0.165361 -0.006253
0.000372 -0.165361 -0.006253
53.205280 -19.232199 7.925097
0.000372 -0.165361 -0.006253
0.000372 -0.165361 -0.006253
2.940442 -1.224940 -1.860552
3.094869 -1.281794 -1.855561
3.272050 -1.346377 -1.856665
3.462724 -1.416554 -1.855612
3.673387 -1.494138 -1.856120
3.935612 -1.590554 -1.870757
4.174520 -1.677883 -1.861796
4.476317 -1.789013 -1.866640
4.803041 -1.909442 -1.867182
5.171479 -2.044251 -1.866596
5.626520 -2.211811 -1.875725
6.125705 -2.395781 -1.876934
6.722524 -2.614436 -1.880738
7.298523 -2.827149 -1.848599
7.407470 -2.869782 -1.684021
7.479890 -2.899134 -1.508325
7.513457 -2.874281 -1.320068
7.513118 -2.877062 -1.130434
7.511033 -2.877762 -0.940321
21.618372 -7.981525 -2.155599
20.771305 -7.683328 -1.555414
21.555235 -7.971236 -1.079985
0.000355 -0.165035 -0.006240
0.000355 -0.165035 -0.006240
27.623755 -10.195785 0.670102
52.925304 -19.404087 2.608433
54.097942 -19.851442 4.007595
0.000355 -0.165035 -0.006240
0.000355 -0.165035 -0.006240
53.068531 -19.528429 7.921308
0.000355 -0.165035 -0.006240
0.000355 -0.165035 -0.006240
2.937340 -1.243206 -1.862575
3.088184 -1.299802 -1.855543
3.261662 -1.364218 -1.854768
3.465288 -1.440456 -1.860980
3.675611 -1.519323 -1.861237
3.927335 -1.612859 -1.870738
4.163738 -1.701649 -1.861005
4.468342 -1.815859 -1.867348
4.798219 -1.938674 -1.869215
5.170903 -2.078505 -1.870418
5.616070 -2.245480 -1.876298
6.114548 -2.431361 -1.877463
6.706055 -2.653272 -1.880207
7.294016 -2.872863 -1.851343
7.397260 -2.914113 -1.685245
7.425336 -2.927435 -1.500515
7.497257 -2.918467 -1.320042
7.510380 -2.924733 -1.132360
7.517182 -2.930164 -0.943083
20.807348 -7.827847 -2.079399
20.692087 -7.789386 -1.552707
28.653574 -10.734312 -1.436621
0.000361 -0.164688 -0.006227
0.000361 -0.164688 -0.006227
27.333082 -10.273861 0.664503
0.000361 -0.164688 -0.006227
62.627285 -23.364260 4.650396
29.303295 -11.031160 2.903181
0.000361 -0.164688 -0.006227
52.946850 -19.829916 7.920022
0.000361 -0.164688 -0.006227
17.245539 -6.583345 3.456866
2.931082 -1.259762 -1.862558
3.078336 -1.316001 -1.853565
3.262980 -1.385726 -1.859446
3.446169 -1.455662 -1.854677
3.662910 -1.537586 -1.858650
3.920646 -1.635749 -1.871532
4.165177 -1.729161 -1.865613
4.460807 -1.841090 -1.868055
4.793201 -1.967923 -1.871247
5.163687 -2.108342 -1.871677
5.604360 -2.276474 -1.876276
6.104997 -2.467549 -1.878543
6.693879 -2.691011 -1.880689
7.285585 -2.917231 -1.853164
7.400092 -2.961954 -1.689381
7.378533 -2.956702 -1.494188
7.494223 -2.966086 -1.322289
7.507349 -2.972451 -1.134285
7.517870 -2.979340 -0.945149
20.865446 -7.985634 -2.089591
20.530151 -7.863942 -1.543845
29.523661 -11.248501 -1.483155
0.000366 -0.164341 -0.006214
0.000366 -0.164341 -0.006214
27.540131 -10.530780 0.671097
29.226740 -11.171325 1.443936
0.000366 -0.164341 -0.006214
29.158308 -11.162656 2.894900
16.717012 -6.476416 2.079773
16.926287 -6.562071 2.533149
17.157171 -6.652683 3.003626
0.000366 -0.164341 -0.006214
2.926521 -1.276391 -1.863560
3.073474 -1.333465 -1.854527
3.252807 -1.402334 -1.857549
3.450608 -1.478988 -1.860943
3.654943 -1.558316 -1.858631
3.913811 -1.658618 -1.872327
4.151212 -1.750072 -1.863279
4.452815 -1.867079 -1.868762
4.784476 -1.995841 -1.871910
5.147091 -2.135680 -1.869734
5.595681 -2.309730 -1.877446
6.093432 -2.503012 -1.879071
6.677415 -2.728482 -1.880158
7.287766 -2.965794 -1.857754
7.394331 -3.009674 -1.691853
7.343505 -2.993019 -1.490455
7.424965 -2.987211 -1.312849
7.502168 -3.019516 -1.135932
7.515025 -3.025890 -0.946750
16.132502 -6.314127 -1.620373
16.157310 -6.329962 -1.218929
0.000372 -0.163993 -0.006201
16.183788 -6.349571 -0.411878
16.199152 -6.361860 -0.009638
16.201277 -6.365828 0.393116
16.213987 -6.377075 0.800074
16.232849 -6.390718 1.206073
0.000372 -0.163993 -0.006201
16.274284 -6.416206 2.029027
16.273577 -6.422351 2.440633
16.284027 -6.432806 2.856965
16.294888 -6.440173 3.280130
2.918264 -1.292777 -1.862522
3.072989 -1.353856 -1.858429
3.248694 -1.422551 -1.859410
3.437740 -1.497167 -1.858231
3.646609 -1.579635 -1.858612
3.905149 -1.680785 -1.872307
4.148609 -1.777009 -1.866344
4.446105 -1.894482 -1.870198
4.779102 -2.025070 -1.873943
5.145908 -2.169962 -1.873556
5.589976 -2.345320 -1.879807
6.081651 -2.538425 -1.879599
6.672881 -2.771954 -1.883175
7.276958 -3.009495 -1.859113
7.376001 -3.051156 -1.691411
7.314279 -3.029905 -1.487835
7.398878 -3.027316 -1.311200
7.435732 -3.043023 -1.128380
7.501613 -3.071526 -0.947189
20.922497 -8.282386 -2.104388
20.531256 -8.134580 -1.550604
28.682713 -11.310671 -1.447288
28.709888 -11.332611 -0.727461
0.000355 -0.163667 -0.006189
27.521362 -10.886534 0.673749
28.978779 -11.465873 1.438218
28.002932 -11.090727 2.089812
0.000355 -0.163667 -0.006189
0.000355 -0.163667 -0.006189
0.000355 -0.163667 -0.006189
0.000355 -0.163667 -0.006189
0.000355 -0.163667 -0.006189
2.913321 -1.309847 -1.863525
3.064473 -1.370543 -1.857431
3.241399 -1.440892 -1.859391
3.430009 -1.516598 -1.858212
3.643430 -1.602272 -1.861161
3.898039 -1.703587 -1.873101
4.140951 -1.801227 -1.867096
4.434338 -1.919027 -1.869449
4.766574 -2.051513 -1.873237
5.128983 -2.197131 -1.871612
5.573762 -2.375736 -1.878593
6.071440 -2.574497 -1.880680
6.664943 -2.812858 -1.885178
7.278525 -3.058213 -1.863702
7.281087 -3.062142 -1.673489
7.284866 -3.066552 -1.485215
7.371250 -3.065197 -1.309227
7.417171 -3.084743 -1.128076
8.787584 -3.628028 -1.110965
21.038382 -8.466751 -2.120723
20.613050 -8.302905 -1.560209
0.000361 -0.163320 -0.006176
0.000361 -0.163320 -0.006176
27.756544 -11.151307 -0.011995
28.665535 -11.522568 0.703684
27.473988 -11.061307 1.366378
28.596001 -11.512011 2.139123
28.216099 -11.372470 2.820375
0.000361 -0.163320 -0.006176
0.000361 -0.163320 -0.006176
0.000361 -0.163320 -0.006176
0.000361 -0.163320 -0.006176
2.901875 -1.324353 -1.860445
3.050996 -1.385240 -1.853493
3.233986 -1.459199 -1.859373
3.425484 -1.537313 -1.859989
3.633418 -1.622206 -1.860285
3.895614 -1.729074 -1.876337
4.131463 -1.824695 -1.867075
4.424153 -1.944195 -1.869429
4.755291 -2.079419 -1.873216
5.118928 -2.227016 -1.872231
5.569776 -2.411036 -1.881551
6.057033 -2.610134 -1.880656
6.651377 -2.851573 -1.885661
7.275650 -3.106850 -1.867369
7.242001 -3.096141 -1.668469
7.280262 -3.114553 -1.487784
7.358072 -3.108733 -1.309851
7.429130 -3.140139 -1.132510
7.528471 -3.181445 -0.954805
21.025326 -8.601524 -2.124211
0.000367 -0.162973 -0.006163
29.423643 -11.989809 -1.491134
53.450302 -21.668810 -1.354940
27.635220 -11.293030 -0.011921
28.597809 -11.686353 0.703700
27.166193 -11.120357 1.354191
0.000367 -0.162973 -0.006163
28.154633 -11.541580 2.820994
0.000367 -0.162973 -0.006163
0.000367 -0.162973 -0.006163
0.000367 -0.162973 -0.006163
0.000367 -0.162973 -0.006163
2.906090 -1.345747 -1.867571
3.050153 -1.405609 -1.857394
3.226232 -1.478032 -1.859354
3.422235 -1.559299 -1.862663
3.629719 -1.645447 -1.862834
3.886246 -1.751828 -1.876317
4.128359 -1.851639 -1.870140
4.418668 -1.972202 -1.871592
4.749041 -2.109411 -1.875248
5.115371 -2.260596 -1.875412
5.551045 -2.441525 -1.879740
6.044186 -2.646420 -1.881184
6.638894 -2.892117 -1.886650
7.258059 -3.149625 -1.867343
7.347485 -3.189369 -1.696744
7.286246 -3.167092 -1.492577
7.362401 -3.160928 -1.313720
7.393000 -3.176345 -1.129696
7.481002 -3.213713 -0.951061
21.017302 -8.743091 -2.128442
20.690445 -8.617971 -1.573401
29.044144 -12.037563 -1.475446
0.000350 -0.162646 -0.006151
28.662472 -11.904545 -0.012085
28.523367 -11.853227 0.703626
27.237467 -11.337133 1.361118
18.469147 -7.747205 1.386134
0.000350 -0.162646 -0.006151
0.000350 -0.162646 -0.006151
0.000350 -0.162646 -0.006151
0.000350 -0.162646 -0.006151
0.000350 -0.162646 -0.006151
2.899431 -1.361617 -1.867553
3.043160 -1.422279 -1.857376
3.218852 -1.495665 -1.859335
3.409424 -1.575992 -1.859951
3.623041 -1.666049 -1.863671
3.879016 -1.773842 -1.877111
4.122282 -1.875727 -1.871662
4.405064 -1.995062 -1.870115
4.743297 -2.137724 -1.877280
5.107079 -2.290234 -1.876671
5.543522 -2.474343 -1.881506
6.039096 -2.683486 -1.883919
6.632456 -2.932547 -1.889160
7.264616 -3.199512 -1.873316
7.348504 -3.237567 -1.700881
7.447006 -3.281801 -1.528877
7.380191 -3.215983 -1.319862
7.471195 -3.256649 -1.144164
7.484046 -3.263446 -0.953590
20.994808 -8.870660 -2.130999
20.904570 -8.841656 -1.593217
28.846375 -12.144817 -1.468741
0.000352 -0.162295 -0.006138
0.000352 -0.162295 -0.006138
28.326580 -11.957405 0.700419
28.122486 -11.883789 1.408871
27.857777 -11.784692 2.098824
0.000352 -0.162295 -0.006138
0.000352 -0.162295 -0.006138
0.000352 -0.162295 -0.006138
0.000352 -0.162295 -0.006138
0.000352 -0.162295 -0.006138
2.890678 -1.377793 -1.866515
3.045257 -1.444047 -1.863238
3.217385 -1.517151 -1.863074
3.407573 -1.598626 -1.863523
3.610734 -1.685766 -1.861940
3.873037 -1.797236 -1.878719
4.106937 -1.897667 -1.869329
4.397543 -2.022279 -1.871550
4.726661 -2.162460 -1.875206
5.090878 -2.318678 -1.875368
5.540262 -2.511317 -1.885059
6.026254 -2.718628 -1.884447
6.612358 -2.969982 -1.888121
7.254158 -3.244013 -1.875137
7.345068 -3.285626 -1.704185
7.443377 -3.330462 -1.531817
7.469271 -3.304528 -1.338988
7.473339 -3.307726 -1.147205
7.480158 -3.313626 -0.955423
20.979477 -9.010203 -2.134672
20.617113 -8.861506 -1.575122
29.775944 -12.738287 -1.519564
0.000358 -0.161948 -0.006125
31.176233 -13.348596 -0.012502
27.860220 -11.957329 0.690583
18.262732 -7.901321 0.915102
27.935480 -12.006123 2.109877
18.080570 -7.835083 1.822566
0.000358 -0.161948 -0.006125
0.000358 -0.161948 -0.006125
0.000358 -0.161948 -0.006125
0.000358 -0.161948 -0.006125
2.878898 -1.392039 -1.863435
3.033033 -1.459149 -1.860280
3.204660 -1.533231 -1.860238
3.399228 -1.617900 -1.863504
3.606890 -1.708325 -1.864488
3.858505 -1.817026 -1.876258
4.103661 -1.923857 -1.872393
4.391888 -2.049444 -1.873713
4.723690 -2.193025 -1.878606
5.085326 -2.350625 -1.877909
5.526627 -2.542858 -1.885037
6.004377 -2.749899 -1.882217
6.601396 -3.009986 -1.889618
7.259514 -3.295427 -1.881111
7.335954 -3.331395 -1.706239
7.518825 -3.413487 -1.551066
7.461936 -3.351806 -1.340910
7.464195 -3.354272 -1.148572
7.458232 -3.354747 -0.954932
20.695702 -9.030933 -2.110981
20.660185 -9.019851 -1.582207
28.849339 -12.542840 -1.476003
0.000363 -0.161601 -0.006112
31.763096 -13.812673 -0.012569
27.437344 -11.964735 0.681757
26.999969 -11.787599 1.359259
16.641802 -7.330729 1.257564
17.968412 -7.909565 1.815750
17.657251 -7.782600 2.239212
0.000363 -0.161601 -0.006112
0.000363 -0.161601 -0.006112
0.000363 -0.161601 -0.006112
2.881230 -1.412369 -1.869540
3.027104 -1.476955 -1.861242
3.199947 -1.552731 -1.862098
3.385881 -1.634961 -1.860792
3.591301 -1.725838 -1.861045
3.855609 -1.841798 -1.879494
4.091744 -1.946392 -1.871602
4.375822 -2.072129 -1.871509
4.703311 -2.216084 -1.875163
5.072636 -2.379534 -1.877887
5.514573 -2.575070 -1.885611
5.998168 -2.787958 -1.884952
6.599057 -3.053832 -1.893648
7.252043 -3.341528 -1.883854
7.337263 -3.381918 -1.710792
7.476578 -3.446119 -1.546221
7.523079 -3.428985 -1.355167
7.456573 -3.401610 -1.150219
7.456115 -3.404433 -0.956997
20.786711 -9.211621 -2.125451
20.405798 -9.049906 -1.566631
29.121851 -12.858540 -1.493524
28.989286 -12.812627 -0.746300
27.944817 -12.362447 -0.011745
31.150467 -13.774852 0.776869
18.269394 -8.152894 0.920110
17.813881 -7.957248 1.349997
0.000347 -0.161275 -0.006099
17.831388 -7.979530 2.267088
0.000347 -0.161275 -0.006099
0.000347 -0.161275 -0.006099
65.526611 -28.959183 13.465684
2.875556 -1.429292 -1.870543
3.027459 -1.497541 -1.866124
3.191882 -1.570796 -1.862080
3.382237 -1.656268 -1.863467
3.595441 -1.752019 -1.867874
3.839202 -1.860660 -1.876219
4.083095 -1.970323 -1.872353
4.368165 -2.098454 -1.872944
4.694828 -2.244328 -1.876511
5.064983 -2.410667 -1.879787
5.504088 -2.607983 -1.886780
5.984706 -2.822893 -1.885480
6.582305 -3.091434 -1.893623
7.246064 -3.388432 -1.887058
7.332892 -3.430147 -1.714096
7.419845 -3.471964 -1.538411
7.466231 -3.455174 -1.348324
7.443226 -3.446555 -1.151029
7.451838 -3.453412 -0.958830
20.907249 -9.407364 -2.143086
20.686340 -9.313848 -1.592040
28.810783 -12.920524 -1.481300
29.372923 -13.181594 -0.757933
27.844843 -12.509854 -0.011677
30.985649 -13.915550 0.774772
0.000352 -0.160927 -0.006086
0.000352 -0.160927 -0.006086
16.542515 -7.521129 1.679742
0.000352 -0.160927 -0.006086
0.000352 -0.160927 -0.006086
0.000352 -0.160927 -0.006086
66.264259 -29.739485 13.652265
2.872904 -1.447610 -1.873587
3.010173 -1.510327 -1.860225
3.190157 -1.591704 -1.865818
3.373569 -1.675382 -1.863448
3.576327 -1.767913 -1.862719
3.832373 -1.884578 -1.877827
4.070918 -1.992717 -1.871562
4.360331 -2.124769 -1.874379
4.687536 -2.274114 -1.878543
5.058848 -2.442579 -1.882328
5.493376 -2.640878 -1.887950
5.972313 -2.859597 -1.886559
6.570614 -3.131338 -1.895119
7.246295 -3.439849 -1.892109
7.311588 -3.472448 -1.713653
7.416189 -3.522885 -1.541721
7.430922 -3.490518 -1.345376
7.450726 -3.502459 -1.155183
7.449063 -3.503250 -0.960895
20.862730 -9.531362 -2.143967
20.724476 -9.477806 -1.599123
29.015574 -13.211289 -1.495547
29.089615 -13.256616 -0.752534
32.318707 -14.723723 -0.012520
18.015078 -8.281986 0.449118
17.504171 -8.058881 0.885956
17.139662 -7.901505 1.305559
0.000358 -0.160580 -0.006073
17.434273 -8.045344 2.227980
0.000358 -0.160580 -0.006073
68.835342 -31.349392 12.395731
0.000358 -0.160580 -0.006073
2.862100 -1.462855 -1.871527
3.010030 -1.531452 -1.865107
3.175177 -1.607343 -1.862043
3.362906 -1.694283 -1.862531
3.566737 -1.788756 -1.862700
3.824047 -1.907035 -1.878621
4.061666 -2.017255 -1.872313
4.348602 -2.150266 -1.874359
4.680402 -2.303092 -1.880575
5.043504 -2.471419 -1.881665
5.480305 -2.673880 -1.888523
5.960154 -2.895221 -1.887639
6.563405 -3.174793 -1.898136
7.244958 -3.489325 -1.896698
7.306608 -3.520703 -1.716957
7.409198 -3.570952 -1.544289
7.428983 -3.542398 -1.348596
7.442156 -3.549910 -1.156829
7.443560 -3.553640 -0.962727
17.431721 -8.114545 -1.797131
17.463501 -8.132613 -1.351918
0.000363 -0.160233 -0.006060
0.000363 -0.160233 -0.006060
0.000363 -0.160233 -0.006060
17.530287 -8.188568 0.438109
0.000363 -0.160233 -0.006060
17.682371 -8.269215 1.350688
17.155737 -8.034839 1.751587
17.484636 -8.193105 2.240549
0.000363 -0.160233 -0.006060
70.617874 -32.648148 12.750523
69.855804 -32.326664 14.469383
2.859221 -1.481156 -1.874571
2.992590 -1.544032 -1.859209
3.170017 -1.626728 -1.863902
3.358877 -1.715541 -1.865206
3.557304 -1.808925 -1.862680
3.813623 -1.929348 -1.878601
4.050905 -2.040274 -1.872293
4.345521 -2.178857 -1.877977
4.674419 -2.333658 -1.883291
5.033538 -2.501692 -1.882924
5.472662 -2.708282 -1.890885
5.957755 -2.936701 -1.892029
6.540675 -3.209750 -1.896591
7.242711 -3.540147 -1.901286
7.297186 -3.568614 -1.719427
7.401284 -3.620350 -1.546857
7.423726 -3.591396 -1.351167
7.434489 -3.599492 -1.158754
7.450930 -3.608629 -0.966186
20.872812 -9.830044 -2.156337
20.796921 -9.803578 -1.613149
29.154606 -13.685157 -1.510566
28.513775 -13.399796 -0.741551
27.802427 -13.081113 -0.011522
18.067566 -8.560497 0.452986
17.513865 -8.310366 0.891335
0.000347 -0.159907 -0.006048
0.000347 -0.159907 -0.006048
17.081640 -8.127039 2.194668
0.000347 -0.159907 -0.006048
0.000347 -0.159907 -0.006048
71.198898 -33.443054 14.787312
2.859128 -1.501401 -1.879655
2.992213 -1.565133 -1.864091
3.158056 -1.643675 -1.862005
3.356063 -1.738140 -1.868777
3.559187 -1.834442 -1.868653
3.800062 -1.949385 -1.876954
4.043015 -2.065512 -1.873815
4.327070 -2.200343 -1.875045
4.660124 -2.359399 -1.882585
5.025113 -2.532724 -1.884824
5.466525 -2.743496 -1.893842
5.938203 -2.968967 -1.890901
6.524774 -3.247833 -1.897073
7.238954 -3.588957 -1.905414
7.286869 -3.613167 -1.721483
7.396043 -3.668031 -1.549797
7.421095 -3.643435 -1.354386
7.427117 -3.647792 -1.160678
7.446527 -3.660032 -0.968250
20.615053 -9.859288 -2.135625
20.847542 -9.972979 -1.621351
29.028660 -13.836277 -1.508162
28.306833 -13.502064 -0.738119
0.000353 -0.159559 -0.006035
26.750200 -12.790835 0.675541
17.349205 -8.355289 0.885347
16.572666 -7.995429 1.272570
0.000353 -0.159559 -0.006035
0.000353 -0.159559 -0.006035
17.291574 -8.353477 2.679690
0.000353 -0.159559 -0.006035
72.831436 -34.718349 15.167768
2.848482 -1.515530 -1.877597
2.984320 -1.581479 -1.864073
3.148116 -1.660197 -1.861048
3.340731 -1.753451 -1.865168
3.549495 -1.854560 -1.868634
3.796602 -1.973390 -1.880190
4.033957 -2.088531 -1.874566
4.315240 -2.224894 -1.875025
4.644382 -2.383422 -1.881196
5.014781 -2.562922 -1.886083
5.453271 -2.775424 -1.894416
5.929356 -3.005072 -1.893085
6.512098 -3.287545 -1.898569
7.240754 -3.639090 -1.910925
7.284497 -3.663205 -1.725618
7.391666 -3.717888 -1.553106
7.426471 -3.696359 -1.358905
7.430767 -3.699946 -1.164275
7.430453 -3.702927 -0.968688
20.797794 -10.087140 -2.160145
20.767202 -10.076876 -1.619344
28.652611 -13.854819 -1.492574
28.601086 -13.842269 -0.747689
27.313116 -13.231766 -0.011331
26.993017 -13.089978 0.683617
18.296139 -8.931503 0.936626
16.429728 -8.040030 1.264958
17.013531 -8.327291 1.751348
16.922472 -8.290737 2.186173
17.045626 -8.353450 2.648597
73.433952 -35.492352 13.367963
73.511299 -35.560684 15.351783
2.839087 -1.530812 -1.876558
2.974522 -1.597532 -1.863074
3.141018 -1.678724 -1.861968
3.329887 -1.771544 -1.864251
3.538054 -1.873838 -1.867759
3.784139 -1.994736 -1.879356
4.022786 -2.111386 -1.874546
4.306641 -2.250983 -1.876460
4.639561 -2.414702 -1.884596
4.997438 -2.589774 -1.884780
5.436392 -2.805617 -1.893797
5.914104 -3.040697 -1.893612
6.502684 -3.328882 -1.901078
7.233961 -3.688488 -1.914591
7.272365 -3.710321 -1.727673
7.426917 -3.788967 -1.564940
7.414865 -3.743019 -1.360501
7.423893 -3.750528 -1.166478
7.427791 -3.753983 -0.970985
20.820917 -10.245481 -2.168470
20.352539 -10.027233 -1.591600
22.224539 -10.939553 -1.162217
28.777212 -14.130424 -0.754266
0.000341 -0.158886 -0.006010
68.385330 -33.404091 1.746156
0.000341 -0.158886 -0.006010
16.443661 -8.166734 1.269733
16.773232 -8.334389 1.731550
16.598619 -8.252741 2.150263
0.000341 -0.158886 -0.006010
74.620392 -36.609673 13.623345
75.947960 -37.274120 15.905396
2.832445 -1.548048 -1.877560
2.962805 -1.613278 -1.861096
3.136703 -1.699327 -1.864767
3.325091 -1.793281 -1.866925
3.531048 -1.896068 -1.869451
3.769896 -2.015208 -1.877709
4.012798 -2.135684 -1.875297
4.297485 -2.277816 -1.877894
4.626107 -2.441839 -1.884574
4.984634 -2.619874 -1.885399
5.418899 -2.836624 -1.893178
5.900337 -3.077112 -1.894692
6.478556 -3.364497 -1.899533
7.219879 -3.734452 -1.916410
7.265181 -3.760025 -1.730976
7.424626 -3.842228 -1.568990
7.471428 -3.824859 -1.374756
7.413111 -3.799419 -1.168124
7.417031 -3.802902 -0.972352
20.826813 -10.401024 -2.175305
20.622995 -10.309595 -1.617283
21.934353 -10.959682 -1.150381
28.627453 -14.267880 -0.752469
30.151428 -15.031895 -0.011779
0.000347 -0.158539 -0.005997
17.857342 -8.978700 0.919361
18.132507 -9.122371 1.404911
17.972038 -9.050725 1.861218
16.961546 -8.554320 2.203890
16.767933 -8.465649 2.620608
16.880980 -8.528900 3.086301
0.000347 -0.158539 -0.005997
2.836951 -1.569637 -1.885706
2.954629 -1.629460 -1.861078
3.132507 -1.719392 -1.867567
3.315896 -1.811491 -1.866907
3.511580 -1.910575 -1.864296
3.761109 -2.036696 -1.878502
4.009590 -2.162547 -1.879132
4.288918 -2.303099 -1.879329
4.614953 -2.468143 -1.885237
4.973778 -2.649878 -1.886657
5.403387 -2.867439 -1.893155
5.887392 -3.111385 -1.895771
6.470362 -3.406613 -1.902549
7.202629 -3.777387 -1.917307
7.256554 -3.807610 -1.733863
7.368814 -3.865628 -1.561552
7.427852 -3.854762 -1.370510
7.408630 -3.848347 -1.170606
7.410781 -3.851009 -0.974184
20.696245 -10.480369 -2.167624
20.733789 -10.508008 -1.630379
21.625141 -10.962266 -1.137424
0.000349 -0.158187 -0.005984
0.000349 -0.158187 -0.005984
0.000349 -0.158187 -0.005984
0.000349 -0.158187 -0.005984
16.537605 -8.448788 1.284433
0.000349 -0.158187 -0.005984
17.127707 -8.759385 2.232002
0.000349 -0.158187 -0.005984
16.795183 -8.603171 3.079219
0.000349 -0.158187 -0.005984
2.829815 -1.587372 -1.886708
2.953379 -1.651061 -1.865959
3.115316 -1.733622 -1.862852
3.307347 -1.832166 -1.867785
3.510804 -1.935934 -1.869413
3.751522 -2.059470 -1.879296
3.991050 -2.182618 -1.876027
4.281101 -2.330698 -1.881492
4.602836 -2.496002 -1.885900
4.961021 -2.679012 -1.887276
5.387682 -2.898185 -1.893132
5.861206 -3.141560 -1.892989
6.453262 -3.444369 -1.903031
7.178202 -3.816696 -1.916358
7.248262 -3.853955 -1.736750
7.356092 -3.912131 -1.563378
7.382241 -3.888146 -1.366264
7.402493 -3.899959 -1.173087
7.405818 -3.904825 -0.976480
20.561750 -10.570265 -2.160126
20.752106 -10.671082 -1.636620
21.304081 -10.959934 -1.123906
29.181669 -14.960486 -0.771182
0.000355 -0.157840 -0.005971
0.000355 -0.157840 -0.005971
16.244337 -8.415360 0.840732
18.108095 -9.370616 1.411267
0.000355 -0.157840 -0.005971
16.989386 -8.812444 2.220448
16.371176 -8.504586 2.573433
0.000355 -0.157840 -0.005971
86.170174 -44.147717 18.205614
2.834028 -1.609094 -1.894854
2.948102 -1.668777 -1.867901
3.114337 -1.754671 -1.867529
3.301126 -1.851901 -1.869561
3.503729 -1.957429 -1.871105
3.745725 -2.082550 -1.881718
3.978035 -2.203695 -1.875236
4.265201 -2.353275 -1.880015
4.589715 -2.521323 -1.885879
4.949791 -2.708934 -1.888535
5.368434 -2.927061 -1.891917
5.849563 -3.176564 -1.894621
6.434233 -3.481134 -1.903006
7.162858 -3.859053 -1.917716
7.244250 -3.904266 -1.740885
7.351823 -3.963110 -1.567058
7.384138 -3.940661 -1.370457
7.399125 -3.949912 -1.175848
7.402460 -3.954843 -0.978777
21.328773 -11.108450 -2.246807
21.191757 -11.042620 -1.675867
20.911160 -10.907595 -1.106370
0.000338 -0.157514 -0.005958
0.000338 -0.157514 -0.005958
0.000338 -0.157514 -0.005958
16.322586 -8.573436 0.847366
0.000338 -0.157514 -0.005958
0.000338 -0.157514 -0.005958
16.872206 -8.875134 2.211678
16.876762 -8.881105 2.660772
0.000338 -0.157514 -0.005958
0.000338 -0.157514 -0.005958
0.525422 -0.429954 -0.356987
2.942433 -1.687010 -1.869843
3.101959 -1.770606 -1.865632
3.288127 -1.868909 -1.867747
3.486890 -1.973899 -1.867662
3.734232 -2.104407 -1.881698
3.972744 -2.229631 -1.878301
4.255793 -2.379181 -1.881450
4.578943 -2.549911 -1.887226
4.931653 -2.735307 -1.887233
5.364235 -2.963790 -1.896067
5.845183 -3.218003 -1.899010
6.420122 -3.520494 -1.904502
7.154558 -3.908377 -1.921381
7.232285 -3.952297 -1.743355
7.344776 -4.014546 -1.570367
7.383240 -3.993706 -1.374325
7.397560 -4.004390 -1.179165
7.394563 -4.004407 -0.980608
20.458214 -10.810428 -2.161701
20.465097 -10.822970 -1.623513
21.049097 -11.131857 -1.116883
28.424280 -14.989668 -0.755620
0.000344 -0.157167 -0.005945
16.222658 -8.633094 0.415971
16.215427 -8.636399 0.844346
17.627783 -9.382687 1.381991
16.508205 -8.803977 1.729543
16.700298 -8.908198 2.195715
16.805386 -8.970641 2.657759
0.000344 -0.157167 -0.005945
0.000344 -0.157167 -0.005945
0.519216 -0.430330 -0.353912
2.933307 -1.704099 -1.869824
3.097011 -1.791121 -1.868431
3.282675 -1.890533 -1.870421
3.481174 -1.996134 -1.870211
3.724571 -2.126395 -1.882492
3.961993 -2.253705 -1.879052
4.241280 -2.402442 -1.880702
4.565100 -2.575891 -1.887205
4.923440 -2.766856 -1.889773
5.356405 -2.998779 -1.899025
5.827459 -3.251274 -1.898986
6.414337 -3.564312 -1.908532
7.125971 -3.945518 -1.919509
7.223059 -3.998726 -1.746242
7.338719 -4.063487 -1.573677
7.372572 -4.043542 -1.376570
7.392811 -4.055814 -1.181925
7.387421 -4.056214 -0.982672
20.479162 -10.975933 -2.170582
20.221666 -10.844276 -1.609058
21.227308 -11.385128 -1.129733
0.000349 -0.156820 -0.005932
0.000349 -0.156820 -0.005932
28.368906 -15.193925 0.734250
16.102781 -8.695605 0.841046
17.858093 -9.634293 1.404446
17.555431 -9.477456 1.845127
16.668926 -9.014132 2.198311
16.780582 -9.080877 2.661973
0.000349 -0.156820 -0.005932
0.000349 -0.156820 -0.005932
0.522229 -0.435317 -0.356960
2.921546 -1.718472 -1.867846
3.087826 -1.808060 -1.868413
3.271366 -1.907655 -1.869505
3.473705 -2.017524 -1.871903
3.711566 -2.146599 -1.881659
3.948610 -2.274572 -1.878260
4.231565 -2.428248 -1.882137
4.559362 -2.606257 -1.890605
4.906660 -2.793928 -1.889110
5.339957 -3.029233 -1.899002
5.812925 -3.286268 -1.900066
6.392901 -3.599940 -1.908000
7.110879 -3.989852 -1.921329
7.212191 -4.047676 -1.749128
7.327518 -4.113156 -1.576244
7.364670 -4.091760 -1.379141
7.382455 -4.104526 -1.183849
7.383040 -4.106443 -0.984969
20.386824 -11.072874 -2.167182
20.193186 -10.978127 -1.611665
21.049818 -11.441805 -1.123605
0.000355 -0.156472 -0.005919
0.000355 -0.156472 -0.005919
0.000355 -0.156472 -0.005919
28.483271 -15.471188 1.496934
0.000355 -0.156472 -0.005919
17.526119 -9.595270 1.847955
0.000355 -0.156472 -0.005919
0.000355 -0.156472 -0.005919
0.000355 -0.156472 -0.005919
0.000355 -0.156472 -0.005919
0.525110 -0.440518 -0.360007
2.910691 -1.734612 -1.866848
3.081084 -1.827690 -1.870273
3.264050 -1.928409 -1.871281
3.459436 -2.036027 -1.870172
3.703246 -2.169354 -1.883267
3.939216 -2.299387 -1.879782
4.218007 -2.452980 -1.882116
4.543531 -2.631231 -1.889900
4.890925 -2.822655 -1.889088
5.321144 -3.059611 -1.898383
5.799859 -3.322124 -1.901697
6.375738 -3.639341 -1.908989
7.098933 -4.035999 -1.924072
7.205108 -4.097256 -1.752848
7.387361 -4.200250 -1.594007
7.351605 -4.140686 -1.381061
7.378740 -4.157026 -1.186888
7.373446 -4.157413 -0.986800
21.515104 -11.841498 -2.294054
20.228703 -11.147236 -1.619445
28.541689 -15.676812 -1.526202
0.000338 -0.156146 -0.005907
0.000338 -0.156146 -0.005907
27.751381 -15.277899 0.722765
0.000338 -0.156146 -0.005907
17.344927 -9.618869 1.372524
27.956577 -15.420781 2.960605
0.000338 -0.156146 -0.005907
0.000338 -0.156146 -0.005907
0.000338 -0.156146 -0.005907
0.000338 -0.156146 -0.005907
0.534025 -0.448984 -0.367136
2.909195 -1.755205 -1.871729
3.068322 -1.843356 -1.868375
3.261631 -1.951136 -1.875750
3.458038 -2.060825 -1.875288
3.688401 -2.188534 -1.881619
3.925185 -2.320813 -1.878991
4.206350 -2.477785 -1.882823
4.532493 -2.658834 -1.891247
4.878786 -2.852288 -1.890347
5.309347 -3.092639 -1.900148
5.781538 -3.355124 -1.901673
6.358971 -3.677524 -1.909977
7.078165 -4.077428 -1.924507
7.204546 -4.150663 -1.758231
7.357078 -4.238568 -1.592498
7.421933 -4.233940 -1.398561
7.374674 -4.209600 -1.189927
7.371157 -4.210968 -0.989561
21.571304 -12.033059 -2.307213
20.179058 -11.270903 -1.620512
28.234888 -15.720984 -1.514544
56.342251 -31.241325 -1.510100
27.382286 -15.269289 -0.010860
27.495831 -15.344293 0.718404
31.353275 -17.489237 1.659091
27.680077 -15.464618 2.200928
27.810699 -15.549360 2.954549
0.000344 -0.155799 -0.005894
0.000344 -0.155799 -0.005894
0.000344 -0.155799 -0.005894
0.000344 -0.155799 -0.005894
0.529306 -0.450054 -0.365082
2.893840 -1.768201 -1.867791
3.055474 -1.858932 -1.866478
3.243436 -1.965194 -1.871243
3.439134 -2.075948 -1.870989
3.684253 -2.214497 -1.885668
3.912654 -2.343040 -1.878971
4.199411 -2.505270 -1.885713
4.522473 -2.688106 -1.893279
4.866490 -2.881846 -1.891606
5.297343 -3.125628 -1.901914
5.765815 -3.390907 -1.902752
6.347010 -3.718492 -1.912487
7.054785 -4.119005 -1.924480
7.192643 -4.199723 -1.761117
7.307036 -4.267346 -1.586912
7.367299 -4.258979 -1.392692
7.360870 -4.258731 -1.191572
7.365031 -4.262684 -0.991857
21.359982 -12.077153 -2.291900
23.030237 -13.019797 -1.854671
28.706341 -16.196802 -1.544579
54.586487 -30.683640 -1.467779
56.734020 -31.910311 -0.016095
56.359417 -31.713163 1.483623
27.612139 -15.628897 1.465193
27.552216 -15.607744 2.198071
27.562574 -15.626040 2.937923
0.000350 -0.155452 -0.005881
0.000350 -0.155452 -0.005881
0.000350 -0.155452 -0.005881
0.000350 -0.155452 -0.005881
0.526065 -0.451986 -0.364047
2.881192 -1.783282 -1.865813
3.049922 -1.879301 -1.869277
3.231072 -1.983199 -1.870327
3.428001 -2.095398 -1.870970
3.665968 -2.231746 -1.882393
3.907629 -2.370432 -1.882806
4.185811 -2.529074 -1.885692
4.504564 -2.711893 -1.891888
4.855649 -2.912294 -1.893506
5.283463 -3.157638 -1.903083
5.752100 -3.426570 -1.904383
6.328068 -3.755602 -1.912969
7.038604 -4.163083 -1.926300
7.185256 -4.248189 -1.764836
7.302736 -4.318460 -1.590962
7.335954 -4.298392 -1.391366
7.359546 -4.313366 -1.195167
7.357826 -4.315745 -0.994152
21.209143 -12.158234 -2.283285
22.820354 -13.075199 -1.843708
28.673237 -16.401953 -1.547875
53.997517 -30.763481 -1.456587
56.630222 -32.281563 -0.015989
27.937094 -16.016493 0.734996
30.534864 -17.498226 1.626271
27.976164 -16.057667 2.239340
0.000333 -0.155125 -0.005869
0.000333 -0.155125 -0.005869
0.000333 -0.155125 -0.005869
0.000333 -0.155125 -0.005869
0.000333 -0.155125 -0.005869
0.515424 -0.449468 -0.357911
2.872063 -1.798998 -1.865795
3.040234 -1.895978 -1.869259
3.227026 -2.004420 -1.873898
3.421484 -2.117457 -1.873518
3.658714 -2.255202 -1.884815
3.890400 -2.389119 -1.880473
4.170465 -2.551863 -1.884944
4.493025 -2.739326 -1.893235
4.846272 -2.943641 -1.896046
5.267745 -3.188623 -1.903656
5.739820 -3.463148 -1.906566
6.310589 -3.793569 -1.913957
7.018789 -4.205145 -1.927196
7.181167 -4.302155 -1.769803
7.298333 -4.373170 -1.595382
7.333241 -4.350729 -1.395235
7.352650 -4.365195 -1.197927
7.358608 -4.370251 -0.997377
21.012218 -12.201860 -2.269276
22.863243 -13.273585 -1.853160
28.488495 -16.507782 -1.542762
28.676149 -16.628611 -0.778757
55.657108 -32.154236 -0.015729
56.318035 -32.546932 1.492532
31.253447 -18.144888 1.670264
27.291153 -15.876554 2.191658
0.000339 -0.154778 -0.005856
0.000339 -0.154778 -0.005856
0.000339 -0.154778 -0.005856
0.000339 -0.154778 -0.005856
0.000339 -0.154778 -0.005856
0.510699 -0.450444 -0.355856
2.874328 -1.822666 -1.873616
3.035967 -1.917185 -1.872997
3.220627 -2.025893 -1.876572
3.411348 -2.138285 -1.874355
3.647753 -2.277465 -1.885609
3.883456 -2.415536 -1.883537
4.165826 -2.581855 -1.889289
4.480847 -2.767503 -1.894583
4.832900 -2.973929 -1.897305
5.257904 -3.224290 -1.906613
5.715123 -3.493886 -1.904887
6.295562 -3.834522 -1.915960
6.991257 -4.244431 -1.926247
7.169934 -4.352262 -1.773105
7.271486 -4.415060 -1.594984
7.332123 -4.407681 -1.399751
7.349805 -4.421331 -1.201523
7.343786 -4.419471 -0.998744
20.651138 -12.157866 -2.237960
22.869503 -13.457828 -1.859953
28.347797 -16.651064 -1.540357
50.168293 -29.372467 -1.362575
56.708607 -33.207710 -0.015826
27.562538 -16.225740 0.730055
31.926094 -18.784794 1.712313
27.305914 -16.101259 2.200495
0.000344 -0.154431 -0.005843
0.000344 -0.154431 -0.005843
0.000344 -0.154431 -0.005843
0.000344 -0.154431 -0.005843
0.000344 -0.154431 -0.005843
0.510473 -0.453896 -0.356863
2.860147 -1.836208 -1.870658
3.021196 -1.931609 -1.870161
3.203633 -2.040437 -1.872962
3.399868 -2.157549 -1.874335
3.638987 -2.299312 -1.887216
3.871970 -2.438443 -1.884287
4.146957 -2.602623 -1.887085
4.466185 -2.792139 -1.894561
4.819860 -3.003282 -1.898563
5.235211 -3.251253 -1.904801
5.701349 -3.528338 -1.906518
6.275932 -3.871353 -1.916441
6.980035 -4.290000 -1.929451
7.168259 -4.404857 -1.778488
7.279679 -4.474322 -1.601999
7.322820 -4.458489 -1.402645
7.344654 -4.472991 -1.204560
7.337927 -4.472434 -1.001271
20.585102 -12.278270 -2.238279
22.825790 -13.603219 -1.862414
28.433022 -16.920242 -1.550103
49.251873 -29.219509 -1.342187
27.489307 -16.382786 -0.010633
27.491915 -16.397068 0.730721
31.464018 -18.758518 1.693257
0.000346 -0.154079 -0.005830
0.000346 -0.154079 -0.005830
0.000346 -0.154079 -0.005830
0.000346 -0.154079 -0.005830
0.000346 -0.154079 -0.005830
0.000346 -0.154079 -0.005830
0.505781 -0.454729 -0.354808
2.850416 -1.852310 -1.870639
3.015464 -1.951348 -1.872959
3.194265 -2.059418 -1.873841
3.388262 -2.176769 -1.874316
3.623437 -2.318019 -1.885569
3.860327 -2.461318 -1.885038
4.132802 -2.626112 -1.887064
4.457371 -2.821334 -1.897277
4.803375 -3.030649 -1.898541
5.223840 -3.284935 -1.907163
5.681819 -3.560780 -1.906494
6.262717 -3.912070 -1.918950
6.952761 -4.327789 -1.928502
7.158741 -4.454805 -1.782206
7.296793 -4.541148 -1.611237
7.325042 -4.516404 -1.407810
7.336676 -4.525012 -1.207320
7.329988 -4.524462 -1.003567
20.487585 -12.379945 -2.235250
22.778801 -13.752513 -1.864874
28.150770 -16.972708 -1.539942
31.543612 -19.014534 -0.864563
31.567911 -19.036312 -0.011291
31.503263 -19.012363 0.841162
31.735107 -19.165964 1.713855
27.123262 -16.409269 2.200624
0.000352 -0.153732 -0.005817
0.000352 -0.153732 -0.005817
0.000352 -0.153732 -0.005817
0.000352 -0.153732 -0.005817
0.000352 -0.153732 -0.005817
0.506980 -0.459076 -0.356835
2.845079 -1.871046 -1.873561
3.003546 -1.967436 -1.872002
3.187819 -2.080224 -1.876515
3.382751 -2.199641 -1.877720
3.617180 -2.342279 -1.888804
3.848566 -2.484115 -1.885789
4.129634 -2.656303 -1.892138
4.445142 -2.848574 -1.898625
4.791573 -3.060887 -1.900441
5.210607 -3.317610 -1.908928
5.665382 -3.595109 -1.907573
6.249251 -3.952745 -1.921459
6.933606 -4.370443 -1.929860
7.189018 -4.529165 -1.795911
7.365408 -4.640006 -1.631963
0.000335 -0.153406 -0.005804
7.636915 -4.763370 -1.260792
7.321705 -4.576527 -1.005863
20.365709 -12.466482 -2.229615
22.703518 -13.885198 -1.865097
28.313227 -17.291452 -1.554080
47.508099 -28.932604 -1.303572
0.000335 -0.153406 -0.005804
30.544458 -18.677807 0.818310
28.180307 -17.257246 1.526604
31.447884 -19.247801 2.561408
0.000335 -0.153406 -0.005804
0.000335 -0.153406 -0.005804
0.000335 -0.153406 -0.005804
0.000335 -0.153406 -0.005804
0.000335 -0.153406 -0.005804
0.505213 -0.461645 -0.356821
2.839592 -1.889802 -1.876482
2.991547 -1.983438 -1.871044
3.179722 -2.100073 -1.878291
3.366289 -2.215913 -1.875133
3.604117 -2.363376 -1.888784
3.831926 -2.503977 -1.884226
4.100873 -2.670924 -1.885567
4.430687 -2.875533 -1.899287
4.777987 -3.090068 -1.901699
5.187416 -3.344228 -1.907117
5.646505 -3.629327 -1.908101
6.219016 -3.983273 -1.918900
6.916748 -4.416276 -1.932140
7.357716 -4.691579 -1.844569
7.357049 -4.694649 -1.636013
7.658212 -4.834490 -1.481749
7.631392 -4.821696 -1.264386
7.316441 -4.630724 -1.008623
20.391258 -12.642507 -2.240169
22.597836 -14.004724 -1.863081
29.838818 -18.450207 -1.643171
46.661610 -28.788109 -1.284828
0.000341 -0.153059 -0.005791
31.365736 -19.423510 0.843524
26.832151 -16.650845 1.458499
0.000341 -0.153059 -0.005791
0.000341 -0.153059 -0.005791
0.000341 -0.153059 -0.005791
0.000341 -0.153059 -0.005791
0.000341 -0.153059 -0.005791
0.000341 -0.153059 -0.005791
0.513613 -0.470632 -0.363951
2.827758 -1.905359 -1.875484
2.985133 -2.003611 -1.873843
3.162047 -2.114788 -1.874681
3.353990 -2.235512 -1.875114
3.592896 -2.384704 -1.889578
3.821038 -2.528287 -1.885748
4.074778 -2.687994 -1.880452
4.413340 -2.899672 -1.898581
4.760469 -3.118033 -1.901677
5.174884 -3.378639 -1.909478
5.631297 -3.664488 -1.909731
6.206036 -4.025904 -1.921916
6.900334 -4.460852 -1.934421
7.240213 -4.676522 -1.821656
7.235786 -4.677209 -1.614862
7.353491 -4.708017 -1.428175
7.351862 -4.708735 -1.222564
7.360657 -4.717679 -1.018349
20.376005 -12.799698 -2.246628
22.573627 -14.169018 -1.867638
29.616047 -18.555943 -1.636838
45.833797 -28.655497 -1.266646
52.360855 -32.726822 -0.014646
30.768782 -19.308817 0.830496
30.794851 -19.339720 1.681013
0.000346 -0.152711 -0.005778
0.000346 -0.152711 -0.005778
0.000346 -0.152711 -0.005778
0.000346 -0.152711 -0.005778
0.000346 -0.152711 -0.005778
0.000346 -0.152711 -0.005778
0.504492 -0.468666 -0.358834
2.817629 -1.921265 -1.875466
2.975936 -2.021356 -1.874763
3.153721 -2.134530 -1.876458
3.348431 -2.257716 -1.878518
3.581519 -2.406002 -1.890372
3.808872 -2.550881 -1.886499
4.066870 -2.714333 -1.883343
4.397449 -2.924701 -1.898560
4.750247 -3.148275 -1.904217
5.156788 -3.407148 -1.909456
5.615844 -3.699613 -1.911363
6.184313 -4.060159 -1.921891
6.877065 -4.501210 -1.934856
7.122270 -4.657965 -1.798327
7.231995 -4.730872 -1.619653
7.285337 -4.723732 -1.420035
7.293626 -4.730657 -1.217242
7.309011 -4.743804 -1.014839
20.493351 -13.036244 -2.267601
22.507730 -14.308011 -1.868839
29.950869 -19.003605 -1.661158
45.059711 -28.523945 -1.249592
52.275608 -33.092522 -0.014548
27.813246 -17.691442 0.752966
30.046804 -19.107063 1.645882
30.122948 -19.169552 2.480182
0.000330 -0.152386 -0.005766
0.000330 -0.152386 -0.005766
0.000330 -0.152386 -0.005766
0.000330 -0.152386 -0.005766
0.000330 -0.152386 -0.005766
0.509975 -0.475750 -0.363923
2.812128 -1.939432 -1.878387
2.965456 -2.037602 -1.874745
3.145609 -2.153700 -1.878235
3.339303 -2.278564 -1.880211
3.568486 -2.426246 -1.890352
3.800078 -2.574759 -1.888792
4.050473 -2.736375 -1.882594
4.381421 -2.949631 -1.898538
4.729740 -3.173185 -1.902914
5.150831 -3.444676 -1.914201
5.601814 -3.735686 -1.913545
6.163332 -4.096416 -1.922373
6.858458 -4.544605 -1.936675
7.105290 -4.706141 -1.800797
7.222890 -4.785044 -1.623702
7.284682 -4.779879 -1.424876
7.287197 -4.784993 -1.220559
7.303375 -4.796996 -1.017598
20.350523 -13.105240 -2.259734
22.481363 -14.472431 -1.873396
30.269701 -19.440786 -1.684637
44.271828 -28.384851 -1.232211
29.979309 -19.284719 -0.010749
27.979458 -18.015066 0.760277
0.000335 -0.152038 -0.005753
0.000335 -0.152038 -0.005753
31.385464 -20.235180 3.465225
0.000335 -0.152038 -0.005753
0.000335 -0.152038 -0.005753
0.000335 -0.152038 -0.005753
0.000335 -0.152038 -0.005753
0.508030 -0.478441 -0.363909
2.805872 -1.958577 -1.881308
2.955702 -2.055780 -1.875665
3.130674 -2.170050 -1.876420
3.319035 -2.293099 -1.875911
3.556859 -2.447415 -1.891146
3.790282 -2.599932 -1.891085
4.036642 -2.761025 -1.883301
4.365232 -2.974481 -1.898517
4.714909 -3.202917 -1.904173
5.129599 -3.473804 -1.913581
5.582698 -3.768592 -1.914072
6.151203 -4.139926 -1.925895
6.829774 -4.581580 -1.935726
7.095343 -4.757308 -1.804931
7.215880 -4.839058 -1.628122
7.277003 -4.835502 -1.428743
7.282043 -4.840481 -1.224154
7.299067 -4.854967 -1.020822
20.353640 -13.277224 -2.268611
22.442133 -14.629422 -1.876973
30.686792 -19.963192 -1.714184
43.505669 -28.260395 -1.215483
29.771206 -19.393740 -0.010661
31.962709 -20.825760 0.872753
30.123344 -19.650698 1.662654
0.000341 -0.151691 -0.005740
31.376219 -20.484571 3.477172
0.000341 -0.151691 -0.005740
0.000341 -0.151691 -0.005740
0.000341 -0.151691 -0.005740
0.000341 -0.151691 -0.005740
0.506142 -0.481016 -0.363896
2.795420 -1.974366 -1.881290
2.941714 -2.070517 -1.873769
3.122002 -2.189651 -1.878196
3.312710 -2.315783 -1.879316
3.547779 -2.471124 -1.893567
3.776120 -2.621381 -1.891065
4.027788 -2.787965 -1.886191
4.351548 -3.002055 -1.899864
4.698848 -3.230714 -1.904791
5.119963 -3.509232 -1.917135
5.567562 -3.805539 -1.916255
6.126498 -4.173900 -1.925363
6.808249 -4.624892 -1.937084
7.092410 -4.815108 -1.811145
7.204358 -4.892254 -1.631800
7.269765 -4.889908 -1.432609
7.275658 -4.897331 -1.227749
7.290153 -4.908531 -1.023350
20.359404 -13.447246 -2.277675
22.621361 -14.935548 -1.899141
30.817991 -20.299953 -1.727847
42.769165 -28.134659 -1.199368
30.416157 -20.067099 -0.010712
31.802980 -20.982849 0.871722
30.052324 -19.850889 1.665049
0.000346 -0.151343 -0.005727
30.972034 -20.484232 3.445712
0.000346 -0.151343 -0.005727
0.000346 -0.151343 -0.005727
0.000346 -0.151343 -0.005727
0.000346 -0.151343 -0.005727
0.498431 -0.479884 -0.359800
2.785992 -1.991559 -1.882252
2.931753 -2.088567 -1.874689
3.108366 -2.206811 -1.877279
3.297160 -2.332504 -1.877585
3.531302 -2.489171 -1.891920
3.764481 -2.645435 -1.892587
4.015652 -2.812828 -1.887625
4.342888 -3.031925 -1.903264
4.684192 -3.259482 -1.906050
5.095769 -3.535154 -1.915324
5.544823 -3.836138 -1.915679
6.108078 -4.211977 -1.926859
6.788857 -4.667995 -1.938903
7.077654 -4.861890 -1.814031
7.236655 -4.971299 -1.645114
7.257979 -4.943501 -1.435827
7.271345 -4.954090 -1.231622
7.281687 -4.964503 -1.026108
20.293457 -13.576244 -2.279109
22.765457 -15.217172 -1.918373
31.557360 -21.051355 -1.775985
42.042278 -28.005772 -1.183442
30.134264 -20.131075 -0.010612
31.535532 -21.075764 0.867830
29.723646 -19.880762 1.653138
0.000330 -0.151018 -0.005715
31.108433 -20.822964 3.473797
0.000330 -0.151018 -0.005715
0.000330 -0.151018 -0.005715
0.000330 -0.151018 -0.005715
0.000330 -0.151018 -0.005715
0.496605 -0.482303 -0.359786
2.785815 -2.013533 -1.889093
2.928231 -2.109473 -1.879366
3.101291 -2.226782 -1.879954
3.283054 -2.350099 -1.876709
3.513638 -2.505463 -1.889459
3.745908 -2.662983 -1.890253
3.998693 -2.834547 -1.886877
4.322066 -3.052635 -1.901190
4.664633 -3.285016 -1.905387
5.077776 -3.565171 -1.915897
5.532141 -3.872063 -1.918413
6.091015 -4.251062 -1.928861
6.765153 -4.706573 -1.939338
7.076365 -4.919722 -1.820662
7.234841 -5.030142 -1.651016
7.204868 -4.966056 -1.430608
7.292169 -5.026191 -1.239675
7.279453 -5.021326 -1.029565
20.310816 -13.751081 -2.289476
22.692566 -15.351503 -1.919295
41.264053 -27.812548 -2.329043
41.851269 -28.227047 -1.182505
48.543850 -32.728779 -0.013526
30.883696 -20.892262 0.853042
0.000336 -0.150670 -0.005702
0.000336 -0.150670 -0.005702
30.959126 -20.981411 3.470533
0.000336 -0.150670 -0.005702
0.000336 -0.150670 -0.005702
0.000336 -0.150670 -0.005702
0.000336 -0.150670 -0.005702
0.501792 -0.489651 -0.364875
2.780830 -2.033102 -1.892994
2.912514 -2.122995 -1.876530
3.089289 -2.244262 -1.879934
3.274814 -2.371680 -1.879258
3.504566 -2.528385 -1.891880
3.728314 -2.682111 -1.888691
3.990877 -2.862424 -1.890495
4.309936 -3.080317 -1.903221
4.651219 -3.314672 -1.907287
5.062774 -3.597231 -1.917662
5.507433 -3.901364 -1.917286
6.068891 -4.286831 -1.929343
6.742012 -4.747319 -1.940235
7.068176 -4.973285 -1.825628
7.195265 -5.063621 -1.648394
7.167201 -5.000501 -1.428634
7.262321 -5.066662 -1.239369
7.275961 -5.079528 -1.033021
20.278309 -13.898773 -2.294632
22.804447 -15.617098 -1.936150
40.581722 -27.694836 -2.299424
41.803020 -28.544765 -1.185630
31.002439 -21.216173 -0.010643
48.795864 -33.331245 1.356510
81.010399 -55.277813 4.550931
0.000341 -0.150323 -0.005689
0.000341 -0.150323 -0.005689
0.000341 -0.150323 -0.005689
0.000341 -0.150323 -0.005689
0.000341 -0.150323 -0.005689
0.000341 -0.150323 -0.005689
0.501191 -0.493241 -0.365881
2.785424 -2.060071 -1.903754
2.906590 -2.143883 -1.880268
3.078267 -2.263235 -1.880813
3.263065 -2.391749 -1.880094
3.491895 -2.549831 -1.892674
3.717797 -2.706970 -1.890983
3.980867 -2.889921 -1.893384
4.297115 -3.108692 -1.905252
4.637029 -3.345105 -1.909186
5.043803 -3.627949 -1.918234
5.493001 -3.939079 -1.920020
6.052215 -4.327903 -1.931850
6.717829 -4.789097 -1.941130
7.053936 -5.024786 -1.829345
7.185397 -5.119283 -1.652813
7.133411 -5.039248 -1.427632
7.187289 -5.077956 -1.231540
7.262962 -5.133506 -1.035315
20.178322 -14.006104 -2.292531
22.853697 -15.848944 -1.948110
40.241421 -27.813696 -2.289330
41.747456 -28.870157 -1.188751
47.840004 -33.073467 -0.013253
0.000343 -0.149972 -0.005676
47.969715 -33.211357 2.703571
0.000343 -0.149972 -0.005676
0.000343 -0.149972 -0.005676
0.000343 -0.149972 -0.005676
0.000343 -0.149972 -0.005676
0.000343 -0.149972 -0.005676
0.000343 -0.149972 -0.005676
0.497798 -0.494794 -0.364847
0.480088 -0.482765 -0.333931
2.892154 -2.158239 -1.878371
3.069000 -2.282611 -1.882589
3.253074 -2.412224 -1.881786
3.479107 -2.571199 -1.893468
3.709063 -2.732220 -1.894047
3.975709 -2.919929 -1.898458
4.276415 -3.131634 -1.903862
4.621668 -3.373577 -1.910444
5.025253 -3.657693 -1.918807
5.472004 -3.972360 -1.920547
6.023290 -4.359029 -1.930305
6.691785 -4.829645 -1.941565
7.039304 -5.076318 -1.833062
7.154160 -5.160378 -1.652415
7.103513 -5.078784 -1.427281
7.141644 -5.108889 -1.228726
7.222722 -5.166975 -1.033662
20.206106 -14.196757 -2.304756
22.822388 -16.027216 -1.953361
40.101120 -28.058340 -2.290358
41.697868 -29.190889 -1.191969
47.596230 -33.323231 -0.013133
48.437374 -33.921680 1.357659
48.546947 -34.022869 2.747256
0.000326 -0.149645 -0.005663
0.000326 -0.149645 -0.005663
0.000326 -0.149645 -0.005663
0.000326 -0.149645 -0.005663
0.000326 -0.149645 -0.005663
0.000326 -0.149645 -0.005663
0.483068 -0.488504 -0.355649
0.478116 -0.485252 -0.333917
2.878746 -2.174004 -1.877413
3.054821 -2.299423 -1.881672
3.240000 -2.430571 -1.881767
3.466586 -2.591918 -1.894261
3.692172 -2.752774 -1.893256
3.962739 -2.944582 -1.899892
4.256103 -3.153702 -1.902472
4.601473 -3.398711 -1.909782
5.008092 -3.688434 -1.919976
5.456172 -4.007916 -1.922729
6.005269 -4.397777 -1.932307
6.671059 -4.872280 -1.943384
7.038833 -5.134421 -1.840108
7.092411 -5.176028 -1.644606
7.059626 -5.110277 -1.424332
7.117835 -5.153002 -1.229535
7.257810 -5.255124 -1.042923
20.176142 -14.353891 -2.310841
22.834959 -16.231577 -1.962248
39.959312 -28.312712 -2.291663
39.908886 -28.287254 -1.145569
47.605392 -33.738274 -0.013056
47.631790 -33.781437 1.340689
48.107922 -34.129803 2.733522
0.000332 -0.149298 -0.005650
0.000332 -0.149298 -0.005650
0.000332 -0.149298 -0.005650
0.000332 -0.149298 -0.005650
0.000332 -0.149298 -0.005650
0.000332 -0.149298 -0.005650
0.483969 -0.492848 -0.357676
0.480501 -0.490599 -0.336843
2.871712 -2.192779 -1.880212
3.039863 -2.314027 -1.879858
3.223858 -2.446761 -1.880036
3.455443 -2.613618 -1.895869
3.676069 -2.771945 -1.892465
3.949622 -2.969169 -1.901327
4.244846 -3.182195 -1.905187
4.587315 -3.428117 -1.911681
4.986073 -3.715768 -1.919357
5.438558 -4.042283 -1.924360
5.985421 -4.435330 -1.933803
6.648503 -4.913673 -1.944742
7.031373 -5.191733 -1.845906
7.142288 -5.274987 -1.663106
7.063977 -5.172157 -1.430796
7.061473 -5.174045 -1.224771
7.251843 -5.311359 -1.046146
20.137053 -14.494884 -2.315439
22.636377 -16.287188 -1.953104
39.822563 -28.550159 -2.292786
39.770592 -28.533701 -1.146175
47.456734 -34.044079 -0.012954
47.462757 -34.060505 1.341351
47.165482 -33.872589 2.690984
0.000338 -0.148951 -0.005637
0.000338 -0.148951 -0.005637
0.000338 -0.148951 -0.005637
0.000338 -0.148951 -0.005637
0.000338 -0.148951 -0.005637
0.000338 -0.148951 -0.005637
0.490312 -0.501385 -0.363785
0.489765 -0.501271 -0.344668
2.860980 -2.210463 -1.881132
3.026970 -2.331680 -1.879839
3.216038 -2.469735 -1.883440
3.442672 -2.634208 -1.896663
3.663433 -2.795532 -1.893986
3.935823 -2.994412 -1.902761
4.231866 -3.209563 -1.907219
4.569313 -3.456048 -1.912299
4.974102 -3.751667 -1.922910
5.422270 -4.077715 -1.926542
5.963019 -4.472697 -1.934791
6.622541 -4.952672 -1.945176
7.021221 -5.245585 -1.850872
7.153991 -5.345727 -1.672713
7.094899 -5.257470 -1.443099
7.223639 -5.352048 -1.257897
7.248478 -5.373703 -1.050066
20.090340 -14.641732 -2.319849
22.635277 -16.483494 -1.961011
39.680878 -28.805494 -2.294278
39.635502 -28.793432 -1.147060
0.000321 -0.148625 -0.005625
47.555546 -34.554482 1.349866
47.331894 -34.417454 2.712189
0.000321 -0.148625 -0.005625
0.000321 -0.148625 -0.005625
0.000321 -0.148625 -0.005625
0.000321 -0.148625 -0.005625
0.000321 -0.148625 -0.005625
0.000321 -0.148625 -0.005625
0.482696 -0.499822 -0.359690
0.493377 -0.507836 -0.348574
2.847625 -2.225532 -1.880174
3.024449 -2.356117 -1.886103
3.201572 -2.486247 -1.882564
3.432730 -2.656883 -1.899084
3.655582 -2.821689 -1.897821
3.922878 -3.018207 -1.904196
4.209629 -3.230205 -1.905145
4.553825 -3.483415 -1.913558
4.956984 -3.781305 -1.924079
5.393344 -4.103996 -1.924312
5.941904 -4.507875 -1.935779
6.594761 -4.990396 -1.945150
7.014720 -5.300588 -1.856670
7.185031 -5.429492 -1.686767
7.274278 -5.450187 -1.485579
7.249572 -5.434052 -1.267620
7.240722 -5.431423 -1.053289
20.143232 -14.856678 -2.335607
22.805037 -16.806246 -1.983873
39.558746 -29.065010 -2.296705
39.500740 -29.032879 -1.147714
0.000327 -0.148277 -0.005612
0.000327 -0.148277 -0.005612
0.000327 -0.148277 -0.005612
0.000327 -0.148277 -0.005612
0.000327 -0.148277 -0.005612
0.000327 -0.148277 -0.005612
0.000327 -0.148277 -0.005612
0.000327 -0.148277 -0.005612
0.000327 -0.148277 -0.005612
0.480721 -0.502174 -0.359676
0.494158 -0.512322 -0.350520
2.839874 -2.244705 -1.882973
3.000562 -2.364146 -1.878904
3.189493 -2.505395 -1.883401
3.415288 -2.674098 -1.897437
