# This PCD file was generated using the MATLAB® pcwrite function
# from Computer Vision Toolbox®.
# .PCD v.7 - Point Cloud Data file format
VERSION .7
FIELDS x y z
SIZE 4 4 4
TYPE F F F
COUNT 1 1 1
WIDTH 1662
HEIGHT 1
VIEWPOINT 0 0 0 1 0 0 0
POINTS 1662
DATA ascii
0.001363 -0.279798 -0.010289
0.001363 -0.279798 -0.010289
0.001363 -0.279798 -0.010289
-1.820277 16.734161 2.384765
0.001363 -0.279798 -0.010289
0.001363 -0.279798 -0.010289
-0.059428 0.295140 -0.353384
-0.060760 0.309926 -0.343700
-0.063661 0.338534 -0.341134
-0.063269 0.337215 -0.322020
-0.064527 0.351456 -0.310971
-0.070989 0.414551 -0.321416
-0.431732 3.890050 -1.763998
-0.450965 4.091044 -1.728872
-0.481482 4.395046 -1.723708
-0.514522 4.733150 -1.716139
-0.551816 5.115369 -1.705859
-0.595906 5.556652 -1.696076
-0.646795 6.077292 -1.686861
-0.708051 6.691566 -1.674720
-0.777828 7.405630 -1.656726
-0.860384 8.251345 -1.630759
-1.006429 9.297653 -1.597978
-1.143411 10.620009 -1.556798
-1.328082 12.423541 -1.508921
-1.587687 14.958569 -1.448309
-1.991923 18.871309 -1.367541
-2.671539 25.493469 -1.233227
-2.637493 25.257305 -0.620780
-2.639812 25.328701 -0.024771
0.001371 -0.279453 -0.010277
0.001371 -0.279453 -0.010277
-6.529458 63.627377 4.445402
0.001371 -0.279453 -0.010277
0.001371 -0.279453 -0.010277
0.001371 -0.279453 -0.010277
0.001371 -0.279453 -0.010277
0.001371 -0.279453 -0.010277
-0.056621 0.300967 -0.356437
-0.057016 0.307151 -0.341729
-0.059045 0.328709 -0.335485
-0.057267 0.313011 -0.309433
-0.059829 0.341377 -0.305822
-0.065727 0.402585 -0.315706
-0.067233 0.420493 -0.304356
-0.425402 4.090222 -1.727423
-0.454726 4.399960 -1.724404
-0.485631 4.736383 -1.716150
-0.520915 5.120705 -1.706469
-0.561918 5.556498 -1.694987
-0.610356 6.083180 -1.687387
-0.668808 6.705564 -1.677052
-0.733365 7.408379 -1.656333
-0.811623 8.260401 -1.631531
-0.950656 9.297754 -1.597036
-1.081007 10.630702 -1.557397
-1.253727 12.419461 -1.507571
-1.499117 14.959880 -1.447623
-1.882176 18.888771 -1.368043
-2.519382 25.470984 -1.231547
0.001375 -0.279103 -0.010265
-2.458002 24.991499 -0.024681
-3.893549 39.896187 0.903917
0.001375 -0.279103 -0.010265
-6.050905 62.518353 4.365263
-5.697754 59.084141 5.519291
0.001375 -0.279103 -0.010265
0.001375 -0.279103 -0.010265
0.001375 -0.279103 -0.010265
0.001375 -0.279103 -0.010265
-0.052156 0.289636 -0.349280
-0.053480 0.306072 -0.340740
-0.053579 0.308281 -0.324197
-0.053529 0.310112 -0.307627
-0.055583 0.334859 -0.302386
-0.060669 0.392396 -0.310810
-0.061841 0.406520 -0.298172
-0.400410 4.094777 -1.728160
-0.426785 4.401034 -1.723729
-0.456223 4.733767 -1.714239
-0.489804 5.123950 -1.706483
-0.527086 5.558167 -1.694451
-0.573700 6.086927 -1.687406
-0.626999 6.705870 -1.676150
-0.687574 7.410971 -1.655942
-0.760924 8.265411 -1.631561
-0.895115 9.299477 -1.596419
-1.016984 10.645150 -1.558557
-1.179652 12.416920 -1.506454
-1.410404 14.958689 -1.446749
-1.766771 18.882046 -1.366860
-2.369571 25.469498 -1.230904
-2.305402 24.874519 -0.611155
0.001361 -0.278778 -0.010253
-2.297789 24.948168 0.563350
0.001361 -0.278778 -0.010253
-5.549070 61.124790 4.265478
-5.372586 59.418758 5.547076
-3.489519 38.585487 4.530214
-3.454402 38.354939 5.418325
0.001361 -0.278778 -0.010253
0.001361 -0.278778 -0.010253
-0.049085 0.293705 -0.351313
-0.049563 0.301503 -0.337788
-0.048862 0.294863 -0.316668
-0.049392 0.303661 -0.304024
-0.052211 0.337306 -0.303234
-0.056332 0.387616 -0.308357
-0.058410 0.414570 -0.301251
-0.374886 4.093640 -1.726712
-0.399976 4.405627 -1.724425
-0.427489 4.738550 -1.714891
-0.458345 5.123220 -1.705303
-0.493633 5.563344 -1.695019
-0.537039 6.090448 -1.687424
-0.584966 6.688371 -1.671086
-0.643793 7.405284 -1.653881
-0.713359 8.271821 -1.631959
-0.838959 9.312813 -1.597756
-0.953355 10.643276 -1.557479
-1.103768 12.418109 -1.505805
-1.319286 14.959182 -1.446064
-1.655000 18.876358 -1.365814
-2.215712 25.471508 -1.230452
-2.161365 24.897680 -0.611500
-2.157422 24.961412 -0.024868
-2.147218 24.951744 0.563012
0.001369 -0.278433 -0.010241
-3.352355 39.368423 2.748919
-3.342021 39.338219 3.675753
-3.324727 39.308060 4.612101
-3.303879 39.235126 5.539013
-3.293572 39.204960 6.475627
-3.276887 39.181351 7.426222
-0.044760 0.280599 -0.343134
-0.045882 0.296916 -0.334837
-0.044940 0.286671 -0.311958
-0.046295 0.306044 -0.304913
-0.048368 0.334342 -0.301511
-0.051331 0.373695 -0.301832
-0.054698 0.417057 -0.302014
-0.349692 4.096066 -1.726721
-0.372981 4.408196 -1.724435
-0.398430 4.739379 -1.714262
-0.427227 5.126104 -1.705316
-0.459811 5.564525 -1.694482
-0.500646 6.097633 -1.688457
-0.545897 6.705537 -1.674343
-0.597728 7.403455 -1.652655
-0.662442 8.274294 -1.631617
-0.785705 9.321615 -1.598438
-0.890601 10.650894 -1.557798
-1.033008 12.426388 -1.506084
-1.233345 14.956743 -1.445187
-1.544191 18.879930 -1.365470
-2.070766 25.469868 -1.229897
-2.017442 24.924019 -0.611940
0.001355 -0.278108 -0.010229
-2.005494 24.953732 0.562683
0.001355 -0.278108 -0.010229
-4.962967 62.726871 4.372142
0.001355 -0.278108 -0.010229
-4.678973 59.554260 6.972584
0.001355 -0.278108 -0.010229
-4.778039 61.407566 10.117622
0.001355 -0.278108 -0.010229
-0.041564 0.282924 -0.344146
-0.040883 0.276661 -0.323059
-0.041316 0.283756 -0.310069
-0.043511 0.315552 -0.309396
-0.044878 0.336754 -0.302359
-0.046331 0.357945 -0.294492
-0.049335 0.401154 -0.295058
-0.323856 4.100265 -1.727458
-0.345570 4.404976 -1.722389
-0.368368 4.738213 -1.712991
-0.395157 5.128871 -1.705330
-0.426429 5.571247 -1.695602
-0.463219 6.106619 -1.689999
-0.505376 6.705026 -1.673439
-0.553198 7.403202 -1.651845
-0.613183 8.278296 -1.631645
-0.729015 9.330391 -1.599123
-0.828240 10.664079 -1.558955
-0.957614 12.432621 -1.506134
-1.142788 14.962132 -1.445062
-1.434272 18.894817 -1.365970
-1.914533 25.436222 -1.227840
-1.869358 24.955816 -0.612526
0.001363 -0.277763 -0.010216
-1.857372 24.987465 0.563071
0.001363 -0.277763 -0.010216
0.001363 -0.277763 -0.010216
-4.302450 58.979412 5.497530
-4.298003 59.222702 6.930472
-4.329319 59.819283 8.421624
0.001363 -0.277763 -0.010216
-2.931700 40.848999 7.733000
-0.037867 0.276618 -0.340052
-0.036831 0.265061 -0.316185
-0.038811 0.294905 -0.315699
-0.039464 0.307231 -0.304894
-0.041080 0.333748 -0.300636
-0.042925 0.362186 -0.296112
-0.044406 0.387049 -0.288874
-0.298632 4.102394 -1.727466
-0.318963 4.412860 -1.724454
-0.339853 4.746259 -1.714926
-0.364266 5.135203 -1.706537
-0.392343 5.568190 -1.693960
-0.426298 6.107598 -1.689508
-0.465146 6.708159 -1.673459
-0.508808 7.404655 -1.651451
-0.564013 8.283991 -1.632044
-0.673806 9.336732 -1.599482
-0.765062 10.667035 -1.558714
-0.884936 12.446202 -1.507113
-1.053475 14.946959 -1.443064
-1.322589 18.885189 -1.364781
-1.763802 25.409302 -1.226155
-1.725359 24.986464 -0.613107
0.001349 -0.277438 -0.010205
-1.713456 25.022036 0.563509
-2.639049 38.892090 1.797281
-2.629095 38.858112 2.709251
-3.980810 59.297646 5.524589
0.001349 -0.277438 -0.010205
-3.940753 59.203255 8.331553
-4.062667 61.388390 10.105441
0.001349 -0.277438 -0.010205
-0.034218 0.270317 -0.335957
-0.034048 0.270821 -0.319117
-0.035297 0.291929 -0.313810
-0.035991 0.305999 -0.303987
-0.037333 0.330708 -0.298913
-0.039703 0.371890 -0.300176
-0.040117 0.380269 -0.285777
-0.273627 4.108099 -1.728932
-0.290786 4.409367 -1.722409
-0.311046 4.750343 -1.715579
-0.332130 5.122316 -1.701775
-0.357765 5.572670 -1.694528
-0.388926 6.100626 -1.686988
-0.423331 6.705304 -1.672093
-0.462859 7.402016 -1.650225
-0.513207 8.287517 -1.632073
-0.618036 9.334888 -1.598538
-0.699741 10.665776 -1.557916
-0.811387 12.447459 -1.506694
-0.966148 14.959078 -1.443683
-1.207739 18.875107 -1.363594
-1.613701 25.385483 -1.224657
-1.581228 25.018255 -0.613735
0.001357 -0.277092 -0.010192
-1.568481 25.043802 0.563675
0.001357 -0.277092 -0.010192
0.001357 -0.277092 -0.010192
-3.645441 59.618752 5.552006
-3.634261 59.627930 6.971778
-3.583507 59.154800 8.321305
-3.752383 62.339764 10.257321
0.001357 -0.277092 -0.010192
-0.031175 0.274283 -0.337990
-0.030690 0.269620 -0.318127
-0.031930 0.292463 -0.313801
-0.032634 0.308330 -0.304876
-0.033935 0.334870 -0.300617
-0.035975 0.372442 -0.300167
-0.036328 0.382675 -0.286540
-0.247610 4.109969 -1.728940
-0.263877 4.413190 -1.723103
-0.280991 4.748653 -1.714308
-0.300417 5.130230 -1.703579
-0.324068 5.574967 -1.694543
-0.350968 6.101224 -1.686498
-0.383110 6.707960 -1.672113
-0.418723 7.406850 -1.650665
-0.463665 8.286734 -1.631357
-0.561228 9.342653 -1.599222
-0.636821 10.671937 -1.558234
-0.735401 12.444463 -1.505809
-0.875050 14.952941 -1.442621
-1.096039 18.858187 -1.361981
-1.460047 25.371000 -1.223634
-1.432235 25.047503 -0.614319
0.001343 -0.276767 -0.010180
-1.419785 25.080959 0.564201
0.001343 -0.276767 -0.010180
0.001343 -0.276767 -0.010180
-3.389761 61.259720 5.702181
-3.478690 63.300674 7.396972
0.001343 -0.276767 -0.010180
-3.377904 62.104507 10.215052
0.001343 -0.276767 -0.010180
-0.028001 0.274798 -0.337981
-0.027722 0.273618 -0.320079
-0.028370 0.287695 -0.310971
-0.029063 0.305296 -0.303069
-0.030327 0.333585 -0.299751
-0.032322 0.374814 -0.300972
-0.032708 0.386912 -0.288074
-0.222426 4.113525 -1.729677
-0.236966 4.416833 -1.723798
-0.252211 4.754327 -1.715601
-0.269252 5.132222 -1.703591
-0.290358 5.577073 -1.694557
-0.314232 6.103470 -1.686515
-0.342773 6.708447 -1.671670
-0.374266 7.405568 -1.649854
-0.414429 8.291563 -1.631755
-0.505911 9.348041 -1.599579
-0.574067 10.681691 -1.559110
-0.662133 12.448814 -1.505855
-0.788031 14.971996 -1.443987
-0.985096 18.850580 -1.361071
-1.312218 25.377323 -1.223645
-1.287491 25.077633 -0.614946
0.001351 -0.276422 -0.010168
-1.276451 25.142971 0.565318
0.001351 -0.276422 -0.010168
-3.071165 61.540756 4.280151
-2.963042 59.812653 5.565881
-2.915596 59.298000 6.928263
0.001351 -0.276422 -0.010168
0.001351 -0.276422 -0.010168
0.001351 -0.276422 -0.010168
-0.024908 0.277010 -0.338992
-0.024154 0.265396 -0.315166
-0.025271 0.291733 -0.312842
-0.025957 0.311156 -0.305755
-0.026975 0.337708 -0.301455
-0.028588 0.375316 -0.300963
-0.028716 0.383749 -0.286521
-0.197044 4.113215 -1.728956
-0.209660 4.412839 -1.721751
-0.222982 4.750350 -1.713688
-0.238023 5.132100 -1.703007
-0.256634 5.578987 -1.694572
-0.277380 6.103592 -1.686024
-0.302458 6.708693 -1.671228
-0.329934 7.405973 -1.649459
-0.364815 8.288261 -1.630667
-0.450089 9.343257 -1.598309
-0.510744 10.681211 -1.558588
-0.588473 12.444809 -1.504968
-0.700854 14.990532 -1.445353
-0.874829 18.854284 -1.361005
-1.160183 25.291004 -1.219312
-1.142969 25.118940 -0.615858
-1.142037 25.208279 -0.025713
-1.132088 25.196196 0.566255
0.001359 -0.276076 -0.010156
-2.677213 60.694695 4.220003
-2.621482 59.932545 5.575220
0.001359 -0.276076 -0.010156
-2.594293 60.091560 8.444135
0.001359 -0.276076 -0.010156
0.001359 -0.276076 -0.010156
-0.021644 0.275775 -0.337961
-0.021238 0.271106 -0.318098
-0.022011 0.292202 -0.312832
-0.022447 0.308052 -0.303949
-0.023374 0.336386 -0.300590
-0.024690 0.372163 -0.299325
-0.024840 0.382406 -0.285740
-0.171684 4.112752 -1.728235
-0.182659 4.414294 -1.721761
-0.193874 4.748106 -1.712415
-0.206927 5.135637 -1.703616
-0.222920 5.580690 -1.694586
-0.240406 6.099625 -1.684517
-0.262217 6.710661 -1.671247
-0.285535 7.404176 -1.648647
-0.315549 8.292527 -1.631065
-0.394938 9.351930 -1.599316
-0.447882 10.690232 -1.559464
-0.515259 12.450328 -1.505246
-0.613235 15.002613 -1.446158
-0.764006 18.843391 -1.359953
-1.008181 25.177816 -1.213751
-0.997574 25.147411 -0.616484
0.001345 -0.275752 -0.010144
0.001345 -0.275752 -0.010144
0.001345 -0.275752 -0.010144
-2.363199 61.682415 4.287225
0.001345 -0.275752 -0.010144
0.001345 -0.275752 -0.010144
-2.243477 60.020760 8.431961
0.001345 -0.275752 -0.010144
0.001345 -0.275752 -0.010144
-0.018463 0.276238 -0.337952
-0.017969 0.268076 -0.316127
-0.018680 0.290896 -0.311883
-0.018945 0.304958 -0.302142
-0.019770 0.335061 -0.299723
-0.021015 0.374468 -0.300130
-0.021066 0.382865 -0.285731
-0.146279 4.110280 -1.726785
-0.155753 4.419372 -1.723140
-0.164999 4.751366 -1.713067
-0.175559 5.131360 -1.701837
-0.188983 5.576461 -1.692942
-0.203939 6.108965 -1.686564
-0.221784 6.706559 -1.669879
-0.241231 7.404079 -1.648252
-0.265879 8.284726 -1.629233
-0.339334 9.350442 -1.598696
-0.384709 10.692976 -1.559501
-0.442251 12.461348 -1.506224
-0.525092 15.002254 -1.445840
-0.652720 18.813919 -1.357633
-0.860005 25.137630 -1.211681
-0.853079 25.211037 -0.617967
-0.853109 25.360350 -0.026003
-1.561099 47.126747 1.061628
-2.307801 70.573975 3.251618
-2.041907 62.792152 4.363014
0.001353 -0.275406 -0.010132
-1.919377 60.392975 7.049967
-1.896983 60.056820 8.435030
-2.088596 66.935539 10.994708
0.001353 -0.275406 -0.010132
-0.015099 0.273240 -0.335900
-0.014850 0.272005 -0.318079
-0.015262 0.289589 -0.310933
-0.015569 0.307181 -0.303031
-0.016155 0.335511 -0.299714
-0.017048 0.371287 -0.298492
-0.017198 0.385188 -0.286494
-0.120410 4.116994 -1.728979
-0.127898 4.420548 -1.723149
-0.135056 4.748818 -1.711795
-0.143623 5.138375 -1.703640
-0.154362 5.581659 -1.694062
-0.165998 6.108473 -1.686073
-0.180361 6.708083 -1.669898
-0.195705 7.407674 -1.648692
-0.215234 8.292382 -1.630374
-0.282323 9.356578 -1.599379
-0.319568 10.693422 -1.559259
-0.366661 12.464097 -1.506269
-0.434540 15.009428 -1.446271
-0.539094 18.805840 -1.356863
-0.707085 25.066742 -1.208197
0.001335 -0.275077 -0.010120
-0.996270 36.145267 -0.032829
-1.829716 67.484909 1.521349
0.001335 -0.275077 -0.010120
0.001335 -0.275077 -0.010120
0.001335 -0.275077 -0.010120
0.001335 -0.275077 -0.010120
-1.539672 60.093147 8.438371
0.001335 -0.275077 -0.010120
0.001335 -0.275077 -0.010120
-0.011980 0.275381 -0.336911
-0.011624 0.268932 -0.316108
-0.012087 0.293546 -0.312803
-0.012157 0.305835 -0.302123
-0.012672 0.337753 -0.300561
-0.013408 0.375370 -0.300112
-0.013319 0.381924 -0.284941
-0.094856 4.106785 -1.724614
-0.100798 4.419673 -1.722472
-0.106126 4.749839 -1.711805
-0.112417 5.137523 -1.703055
-0.120549 5.578942 -1.692970
-0.129065 6.101927 -1.684058
-0.140162 6.711301 -1.670379
-0.151272 7.399219 -1.646628
-0.165800 8.289897 -1.629656
-0.226760 9.354425 -1.598758
-0.256430 10.697404 -1.559575
-0.293320 12.468332 -1.506546
-0.346500 15.012019 -1.446326
0.001343 -0.274732 -0.010108
-0.560015 25.020805 -1.205935
-0.742270 33.799473 -0.822797
-0.788843 36.258728 -0.033044
0.001343 -0.274732 -0.010108
-1.286909 61.388592 2.827297
0.001343 -0.274732 -0.010108
-1.254955 61.523712 5.717391
-1.216788 60.753662 7.089191
-1.199076 60.457848 8.487996
0.001343 -0.274732 -0.010108
0.001343 -0.274732 -0.010108
-0.008773 0.274072 -0.335880
-0.008479 0.269345 -0.316098
-0.008884 0.297473 -0.314674
-0.008948 0.313375 -0.305708
-0.009118 0.336348 -0.299695
-0.009583 0.377607 -0.300917
-0.009605 0.386016 -0.286476
-0.069669 4.111325 -1.726078
-0.072933 4.420529 -1.722481
-0.077177 4.750708 -1.711814
-0.081294 5.142239 -1.704260
-0.085565 5.564528 -1.688564
-0.092386 6.106775 -1.685089
-0.098675 6.710401 -1.669936
-0.105748 7.402283 -1.647068
-0.115055 8.296961 -1.630797
-0.171312 9.357903 -1.599113
-0.191252 10.695107 -1.559053
-0.219886 12.468164 -1.506356
-0.258540 15.018065 -1.446754
0.001351 -0.274386 -0.010095
-0.413246 24.958033 -1.202917
-0.539704 33.409676 -0.813539
-0.735637 46.685818 -0.039785
-1.125671 72.436325 1.632230
0.001351 -0.274386 -0.010095
-0.956092 64.581032 4.484280
-0.890344 61.673820 5.730412
-0.885710 62.194218 7.255751
-0.909758 65.597786 9.205956
-0.911804 67.555183 11.090744
0.001351 -0.274386 -0.010095
-0.005459 0.269293 -0.332807
-0.005250 0.267969 -0.315108
-0.005414 0.290791 -0.310904
-0.005441 0.311973 -0.304800
-0.005646 0.340343 -0.301399
-0.005819 0.376158 -0.300093
-0.005648 0.382714 -0.284922
-0.044481 4.117559 -1.728271
-0.045899 4.421197 -1.722489
-0.048233 4.751404 -1.711824
-0.050066 5.141053 -1.703674
-0.051936 5.565258 -1.688578
-0.055611 6.105604 -1.684597
-0.058470 6.713125 -1.670416
-0.062849 7.401140 -1.646670
-0.067141 8.291904 -1.629706
-0.114152 9.359085 -1.599144
-0.128013 10.692412 -1.558529
-0.144255 12.467589 -1.506168
-0.167792 15.019669 -1.446810
-0.205510 18.765476 -1.353700
-0.262940 24.904436 -1.200374
-0.342273 33.078678 -0.805708
0.001337 -0.274061 -0.010083
-0.697444 72.777977 1.639503
-0.603648 64.280846 2.959300
-0.579433 64.232666 4.459543
-0.566025 64.129585 5.957304
-0.520879 61.594753 7.185260
0.001337 -0.274061 -0.010083
-0.531258 67.330650 11.053007
0.001337 -0.274061 -0.010083
-0.002469 0.276539 -0.336882
-0.002225 0.268331 -0.315098
-0.002263 0.291152 -0.310894
-0.002157 0.308754 -0.302993
-0.002113 0.340703 -0.301390
-0.002081 0.378352 -0.300899
-0.001990 0.386777 -0.286457
-0.019171 4.118092 -1.728278
-0.018839 4.417961 -1.721127
-0.019254 4.744357 -1.709268
-0.018845 5.135869 -1.701894
-0.018311 5.569643 -1.689695
-0.018860 6.102280 -1.683597
-0.018214 6.709792 -1.669509
-0.017313 7.401705 -1.646692
-0.016314 8.292484 -1.629732
-0.060369 9.361877 -1.599498
-0.064888 10.697253 -1.559123
-0.073115 12.472505 -1.506675
-0.082424 15.028668 -1.447610
-0.095845 18.762680 -1.353488
-0.122163 24.875898 -1.199049
0.001345 -0.273715 -0.010071
-0.199696 47.881844 -0.040927
-0.208762 52.502411 1.181402
-0.232374 64.417473 2.965192
0.001345 -0.273715 -0.010071
0.001345 -0.273715 -0.010071
-0.163986 61.362675 7.157747
0.001345 -0.273715 -0.010071
0.001345 -0.273715 -0.010071
0.001345 -0.273715 -0.010071
0.000804 0.266568 -0.330745
0.001008 0.268695 -0.315088
0.001101 0.295043 -0.312765
0.001302 0.307315 -0.302085
0.001544 0.337446 -0.299666
0.001667 0.371387 -0.297631
0.001918 0.385266 -0.285676
0.006902 4.116612 -1.727556
0.008205 4.422096 -1.722505
0.010546 4.752302 -1.711843
0.013258 5.138125 -1.702503
0.015346 5.569988 -1.689708
0.018983 6.106479 -1.684628
0.022041 6.719849 -1.671839
0.026892 7.396162 -1.645461
0.033024 8.290815 -1.629384
-0.003192 9.360425 -1.599203
-0.001691 10.701754 -1.559717
0.002512 12.480990 -1.507652
0.008383 15.027238 -1.447478
0.013798 18.749310 -1.352571
0.027038 24.858530 -1.198297
0.046645 32.295322 -0.787222
0.069222 42.572552 -0.037695
0.084582 42.361679 0.952277
0.150278 63.906612 2.941400
0.001331 -0.273391 -0.010059
0.188419 64.630417 6.002895
0.001331 -0.273391 -0.010059
0.001331 -0.273391 -0.010059
0.001331 -0.273391 -0.010059
0.001331 -0.273391 -0.010059
0.003974 0.280649 -0.338905
0.004118 0.269012 -0.315078
0.004388 0.297139 -0.313695
0.004656 0.309428 -0.302974
0.005048 0.335961 -0.298800
0.005385 0.369899 -0.296807
0.005764 0.391138 -0.287982
0.032166 4.114965 -1.726834
0.035251 4.422308 -1.722512
0.039500 4.752500 -1.711852
0.044418 5.136392 -1.701917
0.048957 5.564374 -1.688063
0.055612 6.091139 -1.680580
0.062213 6.706333 -1.668619
0.071102 7.400128 -1.646316
0.082342 8.290812 -1.629408
0.052263 9.354704 -1.598254
0.061512 10.699943 -1.559471
0.075952 12.477136 -1.507227
0.096527 15.029279 -1.447717
0.123404 18.759216 -1.353343
0.171584 24.830326 -1.197069
0.233151 32.146904 -0.783816
0.338522 45.641716 -0.039856
0.352655 45.285988 1.018124
0.001339 -0.273045 -0.010047
0.001339 -0.273045 -0.010047
0.564491 64.897476 6.027540
0.001339 -0.273045 -0.010047
0.001339 -0.273045 -0.010047
0.001339 -0.273045 -0.010047
0.001339 -0.273045 -0.010047
0.007083 0.274075 -0.334810
0.007237 0.269319 -0.315068
0.007632 0.293917 -0.311805
0.008104 0.316893 -0.306558
0.008596 0.339877 -0.300504
0.009165 0.377495 -0.300056
0.009525 0.387731 -0.286429
0.057515 4.120631 -1.729026
0.062247 4.418607 -1.721150
0.068313 4.743048 -1.708654
0.075614 5.140188 -1.703122
0.082733 5.575858 -1.691391
0.092479 6.106515 -1.684657
0.102443 6.708145 -1.669099
0.115190 7.394044 -1.645084
0.131732 8.294468 -1.630175
0.107786 9.360505 -1.599259
0.124687 10.697762 -1.559226
0.149513 12.488732 -1.508668
0.184507 15.016853 -1.446647
0.233044 18.760530 -1.353551
0.315781 24.799299 -1.195744
0.421318 32.259315 -0.786660
0.001325 -0.272720 -0.010035
0.614948 45.277569 1.017810
0.901657 64.784325 2.981488
0.901911 63.905178 4.435974
0.935769 64.616707 6.001637
0.985244 66.349098 7.737502
0.001325 -0.272720 -0.010035
0.001325 -0.272720 -0.010035
0.001325 -0.272720 -0.010035
0.010245 0.274381 -0.334800
0.010416 0.273097 -0.317020
0.010868 0.292445 -0.310855
0.011408 0.311821 -0.303853
0.012066 0.336552 -0.298781
0.012904 0.377770 -0.300047
0.013247 0.382492 -0.284104
0.082747 4.116836 -1.727575
0.089225 4.416619 -1.720472
0.097341 4.750476 -1.711229
0.106726 5.136191 -1.701938
0.116611 5.585232 -1.694165
0.128921 6.090752 -1.680609
0.142569 6.703885 -1.668191
0.159487 7.399476 -1.646355
0.181037 8.291947 -1.629827
0.163337 9.364013 -1.599938
0.187687 10.687288 -1.557861
0.223127 12.493972 -1.509409
0.272565 15.015882 -1.446698
0.342871 18.771179 -1.354463
0.459547 24.763451 -1.194230
0.607987 32.220703 -0.785924
0.803986 42.278049 -0.038006
0.817768 42.180969 0.947854
1.299306 65.952950 3.035240
1.312834 65.989853 4.580554
0.001333 -0.272375 -0.010023
0.001333 -0.272375 -0.010023
0.001333 -0.272375 -0.010023
0.001333 -0.272375 -0.010023
0.001333 -0.272375 -0.010023
0.013509 0.279815 -0.337854
0.013437 0.268140 -0.314068
0.014144 0.294464 -0.311786
0.014689 0.308516 -0.302046
0.015600 0.338608 -0.299628
0.016775 0.378039 -0.300037
0.017104 0.386435 -0.285638
0.107942 4.112901 -1.726124
0.117103 4.418227 -1.721165
0.126326 4.752070 -1.711879
0.137821 5.133907 -1.701351
0.150844 5.563651 -1.688100
0.165972 6.105713 -1.684686
0.183816 6.697421 -1.666821
0.204938 7.396756 -1.645959
0.231907 8.293020 -1.630223
0.218732 9.359289 -1.599315
0.252628 10.682361 -1.557337
0.296785 12.498767 -1.510149
0.360560 15.012403 -1.446562
0.455770 18.765160 -1.354251
0.602912 24.726784 -1.192715
0.794812 32.205009 -0.785759
1.058714 42.364838 -0.038236
1.062177 42.173904 0.947646
0.001341 -0.272029 -0.010011
1.770415 68.486443 4.753852
0.001341 -0.272029 -0.010011
0.001341 -0.272029 -0.010011
0.001341 -0.272029 -0.010011
0.001341 -0.272029 -0.010011
0.001341 -0.272029 -0.010011
0.016643 0.274916 -0.334781
0.016854 0.275377 -0.317981
0.017366 0.289432 -0.308956
0.018173 0.310536 -0.302935
0.019235 0.338860 -0.299619
0.020414 0.374626 -0.298398
0.020948 0.384814 -0.284857
0.134011 4.114374 -1.726859
0.144001 4.414053 -1.719801
0.155905 4.743993 -1.709322
0.169852 5.131434 -1.700764
0.184435 5.563003 -1.688112
0.203744 6.103007 -1.684193
0.224146 6.702422 -1.668224
0.249108 7.395790 -1.645978
0.281033 8.285981 -1.629131
0.275830 9.356192 -1.599018
0.315956 10.688992 -1.558488
0.372669 12.501083 -1.510658
0.451128 15.006349 -1.446240
0.565740 18.774509 -1.355162
0.750099 24.685163 -1.191013
0.985502 32.134117 -0.784308
0.001327 -0.271704 -0.009999
0.001327 -0.271704 -0.009999
0.001327 -0.271704 -0.009999
0.001327 -0.271704 -0.009999
2.146402 67.055809 6.229221
0.001327 -0.271704 -0.009999
0.001327 -0.271704 -0.009999
0.001327 -0.271704 -0.009999
0.001327 -0.271704 -0.009999
0.020121 0.285449 -0.340899
0.019876 0.272121 -0.316010
0.020723 0.293198 -0.310826
0.021657 0.314344 -0.304723
0.022804 0.340879 -0.300466
0.024131 0.374836 -0.298389
0.024670 0.383190 -0.284075
0.159288 4.113878 -1.726864
0.171138 4.417250 -1.721179
0.184873 4.745251 -1.709972
0.201103 5.134509 -1.701968
0.217978 5.560270 -1.687571
0.240378 6.100125 -1.683699
0.264235 6.699405 -1.667778
0.293268 7.394567 -1.645997
0.330769 8.296340 -1.631383
0.331148 9.350842 -1.598394
0.379072 10.687322 -1.558520
0.445814 12.487159 -1.509298
0.539043 15.001847 -1.446103
0.676348 18.797201 -1.357057
0.893365 24.668772 -1.190535
1.169011 32.042336 -0.782373
1.630832 44.583042 -0.040055
1.651359 44.692928 1.004483
0.001335 -0.271359 -0.009987
0.001335 -0.271359 -0.009987
0.001335 -0.271359 -0.009987
0.001335 -0.271359 -0.009987
0.001335 -0.271359 -0.009987
0.001335 -0.271359 -0.009987
0.001335 -0.271359 -0.009987
0.023709 0.292553 -0.344974
0.023166 0.274081 -0.316981
0.024062 0.293406 -0.310816
0.025068 0.312778 -0.303814
0.026250 0.339277 -0.299599
0.028037 0.376855 -0.299194
0.028541 0.383370 -0.284066
0.184628 4.115099 -1.727598
0.198867 4.414605 -1.720501
0.213911 4.748218 -1.711263
0.232089 5.129804 -1.700783
0.253250 5.574585 -1.692003
0.276839 6.093199 -1.682188
0.305421 6.694163 -1.666870
0.337157 7.387230 -1.644764
0.379759 8.286779 -1.629919
0.388308 9.351013 -1.598747
0.444333 10.691161 -1.559392
0.521748 12.490578 -1.510038
0.629332 14.990765 -1.445406
0.790473 18.817122 -1.358814
1.040840 24.651407 -1.190059
1.350210 31.919527 -0.779720
1.757909 41.283867 -0.038009
1.762676 41.036953 0.922051
0.001317 -0.271030 -0.009974
0.001317 -0.271030 -0.009974
3.797700 87.215897 8.100216
0.001317 -0.271030 -0.009974
0.001317 -0.271030 -0.009974
0.001317 -0.271030 -0.009974
0.001317 -0.271030 -0.009974
0.026609 0.287589 -0.341900
0.026066 0.270819 -0.315009
0.027301 0.295375 -0.311746
0.028310 0.312955 -0.303804
0.030021 0.344878 -0.302160
0.031933 0.380669 -0.300814
0.032123 0.381716 -0.283284
0.209966 4.116146 -1.728333
0.225774 4.411851 -1.719822
0.242558 4.741576 -1.709346
0.263286 5.130620 -1.701390
0.287197 5.579128 -1.693672
0.313195 6.086029 -1.680678
0.345732 6.696519 -1.667810
0.382794 7.389342 -1.645617
0.430054 8.274909 -1.628083
0.442239 9.352991 -1.599423
0.507468 10.688763 -1.559424
0.592928 12.485827 -1.509842
0.715209 15.001277 -1.446762
0.901141 18.828531 -1.360005
1.181330 24.673489 -1.191466
1.539494 31.993460 -0.781795
0.001325 -0.270685 -0.009962
0.001325 -0.270685 -0.009962
0.001325 -0.270685 -0.009962
0.001325 -0.270685 -0.009962
0.001325 -0.270685 -0.009962
0.001325 -0.270685 -0.009962
0.001325 -0.270685 -0.009962
0.001325 -0.270685 -0.009962
0.001325 -0.270685 -0.009962
0.030108 0.291208 -0.343933
0.029982 0.284908 -0.322846
0.030745 0.297305 -0.312677
0.031505 0.307777 -0.301099
0.033383 0.339614 -0.299580
0.035581 0.378988 -0.299990
0.036479 0.391065 -0.287135
0.235902 4.113305 -1.727610
0.252633 4.408926 -1.719143
0.271999 4.734716 -1.707429
0.295014 5.123573 -1.699609
0.319839 5.558521 -1.688157
0.351135 6.088265 -1.681707
0.385634 6.690856 -1.666901
0.427136 7.391265 -1.646469
0.479588 8.278507 -1.629220
0.499116 9.346577 -1.598799
0.570474 10.684015 -1.559175
0.668930 12.488379 -1.510582
0.806127 15.003065 -1.447374
1.011961 18.839294 -1.361196
1.326773 24.618504 -1.189287
1.731960 32.004047 -0.782393
2.759706 50.985477 -0.044956
0.001333 -0.270339 -0.009950
0.001333 -0.270339 -0.009950
0.001333 -0.270339 -0.009950
0.001333 -0.270339 -0.009950
0.001333 -0.270339 -0.009950
0.001333 -0.270339 -0.009950
0.001333 -0.270339 -0.009950
0.001333 -0.270339 -0.009950
0.033040 0.286211 -0.340859
0.033282 0.286813 -0.323817
0.033905 0.295692 -0.311727
0.035035 0.311492 -0.302886
0.036807 0.339778 -0.299570
0.038913 0.371840 -0.296721
0.040596 0.396696 -0.289442
0.260164 4.108535 -1.726157
0.279702 4.409613 -1.719835
0.299836 4.731562 -1.706795
0.325142 5.122183 -1.699617
0.354437 5.574174 -1.693141
0.385711 6.071098 -1.677657
0.425490 6.684977 -1.665991
0.470046 7.391055 -1.646903
0.526851 8.268194 -1.627753
0.554516 9.343898 -1.598825
0.633332 10.676937 -1.558647
0.742051 12.478699 -1.509920
0.894192 15.000494 -1.447609
1.122128 18.835491 -1.361399
1.471840 24.640690 -1.190791
1.905077 31.874458 -0.779635
3.059360 51.044949 -0.045196
3.998573 66.393318 1.494720
0.001319 -0.270014 -0.009938
0.001319 -0.270014 -0.009938
0.001319 -0.270014 -0.009938
0.001319 -0.270014 -0.009938
0.001319 -0.270014 -0.009938
0.001319 -0.270014 -0.009938
0.001319 -0.270014 -0.009938
0.036801 0.296668 -0.346977
0.036388 0.286957 -0.323807
0.037505 0.301123 -0.314537
0.038399 0.313417 -0.303775
0.040316 0.339897 -0.299561
0.042707 0.373754 -0.297527
0.045150 0.407842 -0.294066
0.285622 4.111018 -1.727619
0.306767 4.410127 -1.720526
0.329509 4.730029 -1.706803
0.356883 5.116684 -1.698432
0.387980 5.570467 -1.692599
0.423837 6.076745 -1.679702
0.466762 6.682673 -1.666007
0.516823 7.388365 -1.646923
0.577646 8.267220 -1.628147
0.607941 9.337040 -1.598198
0.696484 10.675412 -1.558957
0.812994 12.470737 -1.509489
0.979587 14.997586 -1.447842
1.232402 18.833038 -1.361743
1.616841 24.656076 -1.192010
2.087575 31.823397 -0.778792
0.001327 -0.269668 -0.009926
0.001327 -0.269668 -0.009926
0.001327 -0.269668 -0.009926
0.001327 -0.269668 -0.009926
0.001327 -0.269668 -0.009926
0.001327 -0.269668 -0.009926
0.001327 -0.269668 -0.009926
0.001327 -0.269668 -0.009926
0.001327 -0.269668 -0.009926
0.040362 0.298476 -0.347989
0.040391 0.295765 -0.328701
0.041378 0.308276 -0.318288
0.041581 0.308163 -0.301069
0.044050 0.341786 -0.300408
0.047433 0.386599 -0.303220
0.049952 0.418950 -0.298689
0.310960 4.100296 -1.723981
0.334406 4.406691 -1.719847
0.358433 4.730270 -1.707452
0.387498 5.109169 -1.696650
0.422345 5.564557 -1.691505
0.460678 6.078409 -1.680729
0.506798 6.680207 -1.666021
0.559582 7.385694 -1.646940
0.626660 8.262127 -1.627796
0.666345 9.329552 -1.597574
0.761159 10.667486 -1.558429
0.890647 12.463874 -1.509296
1.072824 14.991654 -1.447892
1.345302 18.819750 -1.361385
1.768530 24.700195 -1.194650
2.283495 31.888577 -0.780772
0.001313 -0.269344 -0.009914
0.001313 -0.269344 -0.009914
0.001313 -0.269344 -0.009914
0.001313 -0.269344 -0.009914
0.001313 -0.269344 -0.009914
0.001313 -0.269344 -0.009914
0.001313 -0.269344 -0.009914
0.001313 -0.269344 -0.009914
0.001313 -0.269344 -0.009914
0.043037 0.291739 -0.343894
0.045113 0.316736 -0.340462
0.045253 0.317171 -0.322979
0.045473 0.317169 -0.305553
0.047852 0.345479 -0.302112
0.051357 0.390295 -0.304840
0.054213 0.424519 -0.300996
0.336123 4.098768 -1.723985
0.360678 4.406976 -1.720537
0.387677 4.734138 -1.709383
0.418906 5.112886 -1.698450
0.454044 5.550960 -1.688199
0.497074 6.074051 -1.680234
0.544978 6.669828 -1.664185
0.604141 7.388547 -1.648208
0.676555 8.268503 -1.629675
0.719490 9.320104 -1.596621
0.822527 10.667355 -1.559017
0.961306 12.453107 -1.508631
1.158788 14.995691 -1.448872
1.451273 18.804314 -1.360880
1.902456 24.618547 -1.191326
2.478740 32.006794 -0.784038
0.001321 -0.268998 -0.009902
0.001321 -0.268998 -0.009902
5.416735 69.437248 3.201676
0.001321 -0.268998 -0.009902
5.209793 66.291962 6.171880
0.001321 -0.268998 -0.009902
0.001321 -0.268998 -0.009902
0.001321 -0.268998 -0.009902
0.001321 -0.268998 -0.009902
0.047363 0.305535 -0.352055
0.048196 0.313327 -0.338491
0.049351 0.326053 -0.327670
0.049865 0.329712 -0.311833
0.051814 0.350924 -0.304673
0.056176 0.401257 -0.309719
0.059266 0.437413 -0.306391
0.361582 4.100807 -1.725447
0.388557 4.406943 -1.721229
0.416170 4.728378 -1.708107
0.450704 5.120243 -1.701443
0.489199 5.556145 -1.690420
0.533444 6.069497 -1.679738
0.586313 6.668752 -1.664663
0.649074 7.379315 -1.646974
0.727221 8.264690 -1.629696
0.774873 9.318112 -1.596970
0.886753 10.654709 -1.557929
1.033926 12.439786 -1.507734
1.247018 14.993083 -1.449292
1.564268 18.793724 -1.360801
0.001306 -0.268673 -0.009890
2.676583 32.137791 -0.787640
2.994009 35.821465 -0.035287
0.001306 -0.268673 -0.009890
0.001306 -0.268673 -0.009890
0.001306 -0.268673 -0.009890
5.610126 66.325737 6.177716
0.001306 -0.268673 -0.009890
0.001306 -0.268673 -0.009890
0.001306 -0.268673 -0.009890
0.001306 -0.268673 -0.009890
0.050463 0.302151 -0.350002
0.052259 0.320327 -0.342404
0.053785 0.336636 -0.333302
0.054030 0.336865 -0.315418
0.055336 0.349153 -0.303806
0.060819 0.410352 -0.313783
0.064583 0.450252 -0.311787
0.387354 4.097075 -1.724723
0.415323 4.403098 -1.720549
0.445638 4.724259 -1.707473
0.482341 5.114012 -1.700258
0.523266 5.559322 -1.692088
0.571736 6.074259 -1.681782
0.625913 6.661723 -1.663751
0.693112 7.375785 -1.646991
0.775290 8.248955 -1.627486
0.831245 9.307794 -1.596019
0.949153 10.643856 -1.557119
1.110009 12.441680 -1.508704
1.336329 14.971858 -1.448029
1.673666 18.780754 -1.360579
2.110157 23.651995 -1.146664
2.874285 32.183418 -0.789236
3.119421 34.875607 -0.034753
3.131147 34.861576 0.784077
3.114464 34.529877 1.594681
3.149758 34.848469 2.430575
0.001315 -0.268328 -0.009878
0.001315 -0.268328 -0.009878
0.001315 -0.268328 -0.009878
0.001315 -0.268328 -0.009878
0.001315 -0.268328 -0.009878
0.053906 0.303906 -0.351014
0.055812 0.322099 -0.343375
0.057760 0.341937 -0.336112
0.058513 0.347568 -0.320800
0.060582 0.367171 -0.312366
0.065242 0.415796 -0.316218
0.069945 0.463087 -0.317182
0.412663 4.096957 -1.725456
0.442059 4.399106 -1.719869
0.475463 4.733263 -1.711329
0.512248 5.100080 -1.696683
0.555371 5.541247 -1.687676
0.607894 6.067351 -1.680777
0.666001 6.660275 -1.664228
0.737497 7.375892 -1.647842
0.824885 8.250539 -1.628620
0.886741 9.307108 -1.596694
1.011607 10.634591 -1.556588
1.182629 12.429471 -1.508040
1.423349 14.956328 -1.447325
1.784089 18.779081 -1.361201
0.001323 -0.267982 -0.009865
3.064319 32.200512 -0.790158
0.001323 -0.267982 -0.009865
9.002821 94.583702 2.134617
0.001323 -0.267982 -0.009865
3.357034 34.883713 2.434185
0.001323 -0.267982 -0.009865
0.001323 -0.267982 -0.009865
0.001323 -0.267982 -0.009865
0.001323 -0.267982 -0.009865
0.001323 -0.267982 -0.009865
0.057368 0.305642 -0.352025
0.059036 0.320374 -0.342384
0.062992 0.359496 -0.345504
0.062938 0.356456 -0.325284
0.064417 0.368954 -0.313213
0.070562 0.428459 -0.321912
0.080913 0.530930 -0.345743
0.437608 4.092988 -1.724731
0.470129 4.400480 -1.721246
0.503708 4.725139 -1.709410
0.542972 5.095482 -1.696094
0.590419 5.543924 -1.689344
0.644959 6.069853 -1.682312
0.707112 6.656546 -1.664242
0.782455 7.367836 -1.647024
0.875428 8.245838 -1.628641
0.942074 9.304151 -1.597043
1.077461 10.640568 -1.558296
1.255736 12.422786 -1.508074
1.510810 14.946237 -1.447182
1.897684 18.774467 -1.361685
0.001309 -0.267657 -0.009853
3.256635 32.236385 -0.791557
0.001309 -0.267657 -0.009853
0.001309 -0.267657 -0.009853
3.532905 34.669304 1.602613
0.001309 -0.267657 -0.009853
0.001309 -0.267657 -0.009853
0.001309 -0.267657 -0.009853
0.001309 -0.267657 -0.009853
0.001309 -0.267657 -0.009853
0.001309 -0.267657 -0.009853
0.061662 0.314192 -0.357122
0.063795 0.332496 -0.349241
0.067087 0.362973 -0.347375
0.068322 0.372415 -0.333362
0.069134 0.377886 -0.317488
0.076037 0.441092 -0.327606
0.224669 1.846264 -0.899378
0.463682 4.092507 -1.725465
0.497033 4.390473 -1.718509
0.533319 4.722388 -1.709417
0.575796 5.101983 -1.699088
0.626321 5.554023 -1.693223
0.682342 6.064322 -1.681816
0.747560 6.646757 -1.662868
0.827961 7.365339 -1.647458
0.925928 8.240828 -1.628661
0.998655 9.296769 -1.596741
1.141335 10.626431 -1.557206
1.331019 12.415451 -1.508110
1.599186 14.919521 -1.445542
2.011890 18.775108 -1.362590
0.001317 -0.267312 -0.009841
3.437829 32.107471 -0.789036
0.001317 -0.267312 -0.009841
0.001317 -0.267312 -0.009841
0.001317 -0.267312 -0.009841
0.001317 -0.267312 -0.009841
0.001317 -0.267312 -0.009841
0.001317 -0.267312 -0.009841
0.001317 -0.267312 -0.009841
0.001317 -0.267312 -0.009841
0.001317 -0.267312 -0.009841
0.065472 0.319317 -0.360176
0.067324 0.334204 -0.350212
0.071179 0.368197 -0.350186
0.073835 0.390115 -0.342339
0.074728 0.395803 -0.326048
0.080590 0.446445 -0.330040
0.234644 1.828831 -0.892423
0.487196 4.082786 -1.722552
0.523443 4.391687 -1.719885
0.560762 4.715915 -1.708139
0.605994 5.100927 -1.699691
0.656447 5.529763 -1.687151
0.717487 6.058842 -1.681318
0.785512 6.637025 -1.661492
0.870785 7.362871 -1.647890
0.973431 8.235868 -1.628678
1.052253 9.293333 -1.597088
1.201946 10.618268 -1.556952
1.401831 12.408167 -1.508142
1.684397 14.914640 -1.445958
2.118650 18.767893 -1.362926
2.616791 23.205294 -1.128234
3.588150 31.815901 -0.782579
0.001299 -0.266983 -0.009829
0.001299 -0.266983 -0.009829
0.001299 -0.266983 -0.009829
0.001299 -0.266983 -0.009829
0.001299 -0.266983 -0.009829
0.001299 -0.266983 -0.009829
0.001299 -0.266983 -0.009829
0.001299 -0.266983 -0.009829
0.001299 -0.266983 -0.009829
0.068742 0.317544 -0.359145
0.070484 0.330670 -0.348240
0.075363 0.371623 -0.352056
0.079405 0.404224 -0.349518
0.079692 0.404652 -0.330323
0.084708 0.446322 -0.330031
0.246219 1.820413 -0.889330
0.512361 4.074617 -1.720370
0.549838 4.385209 -1.718518
0.589891 4.709085 -1.706862
0.637397 5.093790 -1.698504
0.692109 5.545325 -1.692686
0.754775 6.052880 -1.680822
0.825734 6.636595 -1.662430
0.914724 7.358073 -1.647905
1.022156 8.228509 -1.628324
1.109430 9.291188 -1.597763
1.265524 10.619365 -1.558098
1.476320 12.394036 -1.507477
1.773549 14.896826 -1.445253
2.229622 18.767595 -1.363828
0.001307 -0.266637 -0.009817
3.772359 31.742752 -0.781442
0.001307 -0.266637 -0.009817
0.001307 -0.266637 -0.009817
0.001307 -0.266637 -0.009817
10.712435 89.787727 6.265810
0.001307 -0.266637 -0.009817
0.001307 -0.266637 -0.009817
0.001307 -0.266637 -0.009817
0.001307 -0.266637 -0.009817
0.001307 -0.266637 -0.009817
0.071294 0.310669 -0.355049
0.074358 0.334070 -0.350192
0.079247 0.373269 -0.352987
0.084547 0.414721 -0.354901
0.085762 0.422467 -0.338883
0.090275 0.457027 -0.334910
0.258014 1.817473 -0.888553
0.537593 4.073783 -1.721102
0.577426 4.382193 -1.718523
0.618534 4.705935 -1.706868
0.668714 5.094137 -1.699706
0.726105 5.537633 -1.691590
0.791403 6.050685 -1.681340
0.866432 6.629971 -1.661981
0.959953 7.352848 -1.647921
1.072069 8.218743 -1.627600
1.163984 9.281061 -1.597133
1.329157 10.604155 -1.557007
1.549456 12.387635 -1.507744
1.859147 14.872861 -1.443984
2.344480 18.770214 -1.365014
2.901575 23.259035 -1.132449
3.827092 30.673128 -0.756266
0.001315 -0.266292 -0.009805
0.001315 -0.266292 -0.009805
0.001315 -0.266292 -0.009805
0.001315 -0.266292 -0.009805
0.001315 -0.266292 -0.009805
0.001315 -0.266292 -0.009805
0.001315 -0.266292 -0.009805
0.001315 -0.266292 -0.009805
0.001315 -0.266292 -0.009805
0.075367 0.315695 -0.358103
0.077024 0.327035 -0.346258
0.083939 0.380137 -0.356738
0.090642 0.430509 -0.362979
0.091239 0.433051 -0.344015
0.097468 0.480384 -0.345493
0.272026 1.829050 -0.893954
0.563335 4.070848 -1.721106
0.604437 4.380992 -1.719213
0.648273 4.704389 -1.707515
0.701015 5.094202 -1.700907
0.757281 5.516540 -1.686625
0.828629 6.044301 -1.680843
0.906912 6.631004 -1.663381
1.004595 7.353355 -1.649187
1.120920 8.212765 -1.627617
1.220375 9.272373 -1.596830
1.391476 10.594681 -1.556754
1.624264 12.376588 -1.507544
1.948686 14.859920 -1.443840
2.456128 18.772575 -1.366196
3.046488 23.283342 -1.134510
4.383971 33.529278 -0.825891
0.001301 -0.265967 -0.009793
0.001301 -0.265967 -0.009793
0.001301 -0.265967 -0.009793
0.001301 -0.265967 -0.009793
0.001301 -0.265967 -0.009793
0.001301 -0.265967 -0.009793
0.001301 -0.265967 -0.009793
0.001301 -0.265967 -0.009793
0.001301 -0.265967 -0.009793
0.078927 0.317284 -0.359115
0.082047 0.339012 -0.353115
0.088361 0.385234 -0.359549
0.096550 0.444483 -0.370159
0.097174 0.447168 -0.350862
0.240031 1.506514 -0.807482
0.285070 1.835096 -0.897038
0.587563 4.062337 -1.718922
0.630945 4.375911 -1.718532
0.676138 4.695291 -1.705595
0.731115 5.084749 -1.699122
0.792391 5.525745 -1.690502
0.864189 6.034026 -1.679329
0.947145 6.629853 -1.664317
1.047931 7.343906 -1.648367
1.169740 8.206510 -1.627635
1.275539 9.267467 -1.597177
1.454524 10.590744 -1.557339
1.695732 12.357522 -1.506409
2.034971 14.842864 -1.443319
0.001309 -0.265621 -0.009781
3.233175 23.643883 -1.152655
4.540395 33.222473 -0.819196
0.001309 -0.265621 -0.009781
0.001309 -0.265621 -0.009781
0.001309 -0.265621 -0.009781
0.001309 -0.265621 -0.009781
0.001309 -0.265621 -0.009781
0.001309 -0.265621 -0.009781
0.001309 -0.265621 -0.009781
0.001309 -0.265621 -0.009781
0.001309 -0.265621 -0.009781
0.081574 0.312055 -0.356040
0.084815 0.333702 -0.350162
0.091862 0.383308 -0.358599
0.100639 0.444258 -0.370150
0.105051 0.473788 -0.363707
0.250475 1.507237 -0.808291
0.298980 1.846558 -0.902438
0.612476 4.059211 -1.718925
0.657156 4.368828 -1.717165
0.705493 4.697271 -1.707525
0.761101 5.075106 -1.697338
0.825753 5.521440 -1.690509
0.901002 6.033108 -1.680354
0.985739 6.616913 -1.662479
1.091746 7.338086 -1.648381
1.218797 8.201916 -1.628024
1.331245 9.266168 -1.598175
1.515933 10.574683 -1.556245
1.769796 12.357734 -1.507608
2.121127 14.825324 -1.442797
2.664680 18.668615 -1.360947
3.512280 24.628149 -1.200708
4.735963 33.215889 -0.819779
0.001294 -0.265297 -0.009769
0.001294 -0.265297 -0.009769
0.001294 -0.265297 -0.009769
0.001294 -0.265297 -0.009769
0.001294 -0.265297 -0.009769
0.001294 -0.265297 -0.009769
0.001294 -0.265297 -0.009769
0.001294 -0.265297 -0.009769
0.001294 -0.265297 -0.009769
0.083677 0.303421 -0.350923
0.087254 0.326640 -0.346228
0.095339 0.381362 -0.357649
0.104207 0.440473 -0.368343
0.115845 0.518215 -0.385123
0.260685 1.506110 -0.808285
0.310337 1.839668 -0.900117
0.637108 4.054111 -1.718199
0.683838 4.365303 -1.717168
0.733793 4.691591 -1.706889
0.791854 5.070976 -1.697344
0.859340 5.518813 -1.691070
0.937261 6.028148 -1.680364
1.025654 6.613387 -1.662953
1.135234 7.330078 -1.647977
1.267533 8.195084 -1.628041
1.385829 9.256722 -1.597870
1.578642 10.568088 -1.556550
1.842459 12.347662 -1.507639
2.208284 14.815159 -1.443025
0.001303 -0.264951 -0.009756
3.644245 24.530754 -1.197090
4.930464 33.200283 -0.820169
6.917642 46.629745 -0.044868
0.001303 -0.264951 -0.009756
0.001303 -0.264951 -0.009756
0.001303 -0.264951 -0.009756
0.001303 -0.264951 -0.009756
0.001303 -0.264951 -0.009756
0.001303 -0.264951 -0.009756
0.001303 -0.264951 -0.009756
0.001303 -0.264951 -0.009756
0.087195 0.304964 -0.351934
0.090658 0.326470 -0.346218
0.098535 0.377657 -0.355758
0.109342 0.447271 -0.371928
0.001288 -0.264626 -0.009745
0.271476 1.506689 -0.809094
0.323564 1.845476 -0.903201
0.662832 4.056238 -1.720388
0.711297 4.361493 -1.717173
0.762913 4.691371 -1.708176
0.823165 5.070444 -1.698544
0.894232 5.517745 -1.692183
0.973203 6.021077 -1.679865
1.067635 6.615198 -1.664815
1.180280 7.323539 -1.647992
1.318019 8.189694 -1.628430
1.440361 9.246978 -1.597565
1.643472 10.562764 -1.557136
1.913581 12.327364 -1.506503
2.294802 14.800568 -1.442876
2.872952 18.552046 -1.354992
3.784568 24.493889 -1.196405
5.122505 33.167725 -0.820174
0.001288 -0.264626 -0.009745
0.001288 -0.264626 -0.009745
0.001288 -0.264626 -0.009745
0.001288 -0.264626 -0.009745
0.001288 -0.264626 -0.009745
0.001288 -0.264626 -0.009745
0.001288 -0.264626 -0.009745
0.001288 -0.264626 -0.009745
0.001288 -0.264626 -0.009745
0.090855 0.306492 -0.352945
0.094718 0.329719 -0.348170
0.103446 0.384383 -0.359509
0.113839 0.448714 -0.372817
0.696677 4.135543 -2.122267
0.282240 1.509038 -0.810718
0.337818 1.854792 -0.907830
0.687986 4.054510 -1.721119
0.737351 4.353955 -1.715805
0.792039 4.690969 -1.709464
0.854486 5.069723 -1.699744
0.926608 5.507141 -1.690533
1.009693 6.017611 -1.680382
1.107568 6.611209 -1.665289
1.223271 7.321036 -1.648839
1.365213 8.182536 -1.628445
1.497092 9.240558 -1.597912
1.705205 10.549562 -1.556600
1.990124 12.327897 -1.507935
2.384771 14.790948 -1.443291
2.985330 18.561138 -1.356876
3.927979 24.449654 -1.195437
5.311173 33.114304 -0.819700
0.001297 -0.264281 -0.009732
0.001297 -0.264281 -0.009732
0.001297 -0.264281 -0.009732
0.001297 -0.264281 -0.009732
0.001297 -0.264281 -0.009732
0.001297 -0.264281 -0.009732
0.001297 -0.264281 -0.009732
0.001297 -0.264281 -0.009732
0.001297 -0.264281 -0.009732
0.094025 0.306303 -0.352935
0.097470 0.326081 -0.346198
0.106498 0.380653 -0.357619
0.118975 0.455465 -0.376402
0.722605 4.135367 -2.123983
0.291262 1.500512 -0.807452
0.346649 1.835006 -0.900102
0.712853 4.050813 -1.721122
0.764551 4.353673 -1.717179
0.820261 4.684794 -1.708827
0.885500 5.066924 -1.700347
0.959837 5.502047 -1.690540
1.045535 6.010113 -1.679883
1.149062 6.616560 -1.668075
1.269226 7.319765 -1.650105
1.415630 8.176556 -1.628834
1.549193 9.226538 -1.596953
1.766822 10.535995 -1.556065
2.057848 12.301240 -1.506096
0.001305 -0.263935 -0.009720
3.090464 18.524288 -1.355516
4.058461 24.382324 -1.193327
5.488009 32.990776 -0.817546
7.691512 46.240479 -0.045110
0.001305 -0.263935 -0.009720
0.001305 -0.263935 -0.009720
0.001305 -0.263935 -0.009720
0.001305 -0.263935 -0.009720
0.001305 -0.263935 -0.009720
0.001305 -0.263935 -0.009720
0.001305 -0.263935 -0.009720
0.001305 -0.263935 -0.009720
0.099139 0.316266 -0.359054
0.100391 0.322400 -0.344226
0.110618 0.382095 -0.358549
0.121742 0.446277 -0.371899
0.754152 4.163401 -2.139413
0.303574 1.511757 -0.813150
0.356924 1.820518 -0.894691
0.737822 4.043174 -1.719667
0.791143 4.349536 -1.717182
0.850261 4.683915 -1.710115
0.917452 5.063802 -1.700950
0.992396 5.492986 -1.689441
1.082419 6.002228 -1.679384
1.187364 6.602510 -1.666235
1.313552 7.316521 -1.650952
1.463569 8.164747 -1.628106
1.606138 9.221404 -1.597625
1.829972 10.531822 -1.556928
2.134374 12.300903 -1.507527
2.549012 14.710164 -1.438310
3.192928 18.473089 -1.353168
4.198586 24.322708 -1.191695
5.687942 32.973755 -0.818031
0.001290 -0.263610 -0.009708
0.001290 -0.263610 -0.009708
0.001290 -0.263610 -0.009708
0.001290 -0.263610 -0.009708
0.001290 -0.263610 -0.009708
0.001290 -0.263610 -0.009708
0.001290 -0.263610 -0.009708
0.001290 -0.263610 -0.009708
0.001290 -0.263610 -0.009708
0.100090 0.302458 -0.350872
0.104062 0.323870 -0.345197
0.111888 0.367872 -0.351017
0.126444 0.449423 -0.373687
0.783719 4.182459 -2.150557
0.312849 1.504927 -0.810699
0.368935 1.818781 -0.894686
0.762293 4.037355 -1.718940
0.818030 4.347092 -1.717870
0.878395 4.677391 -1.709478
0.948794 5.062528 -1.702150
1.028571 5.504544 -1.694422
1.118169 5.994340 -1.678884
1.226886 6.595891 -1.666245
1.355806 7.301463 -1.649296
1.513117 8.162307 -1.629236
1.660401 9.210391 -1.597318
1.890748 10.513637 -1.555832
0.001298 -0.263264 -0.009696
2.631747 14.675958 -1.436474
3.295930 18.427221 -1.351243
4.330038 24.241415 -1.189017
0.001298 -0.263264 -0.009696
0.001298 -0.263264 -0.009696
0.001298 -0.263264 -0.009696
0.001298 -0.263264 -0.009696
0.001298 -0.263264 -0.009696
0.001298 -0.263264 -0.009696
0.001298 -0.263264 -0.009696
0.001298 -0.263264 -0.009696
0.001298 -0.263264 -0.009696
0.001298 -0.263264 -0.009696
0.103976 0.305625 -0.352904
0.107750 0.325324 -0.346167
0.118348 0.383193 -0.359469
0.130555 0.449041 -0.373677
0.810946 4.187116 -2.154843
0.323003 1.501586 -0.809878
0.380245 1.813326 -0.893136
0.787054 4.033238 -1.718941
0.844007 4.335093 -1.715132
0.907202 4.674477 -1.710123
0.978770 5.053571 -1.700960
1.058244 5.474099 -1.687243
1.154183 5.988132 -1.678892
1.267919 6.590745 -1.666718
1.400662 7.293619 -1.649308
1.563821 8.157404 -1.629995
1.715652 9.204913 -1.597987
1.955383 10.506482 -1.556415
2.266520 12.207757 -1.499413
2.717034 14.656987 -1.436135
3.401395 18.378231 -1.349178
4.459594 24.153517 -1.186054
6.049155 32.790691 -0.815392
0.001281 -0.262936 -0.009684
0.001281 -0.262936 -0.009684
0.001281 -0.262936 -0.009684
0.001281 -0.262936 -0.009684
0.001281 -0.262936 -0.009684
0.001281 -0.262936 -0.009684
0.001281 -0.262936 -0.009684
0.001281 -0.262936 -0.009684
0.001281 -0.262936 -0.009684
0.108596 0.312087 -0.356980
0.109950 0.318159 -0.342233
0.119256 0.367209 -0.350997
0.134446 0.446838 -0.372768
0.176320 0.668001 -0.458761
0.332823 1.498242 -0.809056
0.391880 1.807751 -0.891586
0.813931 4.036160 -1.721859
0.872242 4.339739 -1.718562
0.936826 4.671191 -1.710769
1.010300 5.048003 -1.700965
1.094511 5.485250 -1.692224
1.190907 5.979618 -1.678392
1.307373 6.583665 -1.666728
1.445277 7.291541 -1.650572
1.612656 8.150519 -1.630382
1.770705 9.189074 -1.597029
0.001289 -0.262590 -0.009672
2.340848 12.196382 -1.499676
2.802945 14.627246 -1.434861
3.497250 18.297894 -1.344853
4.595872 24.081818 -1.183944
6.222492 32.634693 -0.812565
0.001289 -0.262590 -0.009672
0.001289 -0.262590 -0.009672
0.001289 -0.262590 -0.009672
0.001289 -0.262590 -0.009672
0.001289 -0.262590 -0.009672
0.001289 -0.262590 -0.009672
0.001289 -0.262590 -0.009672
0.001289 -0.262590 -0.009672
0.001289 -0.262590 -0.009672
0.111589 0.310117 -0.355948
0.114943 0.326412 -0.347128
0.125565 0.380724 -0.358509
0.139218 0.449912 -0.374556
0.179952 0.658438 -0.454467
0.345387 1.509177 -0.814754
0.400640 1.789515 -0.884630
0.837968 4.028083 -1.720402
0.897638 4.329425 -1.716508
0.964866 4.664190 -1.710131
1.041590 5.046164 -1.702165
1.128337 5.482956 -1.693336
1.226826 5.972979 -1.678400
1.344534 6.564909 -1.663962
1.489128 7.285336 -1.651001
1.661463 8.143353 -1.630768
1.824732 9.177114 -1.596722
2.073654 10.454748 -1.552261
2.410676 12.173281 -1.498536
2.886746 14.601413 -1.433960
3.594197 18.226873 -1.341232
4.718824 23.967049 -1.179748
6.390022 32.486797 -0.809923
0.001297 -0.262245 -0.009659
