# This PCD file was generated using the MATLAB® pcwrite function
# from Computer Vision Toolbox®.
# .PCD v.7 - Point Cloud Data file format
VERSION .7
FIELDS x y z
SIZE 4 4 4
TYPE F F F
COUNT 1 1 1
WIDTH 1633
HEIGHT 1
VIEWPOINT 0 0 0 1 0 0 0
POINTS 1633
DATA ascii
-9.643081 17.049723 -0.463293
-10.186078 18.035194 -0.001914
0.001642 -0.302931 -0.010545
0.001642 -0.302931 -0.010545
-7.582501 13.379001 1.089799
0.001642 -0.302931 -0.010545
-8.773188 15.554811 2.116402
-7.730644 13.677288 2.241420
-7.508144 13.286924 2.546940
-6.787240 11.993204 2.641764
-0.276734 0.202147 -0.352060
-0.288737 0.224385 -0.348277
-0.315331 0.272951 -0.359552
-0.351722 0.339573 -0.378165
-0.451445 0.521227 -0.455095
-1.898408 3.155155 -1.765219
-2.001484 3.345954 -1.747101
-2.142540 3.604758 -1.748852
-2.299060 3.893706 -1.750159
-2.465445 4.199330 -1.742846
-2.665018 4.567855 -1.740724
-2.874628 4.955307 -1.726431
-3.148134 5.457991 -1.726442
-3.448951 6.013764 -1.712841
-3.825738 6.706825 -1.704698
-4.254196 7.498359 -1.681092
-4.600039 8.052796 -1.573704
-4.887819 8.579486 -1.431258
-5.523395 9.742922 -1.344478
-6.392403 11.333167 -1.243756
-7.549029 13.444401 -1.100870
-9.382194 16.796980 -0.912201
-9.547946 17.107151 -0.463487
0.001651 -0.302586 -0.010533
-11.122154 20.012873 0.536599
0.001651 -0.302586 -0.010533
-7.597395 13.594333 1.103469
0.001651 -0.302586 -0.010533
0.001651 -0.302586 -0.010533
-6.344860 11.329747 1.857232
-6.347498 11.340046 2.173719
0.001651 -0.302586 -0.010533
-0.273075 0.202532 -0.351032
-0.282442 0.220220 -0.344352
-0.312964 0.276590 -0.360483
-0.348984 0.343441 -0.379054
-0.442375 0.516218 -0.450814
-1.877582 3.164768 -1.764417
-1.985464 3.365532 -1.750963
-2.119100 3.615741 -1.748139
-2.269487 3.897293 -1.746076
-2.436779 4.208782 -1.740947
-2.636935 4.583447 -1.740745
-2.841555 4.967036 -1.724804
-3.113049 5.472974 -1.725458
-3.406969 6.023584 -1.710110
-3.779449 6.721118 -1.702660
-4.206896 7.522074 -1.680765
-4.593818 8.153274 -1.587655
-4.867764 8.665277 -1.440466
-5.478593 9.794889 -1.347307
-6.326380 11.367265 -1.243636
-7.470692 13.489735 -1.101090
-9.296071 16.867014 -0.913225
-9.479872 17.221989 -0.465144
-9.879084 17.976055 -0.002219
-10.615040 19.346748 0.516928
0.001637 -0.302262 -0.010521
-8.596910 15.639988 1.263339
-7.612068 13.826591 1.493290
-7.386096 13.413791 1.817622
-7.552229 13.734726 2.236229
-6.313827 11.443907 2.186001
-6.359877 11.535198 2.526958
-0.271711 0.207510 -0.353063
-0.284295 0.231439 -0.350218
-0.308695 0.277220 -0.359537
-0.341764 0.339548 -0.375460
-0.438377 0.520753 -0.451663
-1.858444 3.177470 -1.765242
-1.957583 3.366182 -1.745586
-2.094958 3.626917 -1.747429
-2.246139 3.912296 -1.746776
-2.409070 4.221832 -1.740327
-2.607888 4.599352 -1.740767
-2.812056 4.985355 -1.725378
-3.076929 5.488242 -1.724475
-3.369565 6.041719 -1.709680
-3.738031 6.741364 -1.702281
-4.159926 7.543029 -1.680067
-4.583644 8.255527 -1.601610
-4.829148 8.717925 -1.444400
-5.432629 9.853842 -1.350832
-6.254209 11.399668 -1.243150
-7.388304 13.527604 -1.100755
-9.200628 16.934542 -0.913979
-9.490541 17.493496 -0.470821
0.001646 -0.301916 -0.010509
0.001646 -0.301916 -0.010509
-31.041838 58.028770 3.096950
-34.716225 64.964005 5.188039
-7.478236 13.772090 1.482759
0.001646 -0.301916 -0.010509
-6.190047 11.364279 1.850958
-6.218343 11.428132 2.176183
-8.175594 15.133158 3.287587
-0.276020 0.223095 -0.362230
-0.281211 0.233420 -0.350210
-0.300387 0.269978 -0.353899
-0.338907 0.343423 -0.376349
-0.431938 0.520416 -0.449947
-1.835219 3.183912 -1.762816
-1.935567 3.376095 -1.744829
-2.069687 3.634311 -1.745263
-2.217607 3.919217 -1.744060
-2.381224 4.232599 -1.739066
-2.576971 4.609538 -1.739004
-2.779751 5.000569 -1.724852
-3.042623 5.504497 -1.723996
-3.330065 6.058482 -1.708792
-3.694355 6.760291 -1.701488
-4.114206 7.569659 -1.680479
-4.572093 8.353661 -1.614919
-4.786629 8.767784 -1.447782
-5.360155 9.858935 -1.347421
-6.183922 11.430554 -1.242662
-7.310775 13.580357 -1.101533
-9.104928 16.994658 -0.914453
-9.424203 17.617212 -0.472709
0.001655 -0.301571 -0.010498
0.001655 -0.301571 -0.010498
0.001655 -0.301571 -0.010498
0.001655 -0.301571 -0.010498
-7.414001 13.853613 1.486591
-7.124800 13.308110 1.792054
-7.437177 13.917542 2.251133
-6.092885 11.358490 2.156288
-8.068384 15.145505 3.280074
-0.263348 0.206765 -0.349988
-0.275626 0.230773 -0.347265
-0.302720 0.283043 -0.360459
-0.334251 0.344179 -0.375445
-0.427060 0.523301 -0.449941
-1.818726 3.203173 -1.766892
-1.919661 3.399319 -1.750234
-2.045441 3.645200 -1.744552
-2.193379 3.934313 -1.744761
-2.354273 4.246989 -1.739086
-2.547785 4.625076 -1.739026
-2.747355 5.015600 -1.724327
-3.003674 5.514190 -1.721496
-3.288703 6.071540 -1.706982
-3.647893 6.773737 -1.699449
-4.057540 7.575034 -1.676457
-4.567158 8.470246 -1.631464
-4.749193 8.827985 -1.452829
-5.312593 9.915583 -1.350716
-6.120634 11.479741 -1.244026
-7.217248 13.602578 -1.099952
-9.012265 17.068220 -0.915577
-9.409740 17.850677 -0.477387
-10.375964 19.732454 -0.001880
0.001641 -0.301247 -0.010486
0.001641 -0.301247 -0.010486
0.001641 -0.301247 -0.010486
-8.262671 15.704193 1.676964
-7.025717 13.315187 1.787310
-7.463407 14.176526 2.285096
-6.059738 11.464976 2.169219
-7.931606 15.106114 3.261427
-0.261292 0.210112 -0.350998
-0.275026 0.237323 -0.350193
-0.295413 0.277224 -0.355760
-0.332272 0.349569 -0.377231
-0.428218 0.537291 -0.455919
-1.794120 3.203866 -1.762026
-1.898965 3.410323 -1.750246
-2.025055 3.660232 -1.746018
-2.168840 3.945160 -1.744093
-2.327098 4.257045 -1.737824
-2.521104 4.641266 -1.739641
-2.720232 5.036349 -1.726001
-2.967646 5.524310 -1.719498
-3.252172 6.088422 -1.706551
-3.602118 6.782133 -1.696577
-4.013487 7.597919 -1.676496
-4.548788 8.555625 -1.642509
-4.667388 8.794796 -1.443438
-5.248203 9.931295 -1.348921
-6.059288 11.522946 -1.245016
-7.101299 13.568419 -1.094203
-8.926047 17.139973 -0.916787
-9.396554 18.075956 -0.481923
-10.351279 19.961420 -0.001926
0.001646 -0.300898 -0.010474
-6.753675 12.938879 0.688263
0.001646 -0.300898 -0.010474
-7.028175 13.502276 1.440539
-6.894602 13.246592 1.773018
-7.380649 14.214819 2.284456
-8.031212 15.508530 2.909781
-6.077222 11.668800 2.524087
-0.260590 0.216601 -0.354049
-0.272625 0.240838 -0.351165
-0.290386 0.276156 -0.353875
-0.330017 0.355067 -0.379017
-0.422430 0.538540 -0.455058
-1.772252 3.211218 -1.760412
-1.873577 3.415275 -1.747179
-2.001523 3.672505 -1.746034
-2.141813 3.952878 -1.742060
-2.303436 4.277864 -1.740402
-2.489144 4.651373 -1.737877
-2.685998 5.045384 -1.723822
-2.929538 5.535251 -1.717503
-3.212707 6.102157 -1.705201
-3.555997 6.792608 -1.694122
-3.965281 7.615971 -1.675428
-4.499705 8.589854 -1.643851
-4.639966 8.871345 -1.451260
-5.207129 10.001583 -1.354066
-5.986338 11.553688 -1.244530
-7.053671 13.673552 -1.099279
-8.840399 17.228643 -0.918743
-9.369224 18.294228 -0.486194
-10.417970 20.385418 -0.001898
-6.769046 13.153646 0.344795
-6.660623 12.950527 0.686682
0.001632 -0.300573 -0.010462
-6.867280 13.380919 1.423486
-6.847942 13.355091 1.781792
-7.241905 14.147678 2.267069
-8.300611 16.274792 3.042274
0.001632 -0.300573 -0.010462
-0.256843 0.216894 -0.353021
-0.265617 0.234932 -0.346261
-0.289427 0.282902 -0.356682
-0.324631 0.354110 -0.377216
-0.414368 0.534827 -0.451632
-1.749553 3.216794 -1.757985
-1.851331 3.424679 -1.746422
-1.976954 3.680959 -1.744595
-2.118950 3.968847 -1.743443
-2.272822 4.282896 -1.737223
-2.458039 4.660829 -1.736114
-2.651763 5.054197 -1.721644
-2.893305 5.547157 -1.716013
-3.171453 6.112175 -1.702930
-3.511634 6.806277 -1.692497
-3.924853 7.649578 -1.677686
-4.448434 8.615953 -1.643899
-4.590592 8.905354 -1.452420
-5.160999 10.058412 -1.357592
-5.935719 11.623963 -1.248299
-6.975748 13.719636 -1.099777
-8.753533 17.308229 -0.920327
-9.330472 18.486103 -0.489824
-10.062977 19.970709 -0.002217
-6.600818 13.010060 0.339908
-6.606398 13.033750 0.688953
0.001641 -0.300228 -0.010450
0.001641 -0.300228 -0.010450
-6.202227 12.247938 1.631648
-7.038393 13.946250 2.228752
-6.367837 12.601365 2.358795
-6.474126 12.829012 2.753235
-0.250055 0.210995 -0.347915
-0.262518 0.236809 -0.346253
-0.286843 0.286489 -0.357613
-0.318512 0.351480 -0.374519
-0.413527 0.545666 -0.455901
-1.730266 3.230726 -1.759623
-1.826595 3.428987 -1.743354
-1.951521 3.687605 -1.742429
-2.095227 3.985062 -1.744827
-2.247213 4.297955 -1.737881
-2.426915 4.670088 -1.734349
-2.620770 5.071918 -1.722219
-2.857901 5.560564 -1.715028
-3.132493 6.129469 -1.702501
-3.464266 6.816769 -1.690043
-3.876750 7.671296 -1.677359
-4.402236 8.652389 -1.645887
0.001627 -0.299903 -0.010439
-5.094251 10.074035 -1.355799
-5.870459 11.665437 -1.249106
-6.809869 13.592729 -1.086813
-8.669575 17.394560 -0.922281
-9.302145 18.703281 -0.494096
-19.522867 39.616917 0.005456
0.001627 -0.299903 -0.010439
-6.436564 12.881641 0.678925
0.001627 -0.299903 -0.010439
-8.386579 16.906590 1.782325
-6.089863 12.201642 1.620858
-6.163210 12.364153 1.974173
-8.069140 16.295126 3.028101
-6.380384 12.829309 2.745369
-0.253026 0.225200 -0.356063
-0.260099 0.240261 -0.347224
-0.287982 0.298060 -0.363235
-0.317758 0.360138 -0.378098
-0.406287 0.543496 -0.453329
-1.709106 3.239324 -1.758822
-1.807641 3.446749 -1.746448
-1.927707 3.697442 -1.741717
-2.066445 3.988916 -1.741427
-2.214929 4.299213 -1.733423
-2.396600 4.680871 -1.733181
-2.587307 5.082041 -1.720591
-2.820743 5.570290 -1.713032
-3.090373 6.137195 -1.699769
-3.421917 6.831058 -1.688831
-3.827925 7.684297 -1.675550
-4.349895 8.680469 -1.646260
-4.521500 9.039282 -1.465014
-5.037806 10.115139 -1.357245
-5.784614 11.669930 -1.246029
-6.756672 13.687732 -1.091197
-8.586136 17.491016 -0.924701
-9.288138 18.954960 -0.499239
-19.011297 39.145309 0.004976
-6.423062 13.041984 0.338575
-6.467114 13.140260 0.690395
0.001635 -0.299558 -0.010427
-6.673035 13.588315 1.432572
-6.120084 12.449950 1.648514
-6.079895 12.378371 1.970752
0.001635 -0.299558 -0.010427
-6.098372 12.435490 2.655143
-0.250839 0.228497 -0.357074
-0.257082 0.242048 -0.347216
-0.284623 0.300019 -0.363227
-0.314051 0.362263 -0.378091
-0.400663 0.544519 -0.452468
-1.691846 3.256036 -1.762085
-1.786685 3.457126 -1.746460
-1.906269 3.712165 -1.743185
-2.041714 4.001079 -1.741443
-2.188402 4.312232 -1.733441
-2.369515 4.698375 -1.734392
-2.557085 5.098934 -1.721165
-2.786895 5.586769 -1.713059
-3.053245 6.155228 -1.699800
-3.378724 6.849790 -1.688453
-3.779644 7.705428 -1.675223
-4.303081 8.712078 -1.647600
-4.504320 9.142369 -1.477003
-4.992380 10.170360 -1.360769
-5.729686 11.727541 -1.248686
-6.673417 13.721364 -1.090861
-8.499531 17.566088 -0.926191
-9.329048 19.328102 -0.507448
-18.633673 38.938328 0.004606
0.001622 -0.299234 -0.010415
-6.270622 12.926718 0.677272
-31.387211 65.952370 5.141415
0.001622 -0.299234 -0.010415
-5.986238 12.357863 1.631899
-5.936553 12.264914 1.947521
-6.043161 12.502811 2.320556
-5.654201 11.685187 2.491098
-0.249917 0.234976 -0.360125
-0.253875 0.243900 -0.347208
-0.277324 0.294031 -0.358528
-0.308615 0.361208 -0.376290
-0.393346 0.542313 -0.449897
-1.669790 3.262746 -1.760471
-1.762016 3.462980 -1.744163
-1.880840 3.720378 -1.741747
-2.016100 4.011414 -1.740776
-2.160204 4.323748 -1.732821
-2.337383 4.707503 -1.732628
-2.523515 5.108677 -1.719537
-2.747819 5.594779 -1.710558
-3.010255 6.160701 -1.696607
-3.331708 6.857056 -1.685582
-3.731000 7.722044 -1.674155
-4.253745 8.746711 -1.649267
-4.488655 9.250922 -1.489827
-4.919196 10.176752 -1.357821
-5.657382 11.759855 -1.248570
-6.582407 13.738214 -1.089275
-8.412884 17.658146 -0.928427
-9.882966 20.815868 -0.543751
-18.209066 38.621433 0.004201
-6.439144 13.479866 0.347890
-6.304468 13.204790 0.689676
-8.162279 17.192062 1.345927
-8.028340 16.921827 1.768780
-5.855681 12.274672 1.616450
-5.851559 12.272326 1.943265
-5.942693 12.480515 2.310086
-5.612796 11.783062 2.504384
-0.244649 0.232084 -0.357058
-0.248526 0.240969 -0.344262
-0.274647 0.297565 -0.359458
-0.307809 0.369812 -0.379870
-0.388490 0.544912 -0.449891
-1.647702 3.269334 -1.758857
-1.738003 3.468371 -1.741866
-1.857663 3.731474 -1.741762
-1.989677 4.019867 -1.739426
-2.132756 4.334723 -1.732200
-2.305330 4.714267 -1.730269
-2.493123 5.125214 -1.720112
-2.711408 5.605566 -1.709067
-2.972189 6.176499 -1.696178
-3.287982 6.871136 -1.684371
-3.682291 7.738369 -1.673087
-4.206553 8.782144 -1.651256
-4.478519 9.374018 -1.504872
-4.887994 10.268339 -1.365974
-5.597867 11.814270 -1.250859
-6.462959 13.692917 -1.082969
-8.319366 17.728416 -0.929643
-9.779630 20.912716 -0.544884
-17.136599 36.886013 0.003281
0.001639 -0.298543 -0.010392
-6.343473 13.495331 0.702736
0.001639 -0.298543 -0.010392
-8.015477 17.156326 1.788070
-5.750875 12.238124 1.607293
-5.803839 12.360174 1.951565
-5.839427 12.450283 2.298318
-5.843316 12.471372 2.640457
-0.241591 0.233827 -0.357050
-0.246869 0.245903 -0.346212
-0.272674 0.302696 -0.361327
-0.302462 0.368673 -0.378069
-0.388863 0.559006 -0.455870
-1.624986 3.276058 -1.757243
-1.718583 3.483681 -1.744190
-1.834437 3.742429 -1.741776
-1.964014 4.031935 -1.739443
-2.106817 4.348992 -1.732858
-2.274833 4.724329 -1.729100
-2.459329 5.136724 -1.719035
-2.678164 5.623176 -1.709600
-2.932121 6.190801 -1.695288
-3.243773 6.887286 -1.683578
-3.629674 7.749676 -1.670911
-4.136987 8.768841 -1.644509
-4.465420 9.498071 -1.519921
-4.827876 10.298466 -1.366262
-5.542871 11.879267 -1.254259
-6.337695 13.638738 -1.075969
0.001625 -0.298219 -0.010380
0.001625 -0.298219 -0.010380
0.001625 -0.298219 -0.010380
-6.479043 13.992652 0.359078
-8.073525 17.526358 0.908594
-7.875774 17.107077 1.331842
-6.567975 14.231882 1.482585
-5.698218 12.314837 1.612814
-5.721289 12.378509 1.948980
-5.767730 12.494072 2.299869
-5.789067 12.548172 2.649288
-0.238430 0.235595 -0.357042
-0.243645 0.247693 -0.346204
-0.268381 0.303036 -0.360381
-0.297057 0.367518 -0.376268
-0.380813 0.555040 -0.452444
-1.605874 3.289022 -1.758880
-1.694590 3.490791 -1.742662
-1.808142 3.748478 -1.739611
-1.938280 4.041790 -1.738776
-2.076896 4.356547 -1.730959
-2.243453 4.734568 -1.727932
-2.427981 5.151139 -1.719059
-2.639824 5.632235 -1.707604
-2.890753 6.199016 -1.693017
-3.198370 6.897238 -1.681537
-3.578480 7.760001 -1.668734
-4.083109 8.793569 -1.644558
0.001634 -0.297873 -0.010368
-4.768157 10.334520 -1.367247
-5.485165 11.945001 -1.257661
-6.254890 13.669874 -1.075632
0.001634 -0.297873 -0.010368
0.001634 -0.297873 -0.010368
-6.354746 13.928682 -0.005353
0.001634 -0.297873 -0.010368
0.001634 -0.297873 -0.010368
-6.415899 14.101953 1.097123
-6.439657 14.169756 1.472249
-5.741937 12.615586 1.646983
-5.672330 12.465894 1.957279
-6.766458 14.942433 2.734801
-5.725502 12.611399 2.655149
-0.230489 0.226279 -0.349896
-0.241904 0.252628 -0.348154
-0.257757 0.288775 -0.350989
-0.295377 0.374478 -0.378951
-0.378252 0.562444 -0.455003
-1.581497 3.290192 -1.754828
-1.669013 3.492384 -1.738824
-1.784009 3.755442 -1.738171
-1.911744 4.049771 -1.737426
-2.050869 4.368408 -1.730977
-2.213778 4.743855 -1.726761
-2.395773 5.163618 -1.718532
-2.605116 5.643671 -1.706618
-2.851723 6.212329 -1.692126
-3.156560 6.911747 -1.680740
-3.532644 7.778387 -1.668403
-4.028296 8.811846 -1.643634
0.001620 -0.297548 -0.010357
-4.724519 10.402109 -1.372394
-5.416978 11.982192 -1.258285
-6.212174 13.791814 -1.082238
-7.218954 16.091129 -0.839836
0.001620 -0.297548 -0.010357
-16.572065 37.378155 0.002648
-6.313919 14.073618 0.359054
-6.333196 14.125217 0.729233
-6.330444 14.133548 1.096622
-6.315567 14.107383 1.462103
-5.696843 12.709662 1.654833
-5.609059 12.522288 1.960835
0.001620 -0.297548 -0.010357
0.001620 -0.297548 -0.010357
-0.229621 0.232637 -0.352946
-0.236051 0.247910 -0.344229
-0.257316 0.297013 -0.354735
-0.293056 0.379730 -0.380737
-0.379215 0.578147 -0.461837
-1.565084 3.307676 -1.758903
-1.650780 3.508735 -1.741917
-1.761354 3.765669 -1.738185
-1.886678 4.058999 -1.736758
-2.023273 4.376647 -1.729715
-2.186343 4.758233 -1.727377
-2.364485 5.175472 -1.718004
-2.571136 5.656679 -1.706138
-2.813007 6.223130 -1.690774
-3.115486 6.927791 -1.680359
-3.482041 7.785693 -1.665854
-3.973423 8.825485 -1.642062
-4.431674 9.882713 -1.567290
-4.687677 10.481487 -1.379158
-5.333251 11.977875 -1.254832
-6.198586 13.976674 -1.093705
-7.080405 16.023388 -0.834468
-10.653419 24.270735 -0.623753
-16.203186 37.105263 0.002299
-7.727447 17.560543 0.447459
-7.305895 16.595724 0.853701
-7.373581 16.769604 1.295527
-6.259517 14.199442 1.467803
-6.202522 14.082162 1.825955
-7.661754 17.482450 2.716738
-7.176711 16.366226 2.976320
-5.951545 13.536358 2.831933
-0.228505 0.239089 -0.355997
-0.237616 0.260879 -0.351075
-0.253786 0.298880 -0.354727
-0.284112 0.370301 -0.374452
-0.368881 0.569165 -0.455846
-1.541511 3.312199 -1.756476
-1.625252 3.512031 -1.738849
-1.736508 3.776691 -1.738201
-1.860065 4.068726 -1.736092
-1.991713 4.382289 -1.727176
-2.149445 4.757775 -1.722638
-2.329714 5.184438 -1.716376
-2.534714 5.672620 -1.706167
-2.775036 6.241834 -1.691266
-3.070524 6.945236 -1.679981
-3.431843 7.805338 -1.665528
-3.917670 8.845613 -1.641464
-4.417222 10.016577 -1.583732
-4.636134 10.538691 -1.382919
-5.304941 12.114027 -1.265457
-6.120047 14.028235 -1.094899
-6.985803 16.070965 -0.834842
-10.532963 24.405586 -0.625650
-15.828841 36.844170 0.001944
-7.347217 16.962553 0.430892
-7.255759 16.765396 0.859974
0.001611 -0.296875 -0.010333
-13.016622 30.357830 3.106988
-5.703417 13.150970 1.702430
-5.726213 13.212162 2.056370
-5.621647 12.979323 2.362926
-5.742102 13.277809 2.771394
-0.224749 0.239151 -0.354969
-0.232376 0.257752 -0.348130
-0.254460 0.310449 -0.360349
-0.282345 0.377214 -0.377135
-0.366682 0.578294 -0.459260
-1.520699 3.321353 -1.756488
-1.604727 3.525057 -1.740403
-1.710117 3.780102 -1.735308
-1.834885 4.079707 -1.736108
-1.963996 4.392272 -1.726555
-2.121762 4.773939 -1.723849
-2.295126 5.191018 -1.714197
-2.498063 5.682090 -1.704676
-2.731313 6.243691 -1.687612
-3.028017 6.961322 -1.679600
-3.381326 7.816247 -1.663720
-3.852670 8.839272 -1.636332
-4.378535 10.091455 -1.591287
-4.580607 10.582014 -1.385060
-5.233390 12.144699 -1.265526
-6.036693 14.061724 -1.094841
-6.929334 16.201527 -0.839472
-10.461711 24.635803 -0.630014
-15.472366 36.595684 0.001606
0.001620 -0.296530 -0.010321
-7.101836 16.674572 0.853125
-16.002542 37.960720 2.901922
-12.755419 30.230543 3.086301
-7.000220 16.476171 2.120627
0.001620 -0.296530 -0.010321
0.001620 -0.296530 -0.010321
0.001620 -0.296530 -0.010321
-0.221664 0.240777 -0.354961
-0.231186 0.264257 -0.351059
-0.250977 0.312233 -0.360342
-0.280504 0.384138 -0.379818
-0.362348 0.582387 -0.460109
-1.497103 3.325587 -1.754061
-1.581287 3.531154 -1.738875
-1.688741 3.795388 -1.737503
-1.808174 4.089108 -1.735442
-1.936242 4.402084 -1.725934
-2.093260 4.788168 -1.724465
-2.263994 5.208424 -1.715323
-2.462837 5.694939 -1.704196
-2.691716 6.258320 -1.687183
-2.981934 6.972250 -1.677976
-3.331655 7.832851 -1.663023
-3.796211 8.852526 -1.634761
-4.321369 10.128568 -1.593010
-4.536884 10.654443 -1.390902
-5.170016 12.195226 -1.267631
-5.978831 14.164015 -1.099926
-6.870836 16.330128 -0.844010
-10.380547 24.847509 -0.633921
-11.903732 28.566864 -0.001191
-7.160128 17.076311 0.431445
-7.019974 16.754318 0.854996
-11.845838 28.503458 2.176415
-11.799785 28.421837 2.895461
-6.892956 16.490833 2.117270
-5.473926 13.049866 2.021351
0.001628 -0.296184 -0.010309
-4.768197 11.348693 2.364394
-0.215230 0.234453 -0.349854
-0.223235 0.254668 -0.344196
-0.243353 0.304248 -0.354703
-0.273765 0.379511 -0.376223
-0.356592 0.583137 -0.459248
-1.476918 3.336168 -1.754886
-1.557835 3.539111 -1.738118
-1.664468 3.803634 -1.736791
-1.780764 4.094563 -1.733408
-1.909152 4.413491 -1.725952
-2.063215 4.798715 -1.723891
-2.230093 5.216357 -1.713694
-2.423955 5.698580 -1.701188
-2.651025 6.266811 -1.685371
-2.941280 6.989141 -1.678009
-3.285465 7.849846 -1.662692
-3.746331 8.886191 -1.636752
-4.261266 10.153611 -1.593065
-4.486072 10.716459 -1.395359
-5.122849 12.292406 -1.274369
-5.924773 14.270627 -1.105425
-7.732660 18.734447 -0.962351
-10.489886 25.533373 -0.649567
-14.746694 36.051994 0.000925
0.001615 -0.295860 -0.010298
-6.722136 16.302286 0.829964
0.001615 -0.295860 -0.010298
0.001615 -0.295860 -0.010298
-6.860161 16.689003 2.137201
-6.230776 15.147647 2.335051
-5.305098 12.861406 2.324703
-4.612198 11.155739 2.319457
-0.217386 0.248775 -0.358003
-0.222773 0.262709 -0.348105
-0.242631 0.312499 -0.358449
-0.271327 0.384684 -0.378009
-0.347481 0.575457 -0.454110
-1.455292 3.343255 -1.754084
-1.539144 3.554934 -1.741212
-1.639430 3.810043 -1.735351
-1.754756 4.103331 -1.732741
-1.879883 4.419471 -1.724051
-2.031026 4.803740 -1.721531
-2.197603 5.227654 -1.713167
-2.387954 5.709186 -1.700202
-2.610295 6.275085 -1.683559
-2.892960 6.994060 -1.675139
-3.233438 7.860407 -1.660884
-3.689844 8.894486 -1.634531
-4.206175 10.191186 -1.595065
-4.435598 10.769335 -1.398887
-5.055433 12.328551 -1.275177
-5.882300 14.408574 -1.113288
-7.584719 18.673794 -0.957272
-10.469312 25.914900 -0.657655
-14.400715 35.794884 0.000602
0.001623 -0.295514 -0.010286
-6.609427 16.298389 0.827714
-6.812655 16.826988 1.283542
-7.155282 17.707418 1.802609
0.001623 -0.295514 -0.010286
-5.266517 12.978373 2.000844
-5.234954 12.913179 2.328200
-4.523727 11.125836 2.307899
-0.210989 0.242401 -0.352896
-0.218156 0.261140 -0.346138
-0.237725 0.310982 -0.356564
-0.267282 0.386630 -0.378002
-0.346950 0.589617 -0.460091
-1.437672 3.360399 -1.758161
-1.514911 3.560905 -1.739684
-1.613689 3.816555 -1.733912
-1.728697 4.111958 -1.732073
-1.851869 4.430881 -1.724071
-2.000032 4.814263 -1.720957
-2.165750 5.240561 -1.713191
-2.351569 5.721790 -1.699724
-2.573832 6.293966 -1.684510
-2.852341 7.014592 -1.676004
-3.185715 7.877384 -1.660555
-3.628732 8.900029 -1.631667
-4.148608 10.222951 -1.596231
-4.365491 10.784709 -1.397559
-4.986264 12.373500 -1.276730
-5.830410 14.526080 -1.119624
-6.425449 16.056185 -0.824756
-10.357435 26.088583 -0.660568
-6.931493 17.373220 -0.005069
-6.809195 17.080509 0.428137
-6.417640 16.099535 0.815621
-6.581609 16.528162 1.257954
0.001609 -0.295190 -0.010274
-6.593212 16.594822 2.115116
-5.218069 13.080792 2.011648
0.001609 -0.295190 -0.010274
-4.520073 11.317647 2.341211
-0.211021 0.251956 -0.357987
-0.217484 0.269225 -0.350047
-0.235503 0.315985 -0.358433
-0.261409 0.383505 -0.375304
-0.341864 0.591930 -0.460085
-1.419901 3.379436 -1.763051
-1.494685 3.575056 -1.742008
-1.589980 3.826116 -1.733927
-1.702522 4.122467 -1.732090
-1.822584 4.436490 -1.722170
-1.969881 4.824255 -1.720383
-2.132168 5.251861 -1.712664
-2.316184 5.733762 -1.699244
-2.532590 6.304012 -1.683160
-2.804019 7.018931 -1.673133
-3.137151 7.896494 -1.660597
-3.570720 8.908226 -1.629448
-4.087568 10.251403 -1.596844
-4.350428 10.935956 -1.413354
-4.912512 12.400477 -1.276613
-5.781215 14.661244 -1.127214
-6.295884 16.001949 -0.820309
-10.275176 26.329062 -0.665175
-6.747407 17.209095 -0.005232
-6.742085 17.205610 0.430198
-6.363292 16.240992 0.820776
-6.433720 16.442492 1.248472
0.001618 -0.294845 -0.010262
-6.546361 16.764555 2.131552
-6.821068 17.500031 2.673340
0.001618 -0.294845 -0.010262
-4.421513 11.261251 2.324462
-0.210234 0.259967 -0.362058
-0.212889 0.267591 -0.348081
-0.229996 0.312756 -0.355610
-0.259931 0.392066 -0.378884
-0.334661 0.589223 -0.457513
-1.396758 3.382772 -1.760623
-1.469731 3.579013 -1.739711
-1.566824 3.839295 -1.735396
-1.675065 4.127251 -1.730056
-1.798512 4.458182 -1.726028
-1.939465 4.836193 -1.720404
-2.099511 5.262582 -1.712137
-2.280374 5.747732 -1.699272
-2.493868 6.316992 -1.682729
-2.763243 7.038943 -1.673998
-3.087164 7.907392 -1.659158
-3.513929 8.924066 -1.628525
-4.019716 10.256588 -1.594121
-4.334599 11.095584 -1.430079
-4.851972 12.468820 -1.280575
-5.719788 14.759912 -1.132161
-6.219657 16.093508 -0.823090
-10.250297 26.741390 -0.673966
-6.685464 17.350882 -0.005302
0.001604 -0.294520 -0.010251
-6.281329 16.321781 0.822835
-10.691471 28.002035 2.112950
-6.709935 17.485966 1.767831
-6.494094 16.933552 2.147749
-6.689160 17.461536 2.661526
-4.771491 12.386707 2.219512
-4.454530 11.558075 2.378908
-0.205223 0.256680 -0.358990
-0.212709 0.277317 -0.352968
-0.225860 0.312774 -0.354664
-0.252850 0.385514 -0.374393
-0.330980 0.594815 -0.459217
-1.375565 3.391082 -1.760635
-1.446758 3.586013 -1.738954
-1.545014 3.851808 -1.736863
-1.649555 4.137175 -1.730072
-1.768638 4.459604 -1.722846
-1.910795 4.847267 -1.720424
-2.064799 5.267703 -1.709957
-2.244576 5.755265 -1.697779
-2.457096 6.335238 -1.683680
-2.719523 7.047262 -1.672370
-3.046083 7.937747 -1.661785
-3.455944 8.931537 -1.626306
-3.955411 10.270626 -1.592787
-4.317662 11.250937 -1.446341
-4.779770 12.500629 -1.281015
-5.659517 14.863969 -1.137527
-6.257833 16.485064 -0.840787
-10.145958 26.924076 -0.677196
0.001613 -0.294175 -0.010239
0.001613 -0.294175 -0.010239
-6.222553 16.448702 0.827335
-14.054275 37.559090 2.823677
-6.602931 17.502966 1.765683
-6.388815 16.945690 2.144629
-4.875918 12.879286 1.967646
-5.267657 13.945991 2.488333
-4.435977 11.712159 2.404803
-0.199760 0.251705 -0.354903
-0.205305 0.267374 -0.346106
-0.226752 0.325960 -0.361225
-0.251522 0.393967 -0.377973
-0.325232 0.595352 -0.458356
-1.356848 3.406128 -1.763899
-1.425692 3.596108 -1.739736
-1.522385 3.864478 -1.738332
-1.624012 4.146932 -1.730089
-1.740564 4.468282 -1.722225
-1.880487 4.856738 -1.719850
-2.032747 5.279823 -1.709981
-2.209025 5.766619 -1.697299
-2.417540 6.345959 -1.682789
-2.673239 7.056249 -1.670745
-2.991815 7.941232 -1.658868
-3.400954 8.941772 -1.624732
-3.891077 10.284279 -1.591453
-4.303173 11.411314 -1.463296
-4.721289 12.562979 -1.284602
-5.604436 14.984678 -1.144145
0.001599 -0.293851 -0.010227
-10.101813 27.290310 -0.684887
0.001599 -0.293851 -0.010227
0.001599 -0.293851 -0.010227
-6.132207 16.501497 0.828084
-13.915373 37.857174 2.839691
-5.513496 14.842372 1.496778
-6.316622 17.057215 2.153844
-4.779657 12.851681 1.959210
0.001599 -0.293851 -0.010227
-4.533113 12.195992 2.496696
-0.197685 0.256467 -0.356934
-0.201977 0.268921 -0.346098
-0.219469 0.317670 -0.355587
-0.246831 0.394109 -0.377069
-0.319335 0.595910 -0.457495
-0.613945 1.413394 -0.817549
-1.403836 3.608308 -1.741290
-1.496421 3.870268 -1.736893
-1.599040 4.158319 -1.730788
-1.710364 4.473503 -1.720325
-1.848605 4.864543 -1.718681
-1.999306 5.288161 -1.708902
-2.169765 5.770845 -1.694797
-2.377291 6.354613 -1.681437
-2.632170 7.075553 -1.671610
-2.937727 7.940153 -1.655210
-3.342060 8.950996 -1.622837
-3.828078 10.301251 -1.590674
-4.282906 11.573363 -1.480257
-4.648970 12.602345 -1.285785
-5.524485 15.039549 -1.145898
-6.155515 16.810471 -0.853486
-10.034719 27.619160 -0.691622
0.001608 -0.293505 -0.010215
0.001608 -0.293505 -0.010215
0.001608 -0.293505 -0.010215
-10.620929 29.355591 2.199808
-5.436311 14.902344 1.499488
-5.508872 15.123231 1.908389
-4.724545 12.937148 1.967782
-4.657137 12.763872 2.270937
-4.502473 12.345218 2.521098
-0.194528 0.257928 -0.356926
-0.199311 0.272069 -0.347069
-0.217130 0.322595 -0.357456
-0.241058 0.390824 -0.374370
-0.319041 0.611709 -0.464330
-0.601671 1.410346 -0.814296
-1.381963 3.618397 -1.742073
-1.473046 3.880900 -1.737635
-1.574630 4.171330 -1.732172
-1.687288 4.496122 -1.724821
-1.815710 4.866423 -1.715725
-1.967123 5.299923 -1.708926
-2.133528 5.779918 -1.693811
-2.338333 6.366679 -1.681007
-2.587112 7.083527 -1.669983
-2.890916 7.959121 -1.655620
-3.286122 8.962987 -1.621588
-3.758378 10.299203 -1.587117
0.001594 -0.293180 -0.010204
-4.578619 12.640502 -1.286966
-5.460044 15.139167 -1.150987
-6.016979 16.732944 -0.848021
-9.956360 27.910608 -0.697483
0.001594 -0.293180 -0.010204
0.001594 -0.293180 -0.010204
-10.422325 29.319260 1.461288
-10.122945 28.486889 2.130479
-5.383046 15.031442 1.509090
-5.441040 15.215046 1.915753
-4.625326 12.899093 1.957952
-4.589059 12.811306 2.274439
-4.460108 12.458501 2.538457
-0.187281 0.248057 -0.349779
-0.195380 0.271947 -0.346081
-0.213465 0.324231 -0.357448
-0.241717 0.406080 -0.381538
-0.314420 0.615587 -0.465179
-0.587361 1.402146 -0.808604
-1.359331 3.628616 -1.742857
-1.448379 3.887889 -1.736922
-1.545031 4.172063 -1.728770
-1.657206 4.498932 -1.722280
-1.788441 4.884372 -1.718126
-1.932655 5.308197 -1.707848
-2.095995 5.785128 -1.691813
-2.298774 6.380780 -1.681038
-2.542030 7.091254 -1.668356
-2.840134 7.966693 -1.653810
-3.227248 8.971478 -1.619694
-3.698067 10.329142 -1.588285
0.001599 -0.292831 -0.010192
-4.510289 12.692243 -1.289447
-5.381472 15.209334 -1.153856
-5.932202 16.815895 -0.850436
-9.882813 28.224770 -0.703898
-12.308099 35.264694 -0.001443
-12.283627 35.236835 0.871354
-10.133533 29.037365 1.444167
-9.963717 28.580761 2.132825
-5.325858 15.152921 1.517946
-4.554560 12.932666 1.628907
-4.554712 12.949134 1.961225
-4.519941 12.856543 2.277616
-4.403201 12.532668 2.548028
-0.187597 0.259211 -0.355889
-0.194482 0.279972 -0.349990
-0.210592 0.327425 -0.358378
-0.234322 0.397631 -0.376149
-0.307441 0.612585 -0.462608
-0.577285 1.404022 -0.807789
-1.337416 3.636476 -1.742869
-1.424858 3.898280 -1.737663
-1.521893 4.186290 -1.730837
-1.629569 4.508744 -1.722298
-1.754916 4.884071 -1.714575
-1.900722 5.317421 -1.707320
-2.060958 5.797431 -1.691839
-2.260220 6.390162 -1.680145
-2.499450 7.106118 -1.668390
-2.790004 7.975800 -1.652370
-3.175470 8.989686 -1.619738
-3.636759 10.344349 -1.587503
-4.248730 12.148527 -1.542256
-4.449930 12.753369 -1.293035
-5.306401 15.273479 -1.156441
-6.763440 19.570488 -0.983942
-9.829185 28.607128 -0.711971
0.001607 -0.292486 -0.010180
0.001607 -0.292486 -0.010180
-19.349861 56.771435 2.813446
0.001607 -0.292486 -0.010180
-5.246410 15.211972 1.520655
-4.484049 12.975965 1.630931
-4.408423 12.760831 1.929374
-4.468109 12.953780 2.289884
-4.403337 12.777938 2.591708
-0.185520 0.263882 -0.357921
-0.188416 0.273152 -0.345085
-0.207578 0.330648 -0.359309
-0.231487 0.402696 -0.377935
-0.302798 0.616396 -0.463457
-0.566063 1.404279 -0.806162
-1.315336 3.646212 -1.743652
-1.400701 3.906749 -1.737678
-1.495302 4.195564 -1.730854
-1.600089 4.512995 -1.720397
-1.725677 4.896239 -1.715191
-1.864979 5.321633 -1.705140
-2.025228 5.807710 -1.691359
-2.218682 6.398257 -1.678794
-2.453679 7.115563 -1.667180
-2.735355 7.975732 -1.649083
-3.118190 8.996930 -1.617841
-3.570447 10.356673 -1.586171
-4.179528 12.180668 -1.543248
-4.393056 12.833882 -1.298479
-5.216477 15.312603 -1.157085
-6.669833 19.671984 -0.987113
-9.733491 28.876017 -0.717288
0.001594 -0.292162 -0.010168
0.001594 -0.292162 -0.010168
-18.981167 56.762871 2.807206
-7.081866 21.024551 1.565545
-5.106640 15.099562 1.506414
0.001594 -0.292162 -0.010168
-4.350215 12.845387 1.937944
0.001594 -0.292162 -0.010168
-4.253368 12.577638 2.546780
-0.182769 0.266940 -0.358932
-0.189424 0.287855 -0.352912
-0.202222 0.327180 -0.356485
-0.227924 0.406094 -0.378825
-0.296275 0.615084 -0.461740
-0.552863 1.397437 -0.801283
-1.291374 3.652524 -1.742895
-1.375182 3.913549 -1.736965
-1.468839 4.202657 -1.730186
-1.572145 4.524533 -1.721056
-1.693098 4.901263 -1.713427
-1.832610 5.332623 -1.705163
-1.987819 5.816258 -1.690375
-2.180129 6.411244 -1.678824
-2.410365 7.128052 -1.666798
-2.685859 7.986089 -1.648013
-3.063021 9.015601 -1.617889
-3.508427 10.375527 -1.585947
-4.099236 12.186722 -1.541000
-4.343044 12.945199 -1.306893
-5.129022 15.350293 -1.157727
-6.572401 19.776100 -0.990382
-9.935766 30.081425 -0.745242
0.001602 -0.291816 -0.010156
0.001602 -0.291816 -0.010156
-18.597698 56.738106 2.800114
-6.954672 21.052052 1.564445
0.001602 -0.291816 -0.010156
0.001602 -0.291816 -0.010156
-4.309965 12.979841 1.954043
-4.358017 13.144732 2.313765
-4.299916 12.982549 2.621965
-0.177956 0.263419 -0.355864
-0.183396 0.280987 -0.348007
-0.197573 0.325312 -0.354600
-0.222247 0.402644 -0.376127
-0.290488 0.615404 -0.460879
-0.547300 1.414951 -0.807786
-1.269202 3.661986 -1.743678
-1.350379 3.919952 -1.736253
-1.443285 4.215216 -1.731570
-1.542061 4.526631 -1.718514
-1.662577 4.909447 -1.712852
-1.797441 5.338246 -1.703535
-1.952611 5.827938 -1.690401
-2.139726 6.422543 -1.678394
-2.365692 7.140706 -1.666418
-2.637288 8.004090 -1.648424
-3.005722 9.022161 -1.615992
-3.440215 10.381406 -1.583780
-4.019998 12.187762 -1.538288
-4.270403 12.981700 -1.308075
-5.045276 15.409286 -1.159901
-6.477498 19.878626 -0.993649
-7.045727 21.675655 -0.540933
-7.033309 21.665045 -0.005332
0.001588 -0.291492 -0.010145
-18.222727 56.699997 2.792660
-9.459073 29.332106 2.170907
0.001588 -0.291492 -0.010145
-5.778617 17.843452 2.219713
-4.317056 13.275395 1.993832
-4.137099 12.726874 2.237074
-4.835738 14.934855 3.003356
-0.174127 0.263183 -0.354836
-0.179475 0.280743 -0.347020
-0.193910 0.326818 -0.354593
-0.220836 0.412798 -0.380605
-0.286900 0.622570 -0.463439
-0.532520 1.402729 -0.800467
-1.244617 3.666257 -1.742151
-1.326107 3.927989 -1.736267
-1.417320 4.223774 -1.731587
-1.513171 4.532134 -1.717253
-1.633174 4.921088 -1.713467
-1.764425 5.346994 -1.703007
-1.917910 5.841267 -1.690933
-2.098696 6.427664 -1.676581
-2.321827 7.146656 -1.664790
-2.586242 8.004010 -1.645503
-2.948018 9.032647 -1.614744
-3.376304 10.393825 -1.582722
-3.931523 12.166270 -1.532798
-4.218524 13.092603 -1.316490
-4.973348 15.497419 -1.164299
-6.378105 19.981833 -0.996919
-6.911314 21.691406 -0.540459
-6.898951 21.680731 -0.005461
-16.880825 53.533871 1.310983
0.001597 -0.291147 -0.010133
-9.309175 29.453093 2.175633
-6.352390 20.021420 1.979819
-6.815509 21.530466 2.668029
-4.234135 13.285269 1.991531
-4.120154 12.929106 2.267848
0.001597 -0.291147 -0.010133
-0.173081 0.271054 -0.358907
-0.177313 0.285411 -0.348970
-0.191516 0.331596 -0.356462
-0.214770 0.407549 -0.377009
-0.278428 0.614187 -0.458301
-0.519509 1.395643 -0.795587
-1.221951 3.671718 -1.741392
-1.301767 3.935910 -1.736281
-1.390724 4.230417 -1.730919
-1.489263 4.553787 -1.721750
-1.599183 4.917984 -1.709320
-1.729677 5.350038 -1.700827
-1.881977 5.850712 -1.690453
-2.059389 6.438122 -1.676150
-2.277069 7.158777 -1.664410
-2.534689 8.012017 -1.644064
-2.892986 9.039870 -1.613169
-3.315305 10.415313 -1.583055
-3.857790 12.175076 -1.531240
-4.164887 13.184787 -1.323232
-4.897072 15.573783 -1.167863
-6.297779 20.124378 -1.002224
-6.781056 21.719736 -0.540306
-6.761125 21.684124 -0.005592
-16.538843 53.493874 1.307395
0.001583 -0.290822 -0.010121
-6.144144 19.746403 1.459571
-6.532120 21.039663 2.075582
0.001583 -0.290822 -0.010121
-4.559415 14.629882 2.185735
-4.541207 14.590137 2.549226
-4.653175 14.967709 2.998743
-0.173750 0.285583 -0.367058
-0.175397 0.291816 -0.351900
-0.188828 0.336462 -0.358331
-0.210639 0.409139 -0.377002
-0.275668 0.624822 -0.462571
-0.509800 1.398937 -0.795586
-1.198410 3.679240 -1.741406
-1.276676 3.943882 -1.736296
-1.365210 4.240481 -1.731619
-1.461584 4.566501 -1.723048
-1.567162 4.924047 -1.708151
-1.697714 5.362084 -1.701401
-1.845517 5.862092 -1.690480
-2.018931 6.444606 -1.674797
-2.230762 7.160857 -1.661951
-2.485138 8.021164 -1.642993
-2.834689 9.047777 -1.611597
-3.248981 10.419412 -1.580885
-3.784335 12.199981 -1.531539
-4.118897 13.322051 -1.334244
-4.810814 15.619259 -1.169200
-6.205422 20.257351 -1.006981
-6.870358 22.489256 -0.557975
-6.809376 22.303246 -0.005600
-10.326539 34.016792 0.828553
0.001592 -0.290477 -0.010110
0.001592 -0.290477 -0.010110
-6.148798 20.209459 1.990759
-5.240650 17.206203 2.129363
-4.448996 14.574663 2.173671
-4.478634 14.693909 2.562456
-5.526325 18.223221 3.633995
-0.163071 0.262173 -0.351752
-0.169561 0.284796 -0.346995
-0.186238 0.341254 -0.360201
-0.208636 0.417545 -0.380582
-0.268341 0.619801 -0.459144
-0.500055 1.402194 -0.795584
-1.175009 3.684636 -1.740648
-1.251207 3.947932 -1.734856
-1.338560 4.246801 -1.730951
-1.433046 4.573360 -1.722427
-1.538182 4.936985 -1.709362
-1.662406 5.362890 -1.698669
-1.809505 5.871099 -1.690000
-1.978462 6.450857 -1.673445
-2.187260 7.172040 -1.661569
-2.437781 8.037562 -1.643402
-2.780867 9.064277 -1.611642
-3.183872 10.426882 -1.579271
-3.704418 12.195247 -1.528361
-4.092507 13.521532 -1.351374
-4.683977 15.528433 -1.160659
-6.116458 20.392704 -1.011920
0.001578 -0.290152 -0.010098
-10.143801 34.079762 -0.003460
-15.835372 53.434948 1.300665
-5.701560 19.083748 0.935452
-5.804286 19.447153 1.432352
-6.031211 20.246790 1.990831
-5.161612 17.310789 2.138342
-4.368904 14.619388 2.176378
-6.244607 21.047680 3.646872
0.001578 -0.290152 -0.010098
-0.162781 0.273355 -0.357863
-0.165287 0.282745 -0.345028
-0.181109 0.337581 -0.357377
-0.200056 0.403640 -0.372501
-0.262090 0.618200 -0.457427
-0.493059 1.416001 -0.800462
-1.151575 3.689909 -1.739890
-1.227291 3.957197 -1.735598
-1.310570 4.251390 -1.729600
-1.404479 4.580055 -1.721805
-1.509643 4.951592 -1.711168
-1.628845 5.372979 -1.698693
-1.773458 5.879892 -1.689520
-1.937883 6.460951 -1.673014
-2.141323 7.179583 -1.660358
-2.386160 8.044657 -1.641963
-2.724750 9.072888 -1.610393
-3.120786 10.447815 -1.579605
-3.640216 12.243414 -1.531668
0.001587 -0.289807 -0.010086
-4.646678 15.751746 -1.174941
-6.007228 20.462482 -1.013705
0.001587 -0.289807 -0.010086
-12.919073 44.458164 -0.001740
0.001587 -0.289807 -0.010086
-16.385672 56.585651 2.760743
-5.683223 19.468166 1.431260
-5.913106 20.295965 1.992016
-5.055786 17.325302 2.136384
0.001587 -0.289807 -0.010086
0.001587 -0.289807 -0.010086
-3.938627 13.483124 2.691595
-0.156122 0.263083 -0.350715
-0.161393 0.282397 -0.344040
-0.176895 0.337295 -0.356430
-0.200356 0.420616 -0.380568
-0.260319 0.632207 -0.463408
-0.487725 1.434964 -0.807779
-1.127955 3.696993 -1.739903
-1.201813 3.960928 -1.734158
-1.285415 4.262817 -1.730984
-1.378488 4.595674 -1.724383
-1.479938 4.962383 -1.711783
-1.597772 5.388151 -1.700368
-1.738931 5.894078 -1.690557
-1.898461 6.470447 -1.672583
-2.099065 7.189859 -1.659975
-2.340109 8.060081 -1.642371
-2.666450 9.079728 -1.608820
-3.054005 10.448813 -1.577156
-3.559809 12.244114 -1.529188
-4.046513 13.977179 -1.391020
-4.581977 15.876472 -1.182124
-5.911205 20.594210 -1.018465
-9.280128 32.517769 -0.795733
-12.639960 44.457100 -0.002014
0.001596 -0.289462 -0.010074
-16.024267 56.560211 2.754610
-5.527187 19.351120 1.420243
-4.962841 17.359695 1.703596
-4.971466 17.415668 2.143733
-4.201237 14.694962 2.179840
-5.863700 20.638155 3.564517
0.001596 -0.289462 -0.010074
-0.155343 0.272581 -0.355806
-0.160082 0.290341 -0.347950
-0.174354 0.342006 -0.358300
-0.194458 0.415190 -0.376972
-0.255159 0.633998 -0.463402
-0.480523 1.446814 -0.811844
-1.105666 3.703572 -1.739915
-1.177548 3.966124 -1.733444
-1.259486 4.268434 -1.730315
-1.346627 4.587208 -1.718640
-1.449571 4.967219 -1.710612
-1.566034 5.397325 -1.700390
-1.703347 5.900293 -1.689570
-1.861195 6.483157 -1.673072
-2.055692 7.196157 -1.658761
-2.289282 8.058193 -1.639448
-2.612492 9.089111 -1.607892
-2.992923 10.462224 -1.576652
-3.490822 12.267965 -1.529713
-4.030725 14.230139 -1.413346
-4.529513 16.038633 -1.192090
-5.801966 20.654181 -1.019876
0.001582 -0.289137 -0.010063
-12.346719 44.371181 -0.002294
0.001582 -0.289137 -0.010063
-15.672546 56.525913 2.748303
-5.355433 19.156988 1.403777
-5.512126 19.741308 1.931682
-4.898839 17.539284 2.155272
-5.227195 18.761730 2.769718
-5.654363 20.334068 3.506956
0.001582 -0.289137 -0.010063
-0.151203 0.270495 -0.353758
-0.154908 0.284875 -0.344024
-0.169313 0.338249 -0.355475
-0.189927 0.414926 -0.376067
-0.249676 0.635848 -0.463395
-0.470705 1.451735 -0.812656
-1.085558 3.720897 -1.744550
-1.151316 3.969770 -1.732004
-1.230937 4.270738 -1.728280
-1.320152 4.604588 -1.721859
-1.417854 4.974232 -1.710037
-1.532253 5.406872 -1.700413
-1.666100 5.908754 -1.689091
-1.819973 6.490660 -1.672181
-2.009934 7.208916 -1.658797
-2.239276 8.076153 -1.640230
-2.556359 9.096731 -1.606641
-2.926491 10.470566 -1.575317
-3.416901 12.282437 -1.529083
-4.010187 14.485988 -1.435863
-4.455529 16.150293 -1.198304
-5.686471 20.706892 -1.020919
0.001587 -0.288788 -0.010051
-12.055416 44.347485 -0.002577
0.001587 -0.288788 -0.010051
-15.301897 56.494820 2.741976
-5.298545 19.406483 1.419469
-5.519382 20.257671 1.978277
0.001587 -0.288788 -0.010051
-5.136138 18.875021 2.781593
-5.379289 19.811930 3.412066
-5.302869 19.542231 3.861047
-0.147441 0.270062 -0.352730
-0.153302 0.292864 -0.347933
-0.166969 0.344690 -0.358284
-0.185753 0.416381 -0.376059
-0.246055 0.644631 -0.466811
-0.461141 1.456524 -0.813468
-1.059368 3.718698 -1.740710
-1.125068 3.973265 -1.730564
-1.205614 4.281723 -1.729664
-1.289143 4.605358 -1.719317
-1.386618 4.982870 -1.710058
-1.496013 5.402911 -1.696579
-1.628310 5.915127 -1.688105
-1.780895 6.501368 -1.672210
-1.965730 7.216916 -1.657999
-2.189075 8.081639 -1.638789
-2.500630 9.112065 -1.606688
-2.860897 10.474197 -1.573424
-3.340702 12.297081 -1.528454
-3.961744 14.658083 -1.450224
-4.364872 16.191446 -1.199505
-5.559254 20.730932 -1.020574
-5.570741 20.806170 -0.513188
-5.571619 20.826420 -0.006636
-5.575000 20.871042 0.501400
-14.933704 56.467106 2.735932
-5.826811 21.877888 1.596236
-5.241182 19.680834 1.919359
0.001573 -0.288463 -0.010039
-5.066332 19.059841 2.804060
-4.736647 17.828651 3.069562
-5.337067 20.155602 3.974340
-0.142500 0.264573 -0.348642
-0.149953 0.294080 -0.347925
-0.162422 0.342576 -0.356398
-0.182595 0.421238 -0.377846
-0.237046 0.632377 -0.459962
-0.449703 1.454191 -0.811027
-1.036745 3.726844 -1.741494
-1.100973 3.981811 -1.731305
-1.179764 4.290725 -1.730364
-1.260002 4.609356 -1.718055
-1.357646 4.996667 -1.711865
-1.465123 5.419216 -1.698806
-1.593036 5.926612 -1.688637
-1.741263 6.509977 -1.671778
-1.920057 7.218962 -1.655956
-2.141799 8.098262 -1.639568
-2.446455 9.126642 -1.606733
-2.794388 10.473577 -1.570975
-3.263682 12.299138 -1.526434
-3.882598 14.707967 -1.452900
-4.288869 16.290062 -1.204883
-5.440609 20.772610 -1.021154
0.001581 -0.288118 -0.010027
-5.449951 20.858482 -0.006752
-5.434601 20.831514 0.499556
0.001581 -0.288118 -0.010027
-5.111532 19.623453 1.430579
-5.108795 19.643524 1.912737
-5.653365 21.801760 2.659944
-5.412731 20.879223 3.063926
-5.068313 19.563530 3.359272
-3.496781 13.431367 2.659732
-0.139309 0.265734 -0.348633
-0.145310 0.290207 -0.344978
-0.161390 0.354120 -0.362022
-0.177196 0.417416 -0.375147
-0.232184 0.635825 -0.460811
-0.440254 1.460711 -0.812652
-1.014055 3.734875 -1.742277
-1.076357 3.988422 -1.731319
-1.151651 4.294341 -1.729013
-1.232691 4.620551 -1.719353
-1.327201 5.004720 -1.711885
-1.429836 5.422543 -1.697176
-1.556282 5.932261 -1.687650
-1.701373 6.522407 -1.672269
-1.873102 7.221076 -1.653912
-2.090091 8.103536 -1.638127
-2.389755 9.131355 -1.605158
-2.730498 10.490290 -1.571030
-3.188206 12.306512 -1.525108
-3.797627 14.736217 -1.453535
-4.198243 16.346510 -1.207201
-5.351973 20.933723 -1.027491
-8.659497 34.098808 -0.828184
-11.198570 44.249516 -0.003403
0.001568 -0.287794 -0.010016
0.001568 -0.287794 -0.010016
-4.987504 19.630545 1.428790
-5.805454 22.932852 2.226523
-5.295421 20.911179 2.548414
-5.285613 20.905558 3.062971
-4.529277 17.902670 3.072609
0.001568 -0.287794 -0.010016
-0.138913 0.278592 -0.355764
-0.143973 0.299868 -0.349867
-0.155034 0.345122 -0.356382
-0.173423 0.420548 -0.376037
-0.223828 0.625202 -0.454817
-0.428857 1.458244 -0.810211
-0.991497 3.746526 -1.744602
-1.052164 3.996686 -1.732061
-1.123444 4.293936 -1.726293
-1.203496 4.624226 -1.718090
-1.295341 5.007043 -1.710119
-1.396470 5.429150 -1.696648
-1.521348 5.945220 -1.688688
-1.661213 6.528636 -1.671377
-1.830679 7.229850 -1.653529
-2.040422 8.103942 -1.635944
-2.332873 9.141875 -1.604557
-2.667909 10.504247 -1.570805
-3.109137 12.308185 -1.523088
-3.713202 14.778138 -1.455471
-4.110028 16.401730 -1.209518
-5.251740 21.070196 -1.032627
-8.601143 34.717361 -0.841899
-10.922368 44.233963 -0.003670
0.001576 -0.287448 -0.010004
-5.622477 22.690432 1.096440
-4.882658 19.699991 1.431617
-5.681829 22.990423 2.228818
-5.242402 21.225388 2.582487
-4.832845 19.577436 2.866152
-3.773427 15.237629 2.617228
-3.968637 16.067005 3.163197
-0.134535 0.274687 -0.352696
-0.140270 0.299322 -0.348879
-0.153590 0.354889 -0.361068
-0.169892 0.423581 -0.376927
-0.220683 0.635610 -0.459088
-0.418372 1.459246 -0.809397
-0.969806 3.755932 -1.746154
-1.026598 3.999393 -1.730620
-1.097923 4.304314 -1.727676
-1.175641 4.633243 -1.718748
-1.263931 5.011046 -1.708947
-1.365291 5.444929 -1.698874
-1.484532 5.950447 -1.687701
-1.621934 6.538422 -1.671406
-1.784686 7.235206 -1.652317
-1.991953 8.121975 -1.637095
-2.277869 9.145494 -1.602980
-2.606160 10.521710 -1.571136
-3.036422 12.316031 -1.521992
-3.628997 14.798988 -1.455547
-4.032022 16.501122 -1.215036
-5.179474 21.295750 -1.042122
-8.399890 34.768581 -0.842143
-10.639717 44.187561 -0.003940
-10.734495 44.622868 1.068171
-5.439039 22.509027 1.086037
-4.729559 19.568983 1.420048
0.001585 -0.287103 -0.009992
-4.722952 19.591614 2.382135
-4.824456 20.052353 2.930681
-3.673519 15.227454 2.611627
-3.650790 15.145157 2.980054
-0.131217 0.275803 -0.352688
-0.136401 0.298778 -0.347892
-0.147342 0.345827 -0.355428
-0.164855 0.421440 -0.375125
-0.215610 0.639012 -0.459937
-0.407903 1.460176 -0.808582
-0.471476 1.734898 -0.876918
-1.001997 4.009367 -1.732089
-1.071466 4.310893 -1.727692
-1.146863 4.642306 -1.719407
-1.235065 5.029947 -1.712541
-1.331820 5.451161 -1.698346
-1.448363 5.963258 -1.688740
-1.582584 6.547999 -1.671435
-1.742653 7.251418 -1.653596
-1.942595 8.129824 -1.636393
-2.219598 9.149572 -1.601406
-2.542981 10.533004 -1.570633
-2.960690 12.330283 -1.521594
-3.537153 14.810895 -1.454700
-3.978933 16.710897 -1.228493
-4.682927 19.750683 -0.966983
0.001571 -0.286779 -0.009980
0.001571 -0.286779 -0.009980
0.001571 -0.286779 -0.009980
-4.629858 19.641760 0.946716
-4.582632 19.456329 1.409878
-4.601676 19.571928 1.894443
-4.591043 19.559650 2.374815
-4.576524 19.514795 2.848944
-3.577465 15.219864 2.606679
-3.576822 15.243511 2.994793
-0.129906 0.285273 -0.357780
-0.133014 0.299909 -0.347883
-0.145668 0.355618 -0.360113
-0.161181 0.424456 -0.376015
-0.209879 0.638814 -0.459075
-0.398231 1.464630 -0.809394
-0.462296 1.748706 -0.881542
-0.976813 4.013597 -1.731376
-1.045802 4.320987 -1.729076
-1.119286 4.652867 -1.720704
-1.201484 5.024261 -1.708393
-1.296630 5.449697 -1.695613
-1.413213 5.975590 -1.689778
-1.543622 6.559235 -1.671925
-1.698348 7.257850 -1.652798
-1.892381 8.133524 -1.634951
-2.163459 9.154837 -1.600155
-2.478407 10.538160 -1.569295
-2.886201 12.339722 -1.520730
-3.440844 14.790577 -1.450882
-3.903627 16.833057 -1.235686
-4.551038 19.705585 -0.963653
-4.541985 19.700155 -0.483357
-4.534805 19.686888 -0.007495
0.001580 -0.286433 -0.009968
-4.509705 19.645079 0.945488
-4.497463 19.609238 1.418857
-4.488121 19.602333 1.894709
-4.480169 19.601627 2.376570
-4.618165 20.232878 2.948570
-3.539164 15.467785 2.644886
0.001580 -0.286433 -0.009968
-0.125483 0.281320 -0.354711
-0.128496 0.295903 -0.344937
-0.141582 0.355067 -0.359167
-0.155134 0.416998 -0.371521
-0.204555 0.640343 -0.459069
-0.388227 1.469089 -0.810206
-0.449369 1.746270 -0.879230
-0.951231 4.015843 -1.729935
-1.018439 4.327453 -1.729092
-1.088786 4.650308 -1.717522
-1.173744 5.044490 -1.712581
-1.262173 5.455732 -1.695085
-1.375032 5.974526 -1.687272
-1.502567 6.566700 -1.671494
-1.652719 7.264305 -1.652002
-1.841120 8.139185 -1.633880
-2.106471 9.155918 -1.598255
-2.411120 10.539477 -1.567402
-2.815170 12.364221 -1.521721
-3.362155 14.847426 -1.454485
-3.809755 16.891321 -1.238286
0.001566 -0.286109 -0.009957
0.001566 -0.286109 -0.009957
-9.801183 44.092117 -0.004740
0.001566 -0.286109 -0.009957
0.001566 -0.286109 -0.009957
-4.408914 19.770365 1.428389
-4.792298 21.552597 2.078563
-4.891527 22.025684 2.663866
0.001566 -0.286109 -0.009957
-3.457428 15.542850 2.653887
-3.531035 15.895001 3.112458
-0.122463 0.284095 -0.355723
-0.124682 0.295284 -0.343949
-0.137773 0.356242 -0.359159
-0.152851 0.426985 -0.376000
-0.197292 0.633026 -0.454786
-0.379277 1.476988 -0.812645
-0.439239 1.758268 -0.883084
-0.927619 4.027047 -1.732130
-0.991456 4.331738 -1.728423
-1.061119 4.660552 -1.718819
-1.140635 5.040285 -1.709028
-1.230281 5.468891 -1.696761
-1.339357 5.984570 -1.687804
-1.464291 6.581288 -1.672905
-1.610933 7.275668 -1.652449
-1.792804 8.143914 -1.632807
-2.048304 9.158954 -1.596681
-2.346636 10.543842 -1.566064
-2.737964 12.371326 -1.520627
-3.269783 14.855761 -1.453452
-3.763792 17.159056 -1.255927
-4.717145 21.615437 -1.052264
-7.570565 34.892918 -0.841459
