# This PCD file was generated using the MATLAB® pcwrite function
# from Computer Vision Toolbox®.
# .PCD v.7 - Point Cloud Data file format
VERSION .7
FIELDS x y z
SIZE 4 4 4
TYPE F F F
COUNT 1 1 1
WIDTH 1629
HEIGHT 1
VIEWPOINT 0 0 0 1 0 0 0
POINTS 1629
DATA ascii
-9.568478 15.147649 -0.848974
-0.000020 -0.304300 -0.010225
-10.216655 16.213396 -0.000830
-11.595667 18.457350 0.512521
-0.000020 -0.304300 -0.010225
-0.000020 -0.304300 -0.010225
-7.779067 12.306388 1.379363
-7.573160 11.982025 1.684662
-0.000020 -0.304300 -0.010225
-7.747117 12.278764 2.424845
-6.427752 10.143867 2.307153
-0.299605 0.184481 -0.349658
-0.318074 0.215021 -0.351827
-0.340499 0.251817 -0.356368
-0.374313 0.307478 -0.369720
-0.471757 0.467267 -0.437607
-2.063364 3.071909 -1.769468
-2.179765 3.263704 -1.754156
-2.331244 3.514576 -1.754723
-2.500150 3.794448 -1.754928
-2.673775 4.080749 -1.742761
-2.890338 4.439568 -1.740559
-3.135802 4.846394 -1.736091
-3.410440 5.299612 -1.724081
-3.752014 5.865658 -1.717465
-4.136245 6.502739 -1.699172
-4.580595 7.239801 -1.668603
-4.728455 7.407210 -1.491834
-5.199856 8.182573 -1.404088
-5.869787 9.279611 -1.316943
-6.812166 10.826855 -1.221340
-0.000032 -0.303977 -0.010214
-9.550190 15.318746 -0.855224
-10.013180 16.088831 -0.446886
-0.000032 -0.303977 -0.010214
-11.724867 18.913303 0.523347
-19.400856 31.519117 1.745957
-7.949448 12.745558 1.065717
-7.774524 12.468306 1.392081
-7.529113 12.069900 1.690745
-7.429251 11.915289 2.006653
-7.520665 12.075242 2.376734
-6.428669 10.281839 2.329445
-0.301146 0.193955 -0.354743
-0.311380 0.211264 -0.347900
-0.330812 0.243571 -0.349790
-0.374387 0.316134 -0.373295
-0.479317 0.490514 -0.448708
-2.045786 3.087194 -1.771081
-2.159506 3.278497 -1.754912
-2.308540 3.528684 -1.754709
-2.477496 3.810706 -1.755598
-2.647720 4.096867 -1.742747
-2.859193 4.452059 -1.738761
-3.102125 4.858114 -1.733876
-3.375133 5.316775 -1.723056
-3.711432 5.879139 -1.715150
-4.087931 6.511674 -1.695423
-4.545160 7.279881 -1.671543
-4.688745 7.445602 -1.493758
-5.155012 8.219481 -1.405182
-5.809746 9.309498 -1.316234
-6.755279 10.882744 -1.222986
-8.000319 12.949594 -1.085183
-9.555359 15.537991 -0.863964
-10.443165 17.023367 -0.470092
-0.000022 -0.303633 -0.010202
-10.817609 17.665598 0.486926
-0.000022 -0.303633 -0.010202
-7.865944 12.777775 1.064611
-0.000022 -0.303633 -0.010202
-0.000022 -0.303633 -0.010202
-7.362843 11.964987 2.007788
-7.472594 12.157602 2.384232
-6.364727 10.318453 2.329091
-0.298292 0.196001 -0.354732
-0.310213 0.216365 -0.349846
-0.333981 0.256429 -0.356345
-0.368053 0.314020 -0.370594
-0.474746 0.493588 -0.448696
-2.020616 3.089834 -1.766192
-2.135089 3.284845 -1.751820
-2.283578 3.537445 -1.752516
-2.450885 3.820391 -1.753536
-2.621366 4.110750 -1.742095
-2.830803 4.467123 -1.738153
-3.069414 4.871261 -1.732211
-3.338771 5.329790 -1.721020
-3.676764 5.902415 -1.715596
-4.050607 6.538808 -1.696238
-4.501419 7.306262 -1.671528
-4.647089 7.477884 -1.494713
-5.106860 8.251063 -1.405443
-5.772627 9.373826 -1.320376
-6.701975 10.940602 -1.225002
-7.929997 13.006063 -1.085997
-9.495654 15.646311 -0.866803
-10.107071 16.686602 -0.459573
-10.375637 17.144810 -0.000345
-10.792595 17.860281 0.490595
-0.000012 -0.303289 -0.010191
-0.000012 -0.303289 -0.010191
-7.587267 12.490894 1.384833
-7.874025 12.984838 1.803681
-7.358677 12.119978 2.026239
-7.659013 12.637216 2.467825
-6.322448 10.387408 2.336161
-0.297247 0.200966 -0.356759
-0.305531 0.215429 -0.347877
-0.329962 0.257097 -0.355396
-0.369136 0.324110 -0.375065
-0.471210 0.498123 -0.449539
-2.000119 3.100180 -1.765367
-2.115952 3.298649 -1.752577
-2.263045 3.552082 -1.753230
-2.426134 3.833170 -1.752839
-2.597639 4.127295 -1.742721
-2.802193 4.479902 -1.736949
-3.038596 4.887534 -1.731647
-3.304349 5.343663 -1.719489
-3.635076 5.913745 -1.712821
-4.011154 6.562350 -1.696224
-4.459510 7.335789 -1.672252
-4.604578 7.505747 -1.495022
-5.080640 8.319921 -1.411808
-5.719502 9.407969 -1.320591
-6.656254 11.007372 -1.228128
-7.854250 13.053555 -1.086118
-9.483399 15.830314 -0.873792
-9.746723 16.291410 -0.447646
-0.000027 -0.302962 -0.010180
-10.775984 18.065472 0.494595
-0.000027 -0.302962 -0.010180
-18.904177 31.971592 2.623572
-0.000027 -0.302962 -0.010180
-0.000027 -0.302962 -0.010180
-7.726765 12.914766 2.149152
-6.339210 10.549766 2.061018
-6.281482 10.455131 2.343231
-0.295971 0.206042 -0.358786
-0.302439 0.217579 -0.347865
-0.330172 0.265500 -0.359136
-0.368120 0.331246 -0.377743
-0.467352 0.502806 -0.450382
-1.979579 3.110391 -1.764541
-2.088995 3.301892 -1.747944
-2.237334 3.560939 -1.751037
-2.401343 3.845774 -1.752143
-2.570366 4.141318 -1.742068
-2.773778 4.496769 -1.736936
-3.005789 4.900270 -1.729982
-3.267881 5.358483 -1.717959
-3.594343 5.926491 -1.710506
-3.975456 6.592458 -1.697869
-4.420357 7.370195 -1.674084
-4.569084 7.552032 -1.498563
-5.035875 8.357937 -1.413180
-5.654804 9.430039 -1.318958
-6.597026 11.060786 -1.229589
-7.773188 13.092008 -1.085547
-9.457664 16.007620 -0.880226
-9.697214 16.434053 -0.449854
-10.177003 17.269018 -0.000303
-0.000017 -0.302618 -0.010169
-0.000017 -0.302618 -0.010169
-0.000017 -0.302618 -0.010169
-0.000017 -0.302618 -0.010169
-0.000017 -0.302618 -0.010169
-7.641613 12.943935 2.146655
-6.293350 10.615495 2.066562
-6.204784 10.470405 2.338421
-0.289611 0.202102 -0.354697
-0.304657 0.228713 -0.353727
-0.326898 0.267724 -0.359125
-0.368019 0.339894 -0.381317
-0.464498 0.508963 -0.452080
-1.962617 3.126828 -1.766966
-2.070953 3.319006 -1.750241
-2.216919 3.577310 -1.752478
-2.378351 3.861498 -1.752813
-2.544739 4.156379 -1.742055
-2.744202 4.509683 -1.735733
-2.973873 4.914488 -1.728868
-3.234278 5.375855 -1.717439
-3.554566 5.940652 -1.708651
-3.930852 6.607066 -1.695781
-4.378034 7.399284 -1.674808
-4.557184 7.636748 -1.509540
-4.991836 8.397433 -1.414829
-5.621386 9.502421 -1.324255
-6.533463 11.102373 -1.229943
-7.703861 13.150731 -1.086638
-9.430059 16.178329 -0.886385
-9.584803 16.462172 -0.449109
-10.048843 17.280788 -0.000311
-11.021535 18.998245 0.516672
-0.000029 -0.302294 -0.010157
-0.000029 -0.302294 -0.010157
-0.000029 -0.302294 -0.010157
-7.292360 12.503690 1.720456
-7.543630 12.950206 2.140527
-6.235250 10.660465 2.068204
-6.197013 10.601979 2.359227
-0.289262 0.208573 -0.357744
-0.297292 0.223211 -0.348821
-0.321004 0.265317 -0.356299
-0.359020 0.333016 -0.375927
-0.458948 0.510368 -0.451214
-1.937755 3.130782 -1.762891
-2.050062 3.331211 -1.750228
-2.187216 3.577368 -1.746652
-2.350847 3.870950 -1.750751
-2.517165 4.167988 -1.740763
-2.714576 4.522412 -1.734530
-2.939101 4.925673 -1.726653
-3.198691 5.389652 -1.715909
-3.511757 5.951775 -1.705876
-3.889793 6.630599 -1.695766
-4.333230 7.427168 -1.675163
-4.555165 7.740474 -1.524073
-4.936236 8.420332 -1.413704
-5.557002 9.521136 -1.322392
-6.452975 11.114146 -1.227155
-7.621959 13.193050 -1.086344
-9.399830 16.347511 -0.892452
-9.495943 16.531372 -0.449454
-9.898182 17.258553 -0.000338
-10.640301 18.582685 0.503658
-0.000019 -0.301950 -0.010146
-0.000019 -0.301950 -0.010146
-7.559530 13.147444 1.436818
-7.208754 12.528496 1.718139
-7.203120 12.528794 2.065130
-6.132429 10.630488 2.055537
-6.165815 10.694401 2.371495
-0.285382 0.209120 -0.356713
-0.292489 0.222237 -0.346852
-0.317642 0.267537 -0.356288
-0.360470 0.344839 -0.381294
-0.453242 0.511830 -0.450348
-1.917071 3.140619 -1.762066
-2.027598 3.342010 -1.749446
-2.164159 3.590615 -1.746639
-2.322221 3.876533 -1.747322
-2.489682 4.181523 -1.740111
-2.684984 4.537094 -1.733922
-2.908955 4.942842 -1.726640
-3.162998 5.405475 -1.714885
-3.472851 5.967129 -1.704482
-3.849806 6.653222 -1.695752
-4.294367 7.462641 -1.677365
-4.544908 7.834894 -1.536666
-4.892684 8.461057 -1.415631
-5.496696 9.550793 -1.321915
-6.401628 11.182121 -1.230281
-7.547997 13.244032 -1.086882
-9.326153 16.448708 -0.894831
-9.518386 16.807907 -0.455162
-10.393698 18.388823 0.000278
-10.861163 19.245302 0.519933
-0.000031 -0.301627 -0.010135
-8.499978 15.014486 1.223320
-8.361662 14.777548 1.606967
-7.092072 12.498396 1.708359
-7.114704 12.544424 2.060956
-6.022550 10.581350 2.039617
-6.129947 10.784431 2.383019
-0.281597 0.209590 -0.355682
-0.291135 0.227318 -0.348798
-0.315209 0.271241 -0.357214
-0.353314 0.340955 -0.377697
-0.452021 0.521113 -0.453755
-1.896348 3.150327 -1.761241
-2.003920 3.349106 -1.747124
-2.139929 3.600071 -1.745173
-2.297223 3.888519 -1.746626
-2.459278 4.187807 -1.736902
-2.657988 4.554492 -1.734504
-2.870399 4.944662 -1.721674
-3.128222 5.420537 -1.713860
-3.433908 5.982224 -1.703088
-3.803130 6.663589 -1.692835
-4.251466 7.491031 -1.678090
-4.536071 7.930420 -1.549583
-4.844076 8.492872 -1.416172
-5.463830 9.626117 -1.327675
-6.334435 11.217381 -1.230081
-7.481408 13.308584 -1.088528
-9.246842 16.534002 -0.896473
-9.456267 16.929371 -0.456872
-9.812630 17.585983 -0.000183
-10.804157 19.409552 0.522701
-0.000021 -0.301283 -0.010124
-0.000021 -0.301283 -0.010124
-7.357310 13.148672 1.427699
-7.070627 12.635232 1.721204
-7.433698 13.305027 2.176607
-5.990973 10.673350 2.050364
-7.940565 14.256642 3.122589
-0.278651 0.211539 -0.355671
-0.287260 0.227782 -0.347808
-0.313592 0.276487 -0.359079
-0.348745 0.341753 -0.376789
-0.443846 0.517665 -0.450325
-1.882521 3.172788 -1.766916
-1.985508 3.365786 -1.749421
-2.120083 3.617587 -1.747340
-2.275745 3.906972 -1.748663
-2.437902 4.210557 -1.740085
-2.627276 4.564998 -1.732707
-2.838326 4.958047 -1.720560
-3.091548 5.431979 -1.711825
-3.393063 5.993651 -1.700774
-3.766681 6.692592 -1.694481
-4.215849 7.533016 -1.681769
-0.000033 -0.300959 -0.010113
-4.792404 8.519219 -1.415880
-5.412239 9.668243 -1.329046
-6.272738 11.262766 -1.230989
-7.394350 13.335991 -1.087265
-9.181146 16.645275 -0.899498
-9.392099 17.048939 -0.458537
-9.611428 17.461348 -0.000267
-11.009036 20.060978 0.538596
-0.000033 -0.300959 -0.010113
-0.000033 -0.300959 -0.010113
-8.200670 14.898052 1.609614
-6.876300 12.454016 1.691594
-7.396541 13.424663 2.188913
-5.983812 10.812246 2.069891
-6.714131 12.178938 2.667066
-0.278139 0.218015 -0.358718
-0.285870 0.232825 -0.349755
-0.308603 0.275495 -0.357192
-0.344209 0.342497 -0.375881
-0.443384 0.528517 -0.454587
-1.860788 3.180661 -1.765279
-1.960883 3.370982 -1.746329
-2.095729 3.626779 -1.745875
-2.248808 3.915380 -1.746601
-2.405653 4.213141 -1.735598
-2.600102 4.582075 -1.733289
-2.805279 4.969554 -1.718896
-3.057585 5.448306 -1.711306
-3.354920 6.009996 -1.699841
-3.722684 6.707582 -1.692808
-4.151320 7.521039 -1.673999
-4.522105 8.134120 -1.577680
-4.753696 8.569701 -1.419472
-5.363194 9.715332 -1.331110
-6.210752 11.307801 -1.231899
-7.310047 13.368132 -1.086418
-9.099418 16.728149 -0.901049
-9.387145 17.281218 -0.463110
-0.000023 -0.300615 -0.010101
-6.775616 12.405683 0.331252
-6.662274 12.203568 0.657551
-0.000023 -0.300615 -0.010101
-8.181297 15.073677 1.623263
-6.809261 12.506013 1.693243
-7.373140 13.572288 2.205688
-8.451039 15.613633 2.959339
-6.700171 12.327105 2.690470
-0.271142 0.212321 -0.353610
-0.282786 0.234805 -0.349743
-0.306098 0.279167 -0.358118
-0.343838 0.351127 -0.379456
-0.439450 0.532988 -0.455431
-1.836684 3.185518 -1.762016
-1.940555 3.384194 -1.747086
-2.073949 3.640765 -1.746589
-2.222021 3.925644 -1.745222
-2.376092 4.220547 -1.733028
-2.572848 4.598978 -1.733871
-2.770408 4.979613 -1.716682
-3.019928 5.457593 -1.708765
-3.313804 6.023232 -1.697987
-3.678321 6.724678 -1.691550
-4.101204 7.538893 -1.672508
-4.516826 8.242357 -1.592861
-4.715790 8.626101 -1.423896
-5.309130 9.753420 -1.332020
-6.150292 11.356051 -1.233177
-7.246493 13.445136 -1.089035
-9.020756 16.817726 -0.902969
-9.343496 17.445013 -0.465911
-10.359426 19.390965 0.000770
-0.000013 -0.300271 -0.010090
-6.588307 12.238516 0.657378
-0.000013 -0.300271 -0.010090
-8.101015 15.143461 1.625521
-6.228073 11.577794 1.564958
-7.243826 13.526658 2.191458
-8.027902 15.036187 2.842607
-0.000013 -0.300271 -0.010090
-0.268895 0.215779 -0.354618
-0.277184 0.232173 -0.346795
-0.301852 0.279729 -0.357169
-0.334188 0.342392 -0.373168
-0.436161 0.539128 -0.457128
-1.817424 3.197994 -1.762816
-1.920366 3.399252 -1.748614
-2.051409 3.654970 -1.747303
-2.195931 3.935357 -1.743844
-2.348369 4.233207 -1.732376
-2.542858 4.612795 -1.733263
-2.741724 4.999231 -1.717770
-2.983939 5.472305 -1.707741
-3.276446 6.040813 -1.697513
-3.636916 6.744333 -1.691122
-4.047887 7.546990 -1.669171
-4.501657 8.337584 -1.605455
-4.690858 8.704380 -1.431926
-5.242052 9.770978 -1.330158
-6.079190 11.389134 -1.232793
-7.127665 13.410832 -1.083063
-8.936549 16.904955 -0.904704
-9.332002 17.681482 -0.470530
-9.948377 18.877201 0.000471
-0.000025 -0.299947 -0.010079
-6.510104 12.270637 0.657016
-6.545870 12.344960 0.992580
-17.901072 34.309650 3.644376
-6.776695 12.813062 1.723365
-6.151543 11.608395 1.880318
-8.220931 15.627861 2.943761
-0.000025 -0.299947 -0.010079
-0.260396 0.206959 -0.347471
-0.274911 0.235647 -0.347762
-0.296075 0.277091 -0.354343
-0.333752 0.350998 -0.376743
-0.430654 0.540268 -0.456262
-1.790601 3.195712 -1.756304
-1.895689 3.403994 -1.745522
-2.027587 3.663392 -1.745838
-2.172363 3.949940 -1.744514
-2.323009 4.246597 -1.732364
-2.511902 4.620462 -1.730871
-2.707667 5.008419 -1.715556
-2.950783 5.487487 -1.707223
-3.236359 6.052960 -1.695660
-3.594856 6.759644 -1.689864
-4.003112 7.568058 -1.668789
-0.000015 -0.299603 -0.010067
-4.629867 8.713971 -1.429139
-5.202135 9.836663 -1.334764
-5.999062 11.399470 -1.230191
-7.063138 13.480411 -1.085264
-8.856445 16.993811 -0.906624
-9.285198 17.838659 -0.473196
-0.000015 -0.299603 -0.010067
-0.000015 -0.299603 -0.010067
-6.454359 12.335582 0.658536
-0.000015 -0.299603 -0.010067
-18.587097 36.133514 3.825922
-6.136844 11.739673 1.576884
-6.010063 11.501013 1.857707
-6.183719 11.847120 2.236129
-0.000015 -0.299603 -0.010067
-0.259911 0.213330 -0.350518
-0.273496 0.240619 -0.349709
-0.291253 0.275920 -0.352455
-0.331722 0.356384 -0.378525
-0.418600 0.528485 -0.448558
-1.773532 3.210882 -1.758729
-1.871656 3.408262 -1.742430
-2.003747 3.671662 -1.744373
-2.147759 3.960656 -1.743819
-2.295898 4.256432 -1.731073
-2.484398 4.634740 -1.730859
-2.677132 5.022062 -1.714993
-2.915823 5.499016 -1.705694
-3.200827 6.071278 -1.695647
-3.554505 6.778192 -1.689437
-3.950307 7.573051 -1.665082
-0.000027 -0.299280 -0.010056
-4.607211 8.794793 -1.437724
-5.150835 9.876524 -1.336136
-5.919262 11.404689 -1.227220
-6.947378 13.443400 -1.079293
-8.784949 17.093273 -0.909190
-9.293701 18.108330 -0.478725
-19.659470 38.672874 0.011278
-6.357856 12.315113 0.324817
-6.419659 12.443124 0.662316
-0.000027 -0.299280 -0.010056
-8.118591 15.836120 1.684020
-6.023124 11.681803 1.564767
-5.907615 11.462178 1.846269
-6.088337 11.827130 2.226061
-6.077534 11.816071 2.550561
-0.260707 0.222906 -0.355603
-0.268749 0.239437 -0.347740
-0.293363 0.289036 -0.359010
-0.327022 0.357088 -0.377616
-0.416770 0.537835 -0.451965
-1.754304 3.224957 -1.760342
-1.855368 3.431227 -1.747807
-1.979472 3.684156 -1.744360
-2.119106 3.966931 -1.741074
-2.267183 4.269022 -1.730421
-2.452525 4.646739 -1.729657
-2.644647 5.036486 -1.714430
-2.878646 5.513584 -1.704670
-3.162134 6.088735 -1.695175
-3.506017 6.789582 -1.686934
-3.899541 7.592087 -1.663961
-4.417900 8.547513 -1.629660
-4.554945 8.825852 -1.438265
-5.095690 9.917915 -1.337508
-5.845275 11.431033 -1.226282
-6.919102 13.591868 -1.087590
-8.697637 17.177620 -0.910835
-9.303057 18.410376 -0.484934
-19.485756 38.905586 0.011362
-0.000021 -0.298932 -0.010045
-6.263561 12.324963 0.654046
-0.000021 -0.298932 -0.010045
-0.000021 -0.298932 -0.010045
-5.955132 11.729381 1.566181
-5.871101 11.564813 1.856897
-5.962556 11.760056 2.206888
-6.263683 12.380130 2.661584
-0.256947 0.223180 -0.354572
-0.264101 0.238182 -0.345771
-0.286849 0.284717 -0.355247
-0.324813 0.362507 -0.379398
-0.413532 0.543808 -0.453663
-1.733989 3.235331 -1.760330
-1.828987 3.432237 -1.743176
-1.955692 3.694143 -1.743622
-2.094509 3.979396 -1.741062
-2.240857 4.282324 -1.730409
-2.423166 4.659402 -1.729050
-2.610504 5.045051 -1.712217
-2.843422 5.526929 -1.703647
-3.123588 6.103678 -1.694242
-3.462568 6.804713 -1.685677
-3.854903 7.616508 -1.664317
-4.369506 8.578451 -1.630617
-4.518076 8.884246 -1.443245
-5.049038 9.972387 -1.340729
-5.784662 11.479125 -1.227747
-6.765140 13.481370 -1.075939
-8.613562 17.261835 -0.912571
-9.288437 18.654287 -0.489736
-0.000033 -0.298609 -0.010034
-6.395406 12.768183 0.334847
-6.256581 12.495759 0.661121
-8.185590 16.447750 1.302556
-7.926544 15.932000 1.684050
-5.833495 11.656703 1.552199
-5.859124 11.714446 1.875066
-5.828174 11.661483 2.182511
-5.898923 11.817329 2.535738
-0.253922 0.225001 -0.354560
-0.263289 0.244738 -0.348696
-0.284271 0.288268 -0.356174
-0.323346 0.369521 -0.382076
-0.411045 0.551385 -0.456216
-1.712819 3.243945 -1.759506
-1.808283 3.444698 -1.743934
-1.933474 3.707356 -1.744336
-2.068199 3.988344 -1.739684
-2.216072 4.298915 -1.731675
-2.394581 4.673604 -1.729038
-2.578863 5.058592 -1.711654
-2.808998 5.541792 -1.703129
-3.084135 6.116636 -1.692849
-3.419073 6.819574 -1.684420
-3.809251 7.638919 -1.664305
-4.319185 8.605569 -1.630928
-4.470308 8.921136 -1.444896
-4.996730 10.015937 -1.342563
-5.720218 11.519742 -1.228473
-6.412819 12.956484 -1.032425
-0.000023 -0.298265 -0.010022
-9.861755 20.121180 -0.525395
-18.567764 38.164478 0.010875
-0.000023 -0.298265 -0.010022
-6.293808 12.762277 0.673185
-0.000023 -0.298265 -0.010022
-7.917548 16.153568 1.702367
-5.811891 11.788890 1.565042
-5.702330 11.566269 1.846589
-5.765163 11.707649 2.184801
-5.756787 11.700830 2.504194
-0.251648 0.228341 -0.355568
-0.257152 0.240283 -0.344769
-0.284696 0.298199 -0.360853
-0.318729 0.370091 -0.381169
-0.405371 0.552438 -0.455350
-1.686894 3.242535 -1.753806
-1.784321 3.450385 -1.741612
-1.908780 3.715390 -1.742871
-2.042685 3.998810 -1.738989
-2.187124 4.306800 -1.729745
-2.362653 4.680732 -1.726647
-2.547974 5.073689 -1.711642
-2.769530 5.545957 -1.699578
-3.045478 6.131107 -1.691916
-3.373843 6.830637 -1.682333
-3.755090 7.643280 -1.660599
-4.274654 8.644873 -1.633501
-0.000035 -0.297941 -0.010011
-4.944112 10.059207 -1.344398
-5.672634 11.595971 -1.232895
-6.308062 12.934084 -1.027840
-0.000035 -0.297941 -0.010011
-0.000035 -0.297941 -0.010011
-0.000035 -0.297941 -0.010011
-0.000035 -0.297941 -0.010011
-6.467845 13.323799 0.700594
-7.930581 16.411812 1.292468
-6.539511 13.493187 1.421495
-5.679235 11.689672 1.547793
-5.668650 11.672635 1.858054
-5.706902 11.764169 2.189042
-5.682550 11.723456 2.501980
-0.247879 0.228562 -0.354538
-0.257767 0.249975 -0.349652
-0.278247 0.293773 -0.357089
-0.308791 0.359308 -0.373985
-0.396625 0.546908 -0.451065
-1.667414 3.256123 -1.755419
-1.762726 3.460915 -1.741600
-1.884065 3.723269 -1.741406
-2.016362 4.009486 -1.738294
-2.162988 4.324797 -1.731651
-2.334747 4.696325 -1.727229
-2.515259 5.087294 -1.711080
-2.736657 5.563893 -1.700071
-3.005654 6.145854 -1.690984
-3.332305 6.852650 -1.682736
-3.704583 7.658634 -1.659109
-4.226450 8.676815 -1.634781
-4.421257 9.098885 -1.464287
-4.891162 10.102213 -1.346234
-5.609989 11.641382 -1.234176
-6.231971 12.977046 -1.028242
-6.275403 13.075512 -0.691644
-6.307230 13.155440 -0.347685
-0.000025 -0.297597 -0.010000
-0.000025 -0.297597 -0.010000
-6.365583 13.310494 0.697971
-6.385150 13.364627 1.051964
-6.401124 13.411190 1.408996
-0.000025 -0.297597 -0.010000
-5.677877 11.878692 1.884881
-7.937796 16.740578 3.087604
-5.704482 11.952288 2.542832
-0.246938 0.235028 -0.357585
-0.251575 0.245505 -0.345725
-0.273246 0.292545 -0.355202
-0.307153 0.366319 -0.376664
-0.393873 0.554517 -0.453618
-1.646161 3.264339 -1.754595
-1.739619 3.469970 -1.740819
-1.860179 3.734710 -1.741395
-1.990738 4.019656 -1.737599
-2.133150 4.332719 -1.729721
-2.302680 4.705225 -1.725433
-2.481807 5.096775 -1.709417
-2.699406 5.575090 -1.698543
-2.966859 6.159868 -1.690051
-3.287007 6.863154 -1.680650
-3.657887 7.678383 -1.658728
-4.172300 8.700279 -1.634446
-4.409555 9.216169 -1.478421
-4.827701 10.127783 -1.345759
-5.569153 11.739861 -1.240816
-6.260112 13.239410 -1.045546
-7.245080 15.383532 -0.807051
-0.000037 -0.297274 -0.009989
-0.000037 -0.297274 -0.009989
-6.291314 13.350223 0.346276
-6.311469 13.406429 0.700997
-6.314698 13.419638 1.053381
-6.301263 13.402939 1.404340
-6.280987 13.371318 1.756599
-5.547322 11.780146 1.864504
-7.674944 16.427618 3.022575
-5.557975 11.825480 2.509431
-0.240292 0.228952 -0.352477
-0.250617 0.252040 -0.348651
-0.268375 0.291234 -0.353314
-0.301104 0.363530 -0.373963
-0.391980 0.563668 -0.457026
-1.626372 3.275768 -1.755396
-1.716366 3.476905 -1.739267
-1.834610 3.740610 -1.739203
-1.965855 4.031375 -1.737587
-2.105685 4.343522 -1.729071
-2.271470 4.713520 -1.723637
-2.449111 5.107816 -1.708304
-2.663161 5.585575 -1.697014
-2.928827 6.175406 -1.689579
-3.242500 6.875164 -1.678978
-3.607051 7.688897 -1.656500
-4.118781 8.720899 -1.633787
-4.397461 9.335441 -1.492832
-4.783245 10.190094 -1.350135
-5.519557 11.815563 -1.245239
-6.269735 13.468022 -1.060219
-7.103354 15.312586 -0.801323
-10.882246 23.638615 -0.607544
-16.855099 36.792885 0.009977
-7.662446 16.579857 0.429430
-7.360594 15.929941 0.829707
-0.000027 -0.296930 -0.009977
-0.000027 -0.296930 -0.009977
-0.000027 -0.296930 -0.009977
-0.000027 -0.296930 -0.009977
-5.550799 11.985209 2.211194
-5.528501 11.947181 2.528007
-0.242203 0.241645 -0.359601
-0.247455 0.253806 -0.348639
-0.267875 0.299553 -0.357055
-0.298760 0.368849 -0.375744
-0.386998 0.566264 -0.457014
-1.605158 3.285680 -1.755384
-1.694617 3.487051 -1.739256
-1.811349 3.751424 -1.739192
-1.941669 4.046738 -1.738942
-2.076620 4.350706 -1.727141
-2.244155 4.730323 -1.724815
-2.416217 5.120832 -1.707742
-2.627667 5.597614 -1.695992
-2.890381 6.192999 -1.689567
-3.199087 6.892832 -1.678551
-3.555626 7.701500 -1.654641
-4.061937 8.733993 -1.631835
-4.386508 9.464682 -1.508631
-4.734999 10.244972 -1.353588
-5.476631 11.907432 -1.251325
-6.321008 13.802069 -1.082787
-6.981499 15.282447 -0.797715
-10.749939 23.714005 -0.607849
-16.555531 36.715469 0.009897
-0.000017 -0.296585 -0.009966
-7.222216 15.872067 0.824541
-0.000017 -0.296585 -0.009966
-15.353615 34.140297 3.526328
-6.420695 14.111091 1.842469
-0.000017 -0.296585 -0.009966
-5.481835 12.027275 2.212832
-5.489020 12.049194 2.542498
-0.239709 0.244975 -0.360609
-0.243466 0.254017 -0.347649
-0.265774 0.304687 -0.358920
-0.297689 0.377495 -0.379319
-0.382041 0.568797 -0.457003
-1.586725 3.300209 -1.757810
-1.675109 3.504139 -1.742324
-1.786501 3.758718 -1.737727
-1.914357 4.053019 -1.736881
-2.051353 4.366390 -1.728408
-2.212859 4.738261 -1.723019
-2.382681 5.129692 -1.706080
-2.595244 5.616522 -1.696991
-2.852180 6.208092 -1.689096
-3.156538 6.905541 -1.677295
-3.506175 7.710767 -1.652413
-4.005882 8.752862 -1.630853
-4.377514 9.596976 -1.524984
-4.686824 10.305927 -1.357733
-5.396086 11.921824 -1.249465
-6.277587 13.924356 -1.089286
-6.925210 15.406200 -0.801851
-10.636507 23.832548 -0.609245
-16.175259 36.431644 0.009707
-7.318865 16.337698 0.420875
-7.219855 16.120380 0.835192
-15.090007 34.047958 2.631690
-13.064059 29.450895 3.037217
-7.026354 15.717937 2.043798
-5.590931 12.458342 1.954202
-5.399446 12.027321 2.207316
-4.797636 10.664085 2.250323
-0.234621 0.241907 -0.357540
-0.238319 0.250888 -0.344701
-0.263121 0.308115 -0.359847
-0.291064 0.372928 -0.375722
-0.377760 0.572989 -0.457847
-1.566729 3.311287 -1.758612
-1.652406 3.510370 -1.740773
-1.763122 3.769274 -1.737716
-1.887790 4.060853 -1.735503
-2.024459 4.378471 -1.728397
-2.183839 4.751249 -1.723007
-2.352917 5.147193 -1.707169
-2.556538 5.621056 -1.693946
-2.813153 6.221151 -1.688164
-3.112992 6.922669 -1.676869
-3.457065 7.728141 -1.651663
-3.954502 8.773615 -1.630518
-4.365575 9.725842 -1.540783
-4.662436 10.412417 -1.367885
-5.324611 11.944787 -1.248714
-6.214671 14.004529 -1.092599
-6.878822 15.540238 -0.806633
-10.540358 23.992788 -0.611686
-15.801987 36.152016 0.009521
-0.000019 -0.295918 -0.009944
-7.051384 15.991515 0.826448
-16.277973 37.339081 2.877561
-12.963958 29.705517 3.055345
-6.927701 15.743891 2.041944
-0.000019 -0.295918 -0.009944
-5.416070 12.267869 2.244727
-5.750855 13.050763 2.735581
-0.228036 0.235716 -0.352432
-0.235755 0.254232 -0.345669
-0.255352 0.300266 -0.354207
-0.284294 0.368387 -0.372125
-0.369766 0.568889 -0.454416
-1.543772 3.315548 -1.756163
-1.628354 3.517039 -1.739221
-1.736785 3.774852 -1.735524
-1.861939 4.070252 -1.734809
-1.995209 4.387246 -1.727107
-2.154612 4.766202 -1.723591
-2.321543 5.160980 -1.707158
-2.521392 5.636451 -1.693935
-2.773290 6.232211 -1.686772
-3.069082 6.935406 -1.675613
-3.407734 7.741009 -1.650174
-3.897519 8.789990 -1.629214
-4.355388 9.862213 -1.557691
-4.611341 10.469440 -1.371569
-5.245623 11.961848 -1.247224
-6.174598 14.139463 -1.100068
-6.820065 15.663782 -0.810770
-10.471429 24.231771 -0.616036
-11.990388 27.803049 0.005037
-7.111885 16.386629 0.419998
-6.780841 15.625354 0.805560
-7.036117 16.232607 1.255046
-12.695096 29.554634 3.032386
-5.431139 12.487011 1.621127
-5.349984 12.301998 1.920427
-0.000031 -0.295595 -0.009933
-4.665325 10.711045 2.248489
-0.226304 0.240532 -0.354459
-0.231899 0.254317 -0.344679
-0.251920 0.302057 -0.354196
-0.282551 0.375288 -0.374803
-0.369685 0.583010 -0.460388
-1.521540 3.321341 -1.754526
-1.607075 3.528403 -1.739980
-1.713332 3.785108 -1.735513
-1.834582 4.076042 -1.732748
-1.968959 4.400727 -1.727735
-2.122473 4.771821 -1.721200
-2.287853 5.169277 -1.705495
-2.488699 5.654764 -1.694935
-2.733401 6.243022 -1.685380
-3.025876 6.949691 -1.674772
-3.362903 7.764476 -1.650902
-3.846675 8.816251 -1.629849
-4.342264 9.995117 -1.574045
-4.548514 10.494308 -1.371327
-5.159489 11.955485 -1.243516
-6.112257 14.224777 -1.103797
-7.724819 18.073332 -0.929404
-10.591800 24.915058 -0.631384
-7.064519 16.527624 -0.000981
-6.919793 16.199007 0.414132
-0.000021 -0.295250 -0.009921
-6.883761 16.137026 1.244661
-6.796545 15.944645 1.641223
-6.787969 15.939906 2.056663
-5.326214 12.449881 1.938315
-5.243624 12.264535 2.233042
-4.625306 10.794297 2.260010
-0.223877 0.243755 -0.355467
-0.230739 0.260816 -0.347604
-0.250509 0.308733 -0.356999
-0.282088 0.385522 -0.379274
-0.362550 0.580452 -0.457813
-1.501387 3.332075 -1.755327
-1.584344 3.536213 -1.739199
-1.687658 3.790098 -1.733322
-1.810108 4.088603 -1.733420
-1.939702 4.407087 -1.725805
-2.091819 4.780757 -1.720000
-2.253424 5.175587 -1.703283
-2.453656 5.667553 -1.694418
-2.694985 6.257177 -1.684909
-2.981144 6.960089 -1.673101
-3.309733 7.767669 -1.647566
-3.784297 8.814901 -1.625635
-4.294336 10.047724 -1.578194
-4.495432 10.542692 -1.374087
-5.096488 12.003724 -1.245353
-6.056788 14.328285 -1.108912
-7.700658 18.315374 -0.939257
-10.499910 25.105328 -0.634554
-14.730812 35.357738 0.008992
-6.894876 16.408958 0.418504
-6.474393 15.405729 0.790425
-0.000036 -0.294924 -0.009910
-0.000036 -0.294924 -0.009910
-6.635405 15.835797 2.038478
-5.190970 12.330492 1.915422
-5.130717 12.196293 2.215492
-4.745632 11.270175 2.351724
-0.220777 0.245365 -0.355456
-0.225566 0.257616 -0.344656
-0.246361 0.308866 -0.356049
-0.274131 0.377523 -0.373884
-0.356137 0.579512 -0.456092
-1.481164 3.342691 -1.756129
-1.561549 3.543911 -1.738417
-1.663412 3.798351 -1.732584
-1.783414 4.095815 -1.732042
-1.914744 4.423773 -1.727712
-2.061122 4.789514 -1.718799
-2.221889 5.188804 -1.703272
-2.420015 5.683704 -1.694912
-2.655732 6.269332 -1.683977
-2.938593 6.975649 -1.672675
-3.258816 7.776011 -1.645339
-3.734757 8.844191 -1.626917
-4.242184 10.090966 -1.580957
-4.440463 10.587125 -1.376386
-5.039111 12.066401 -1.248669
-5.985278 14.394666 -1.111256
-6.352026 15.310221 -0.787321
-10.418988 25.326849 -0.638497
-0.000026 -0.294579 -0.009898
-6.746673 16.320887 0.415244
-6.377864 15.428272 0.789682
-0.000026 -0.294579 -0.009898
-6.929749 16.814291 1.721365
-6.577414 15.960619 2.049453
-6.884598 16.728212 2.579928
-5.022468 12.136315 2.199567
-4.441364 10.709012 2.231815
-0.218943 0.250162 -0.357483
-0.224318 0.264111 -0.347581
-0.242883 0.310608 -0.356038
-0.271576 0.382754 -0.375665
-0.347068 0.571809 -0.450952
-1.458851 3.348089 -1.754493
-1.537365 3.548032 -1.736097
-1.642589 3.815113 -1.735480
-1.756718 4.102846 -1.730665
-1.884024 4.426261 -1.724505
-2.030386 4.798098 -1.717598
-2.189559 5.200064 -1.702710
-2.384110 5.694288 -1.693890
-2.617181 6.283034 -1.683506
-2.895233 6.989150 -1.671835
-3.210854 7.791311 -1.644590
-3.683550 8.869535 -1.627553
-4.178633 10.106353 -1.579559
-4.384380 10.629446 -1.378454
-4.978209 12.121440 -1.251245
-5.919887 14.477379 -1.114847
-6.235320 15.280109 -0.783991
-10.371518 25.637377 -0.644622
-6.720873 16.518173 -0.001017
-6.706488 16.499065 0.418809
-6.282033 15.452084 0.789034
-6.387506 15.724507 1.204513
-6.895216 17.015188 1.737623
-6.482226 15.994870 2.048997
-6.792319 16.782623 2.582173
-5.922148 14.609977 2.633081
-4.675924 11.485468 2.384417
-0.211373 0.240548 -0.350336
-0.219819 0.262482 -0.345613
-0.241986 0.318907 -0.359779
-0.267035 0.382961 -0.374758
-0.346712 0.585907 -0.456924
-1.437884 3.358717 -1.755294
-1.514543 3.555435 -1.735316
-1.618220 3.823102 -1.734742
-1.730600 4.113527 -1.730654
-1.854745 4.432065 -1.722576
-2.000337 4.808259 -1.716992
-2.156221 5.211503 -1.702149
-2.348888 5.706445 -1.693374
-2.577412 6.296960 -1.683035
-2.850545 7.002891 -1.670994
-3.159241 7.801409 -1.642732
-3.626366 8.879919 -1.625602
-4.118307 10.134982 -1.580103
-4.336003 10.691792 -1.383063
-4.918327 12.179868 -1.254192
-5.839459 14.531133 -1.116222
-6.183605 15.412740 -0.788775
-10.375687 26.087780 -0.654155
-13.731983 34.657284 0.008520
-0.000028 -0.293912 -0.009876
-6.289748 15.739404 0.801753
-14.415464 36.490459 2.772256
-6.814167 17.111757 1.743236
-6.438974 16.161753 2.065336
-0.000028 -0.293912 -0.009876
-0.000028 -0.293912 -0.009876
-0.000028 -0.293912 -0.009876
-0.209445 0.245335 -0.352364
-0.219685 0.272226 -0.350496
-0.233250 0.307478 -0.352263
-0.266888 0.394873 -0.380126
-0.340193 0.584899 -0.455204
-1.416819 3.367279 -1.755283
-1.491688 3.564680 -1.735305
-1.590416 3.824269 -1.731099
-1.703851 4.120237 -1.729277
-1.828732 4.448614 -1.724483
-1.969352 4.818585 -1.716387
-2.123117 5.220561 -1.701038
-2.315331 5.726028 -1.694880
-2.536618 6.304767 -1.681184
-2.805676 7.012212 -1.669324
-3.111180 7.816117 -1.641983
-3.569730 8.896089 -1.624622
-4.061053 10.166244 -1.581202
-4.289421 10.765821 -1.389058
-4.838488 12.194300 -1.252703
-5.773459 14.615069 -1.119953
-7.338057 18.674875 -0.948343
-10.244925 26.216347 -0.655781
-17.224405 44.299507 0.013550
-25.952263 66.964897 1.699225
-6.181568 15.743226 0.800069
-10.783623 27.696730 2.102407
-5.589480 14.229675 1.449660
-6.513736 16.648666 2.121799
-4.776491 12.136498 1.868260
-4.831649 12.293077 2.211957
-4.622301 11.760202 2.428990
-0.207565 0.250084 -0.354391
-0.213940 0.267296 -0.346569
-0.232292 0.315758 -0.356004
-0.261646 0.393393 -0.378321
-0.338980 0.597325 -0.460321
-1.399626 3.385951 -1.760148
-1.470753 3.576996 -1.736834
-1.567992 3.837187 -1.732540
-1.677735 4.128558 -1.728583
-1.798697 4.452323 -1.721915
-1.939887 4.830170 -1.716376
-2.092018 5.234823 -1.701577
-2.276531 5.728731 -1.691836
-2.498582 6.319597 -1.681173
-2.761483 7.023096 -1.668069
-3.062348 7.828719 -1.640865
-3.515348 8.913134 -1.623965
-3.999351 10.186081 -1.580637
-4.266719 10.898330 -1.402445
-4.792708 12.291157 -1.259531
-5.720148 14.734190 -1.126315
-0.000030 -0.293244 -0.009854
-10.151028 26.430380 -0.659545
-0.000030 -0.293244 -0.009854
-25.497149 66.935959 1.694726
-6.091948 15.786360 0.800455
-14.295339 37.458878 2.832823
-5.633969 14.600928 1.483660
-6.321260 16.435394 2.090316
-4.688028 12.119677 1.861566
-0.000030 -0.293244 -0.009854
-4.484190 11.604898 2.392244
-0.203239 0.248368 -0.352342
-0.212537 0.273761 -0.349494
-0.228781 0.317421 -0.355993
-0.258928 0.398585 -0.380103
-0.333853 0.599590 -0.460310
-1.375860 3.387436 -1.756887
-1.451679 3.594377 -1.740673
-1.546150 3.851707 -1.734710
-1.652245 4.138482 -1.728572
-1.768049 4.454043 -1.718708
-1.909679 4.839809 -1.715770
-2.059470 5.245320 -1.701016
-2.241139 5.740265 -1.691320
-2.458443 6.328723 -1.679783
-2.718636 7.037368 -1.667644
-3.015519 7.846560 -1.640854
-3.459496 8.926176 -1.622662
-3.934064 10.196298 -1.578686
-0.000020 -0.292900 -0.009842
-4.723658 12.328200 -1.260445
-5.661480 14.841962 -1.131848
-6.115572 16.073231 -0.816033
-10.115134 26.805304 -0.667216
-0.000020 -0.292900 -0.009842
-25.041830 66.900284 1.690132
-10.514516 27.949924 1.410336
-13.942706 37.178173 2.805575
-0.000020 -0.292900 -0.009842
-0.000020 -0.292900 -0.009842
-4.658490 12.260063 1.878614
-0.000020 -0.292900 -0.009842
-4.449716 11.723007 2.410817
-0.202486 0.256336 -0.356408
-0.209284 0.275298 -0.349483
-0.226499 0.322364 -0.357859
-0.252484 0.393677 -0.376506
-0.329958 0.605225 -0.462009
-1.357787 3.406156 -1.761752
-1.428655 3.601256 -1.739892
-1.520980 3.857375 -1.733246
-1.624644 4.145001 -1.727196
-1.741326 4.466271 -1.719336
-1.877488 4.843864 -1.713381
-2.024615 5.252343 -1.699355
-2.203717 5.746125 -1.689287
-2.419119 6.343525 -1.679772
-2.673085 7.048194 -1.666389
-2.965842 7.860938 -1.640106
-3.402277 8.935146 -1.620712
-3.869707 10.214214 -1.577843
-0.000032 -0.292577 -0.009831
-4.674957 12.420947 -1.266904
-5.594283 14.937428 -1.136410
-5.987505 16.016592 -0.811507
-10.035323 27.071819 -0.672253
-0.000032 -0.292577 -0.009831
-0.000032 -0.292577 -0.009831
-20.659420 56.193195 2.824493
-10.368842 28.087782 2.117885
-0.000032 -0.292577 -0.009831
-5.385540 14.471870 1.835832
-4.545280 12.181755 1.862703
-4.457368 11.953689 2.137838
-4.416713 11.848504 2.430875
-0.200403 0.261093 -0.358435
-0.203528 0.270312 -0.345557
-0.222835 0.324043 -0.357847
-0.245990 0.388761 -0.372909
-0.324163 0.605749 -0.461142
-0.614314 1.411443 -0.815086
-1.404884 3.608279 -1.739111
-1.495795 3.862894 -1.731782
-1.598421 4.152855 -1.726502
-1.713901 4.476549 -1.719326
-1.846584 4.851337 -1.712181
-1.992641 5.264254 -1.699344
-2.169553 5.760880 -1.689782
-2.376926 6.346689 -1.677001
-2.632714 7.065181 -1.666794
-2.921584 7.881415 -1.640834
-3.340737 8.936961 -1.617469
-3.809151 10.236647 -1.577834
-4.218646 11.381260 -1.453000
-4.594698 12.435693 -1.265601
-5.536962 15.054178 -1.142635
-5.906209 16.095404 -0.813618
-9.943314 27.311953 -0.676654
-0.000022 -0.292232 -0.009820
-0.000022 -0.292232 -0.009820
-10.351964 28.524830 1.433134
-10.267225 28.320116 2.130816
-5.277007 14.421501 1.456234
-4.514617 12.309491 1.562211
-4.401311 12.006670 1.832546
-4.463346 12.186830 2.174271
-4.375806 11.955506 2.447221
-0.196749 0.260902 -0.357405
-0.200379 0.271780 -0.345546
-0.219298 0.325635 -0.357836
-0.243372 0.393836 -0.374691
-0.316582 0.601109 -0.457713
-0.600227 1.403226 -0.809387
-1.383651 3.620104 -1.740641
-1.473085 3.875288 -1.733225
-1.572196 4.160527 -1.725808
-1.684959 4.485171 -1.718676
-1.817296 4.866147 -1.713360
-1.959335 5.272344 -1.698233
-2.132977 5.772140 -1.689267
-2.338131 6.362855 -1.677451
-2.583209 7.068522 -1.663880
-2.871745 7.895223 -1.640086
-3.285856 8.946497 -1.615843
-3.746472 10.253139 -1.576992
-4.205241 11.550997 -1.471008
-4.531549 12.484003 -1.267810
-5.448491 15.086148 -1.142626
-6.846892 19.054409 -0.956780
-9.923529 27.763073 -0.686145
-12.306975 34.539841 0.008263
-0.000034 -0.291909 -0.009809
-10.104413 28.369404 1.422314
-9.926578 27.880466 2.093593
-5.218032 14.533659 1.464274
-4.418020 12.274555 1.554522
-4.354497 12.107652 1.843728
-4.374846 12.172461 2.167125
-4.318005 12.024248 2.455769
-0.192803 0.260803 -0.356375
-0.200388 0.283200 -0.351407
-0.213878 0.322265 -0.355011
-0.239772 0.397328 -0.375576
-0.312461 0.606726 -0.459411
-0.590173 1.407080 -0.809376
-1.361029 3.630316 -1.741400
-1.449566 3.887804 -1.734667
-1.547587 4.175453 -1.727847
-1.658039 4.496924 -1.719305
-1.786328 4.873242 -1.712160
-1.925674 5.282376 -1.697673
-2.098644 5.786494 -1.689762
-2.297877 6.371017 -1.676061
-2.538878 7.073922 -1.661795
-2.823918 7.910096 -1.639707
-3.226770 8.959275 -1.614540
-3.683181 10.273656 -1.576705
-4.203410 11.779397 -1.495945
-4.480926 12.590762 -1.275563
-5.396472 15.231606 -1.150930
-6.747071 19.138428 -0.958893
-9.834917 28.046576 -0.691546
-12.106654 34.631470 0.008278
-12.089822 34.622078 0.866096
-19.511160 56.085453 2.801528
-9.785304 28.014641 2.099219
-5.063632 14.364305 1.444486
-6.997227 19.983576 2.509084
-4.272035 12.101039 1.838989
-4.369839 12.391824 2.200956
-4.260431 12.088272 2.463574
-0.187482 0.255697 -0.352286
-0.195476 0.279698 -0.348460
-0.212164 0.328798 -0.357814
-0.237081 0.402371 -0.377358
-0.304524 0.600231 -0.455126
-0.578912 1.405492 -0.806927
-1.337919 3.634696 -1.739850
-1.425605 3.894405 -1.733930
-1.520810 4.179015 -1.725788
-1.630051 4.502860 -1.718016
-1.758690 4.887086 -1.713339
-1.895762 5.297013 -1.698764
-2.060959 5.787445 -1.686719
-2.259392 6.380389 -1.675130
-2.497084 7.086465 -1.661371
-2.778088 7.926062 -1.639698
-3.169954 8.962537 -1.611945
-3.622853 10.290638 -1.576141
-4.168064 11.897019 -1.507485
-4.435317 12.693181 -1.283131
-5.305194 15.248615 -1.149952
-6.670707 19.270683 -0.963495
-10.090628 29.316422 -0.720716
-0.000037 -0.291242 -0.009786
-0.000037 -0.291242 -0.009786
-19.152962 56.067131 2.795219
-7.002927 20.338633 1.524346
-0.000037 -0.291242 -0.009786
-6.871782 19.986921 2.504659
-0.000037 -0.291242 -0.009786
-4.997072 14.480102 2.559992
-4.223327 12.207148 2.482517
-0.184878 0.258733 -0.353294
-0.191637 0.279490 -0.347470
-0.208587 0.330347 -0.357803
-0.233641 0.405764 -0.378243
-0.304395 0.617791 -0.462808
-0.567677 1.405765 -0.805291
-1.314109 3.639180 -1.738299
-1.401925 3.906663 -1.735373
-1.493665 4.186515 -1.725094
-1.602177 4.514582 -1.718645
-1.726136 4.892321 -1.711545
-1.860751 5.303028 -1.697103
-2.023639 5.796226 -1.685698
-2.218539 6.390321 -1.674200
-2.451363 7.100055 -1.660946
-2.727216 7.941359 -1.639318
-3.114098 8.973490 -1.610643
-3.559999 10.312287 -1.576132
-4.119296 11.985189 -1.515330
-4.367419 12.739626 -1.285155
-5.243942 15.372852 -1.156733
-6.575703 19.362146 -0.966070
-9.976249 29.560057 -0.725119
-0.000026 -0.290897 -0.009775
-0.000026 -0.290897 -0.009775
-18.769590 56.034184 2.787970
-9.587814 28.514175 2.128030
-9.160644 27.262789 2.713516
-5.778629 17.100252 2.142394
-4.200134 12.364357 1.870847
-4.901180 14.493810 2.557073
-4.799284 14.194855 2.873096
-0.183775 0.266687 -0.357361
-0.187147 0.277648 -0.345501
-0.204896 0.331909 -0.357792
-0.226725 0.398969 -0.373750
-0.297472 0.614702 -0.460233
-0.557880 1.409357 -0.805280
-1.291920 3.650750 -1.739829
-1.378317 3.916767 -1.736089
-1.470783 4.204307 -1.728499
-1.572723 4.518649 -1.716717
-1.696851 4.904328 -1.712130
-1.828506 5.313987 -1.697093
-1.987943 5.806284 -1.685182
-2.180637 6.405168 -1.674651
-2.410057 7.113962 -1.660937
-2.677563 7.945575 -1.637093
-3.056593 8.984653 -1.609340
-3.498260 10.331069 -1.575846
-4.045770 12.007859 -1.515090
-4.299990 12.795900 -1.288104
-5.166725 15.442935 -1.159634
-6.464585 19.418242 -0.966893
-6.967135 20.962845 -0.518112
-6.951581 20.940346 0.001147
-17.394753 52.897568 1.316816
-6.190521 18.649315 0.929215
-9.324547 28.271502 2.105978
-0.000039 -0.290574 -0.009764
-6.812078 20.612362 2.572088
-4.603466 13.851873 2.087882
-4.715360 14.204147 2.502121
-4.698172 14.168382 2.862337
-0.179066 0.263132 -0.354291
-0.183981 0.279010 -0.345490
-0.204132 0.341783 -0.362471
-0.225600 0.409081 -0.378221
-0.292791 0.618472 -0.461076
-0.548091 1.412869 -0.805270
-1.269347 3.656463 -1.739049
-1.352936 3.921413 -1.734626
-1.443731 4.209454 -1.727123
-1.544438 4.526145 -1.716068
-1.664589 4.907064 -1.709741
-1.796207 5.324755 -1.697083
-1.952210 5.816126 -1.684667
-2.140279 6.412376 -1.673261
-2.365493 7.126598 -1.660513
-2.627458 7.957904 -1.636346
-3.002950 8.996261 -1.608362
-3.434610 10.343825 -1.574728
-3.975212 12.024914 -1.514390
-4.244568 12.875009 -1.293456
-5.068086 15.448076 -1.157826
-6.390536 19.566580 -0.972326
-6.839743 20.987713 -0.517743
-6.824313 20.965130 0.001145
-17.057777 52.870441 1.313732
-6.040504 18.557514 0.922914
-6.153455 18.932932 1.411554
-6.497091 20.030788 1.991152
-5.350006 16.453003 2.054465
-4.464735 13.699259 2.061355
-4.482422 13.771576 2.422453
-4.635108 14.259197 2.874968
-0.174740 0.261239 -0.352242
-0.181126 0.282090 -0.346458
-0.200929 0.344985 -0.363398
-0.221997 0.412436 -0.379107
-0.287411 0.620514 -0.461065
-0.533884 1.402381 -0.798758
-1.245355 3.662498 -1.738269
-1.327920 3.929707 -1.734616
-1.417800 4.218025 -1.727113
-1.515258 4.533760 -1.715419
-1.632576 4.913546 -1.708541
-1.763852 5.335331 -1.697073
-1.914800 5.824234 -1.683646
-2.100485 6.421209 -1.672331
-2.322174 7.138551 -1.660089
-2.577585 7.965718 -1.634859
-2.945413 9.006726 -1.607060
-3.373324 10.363755 -1.574720
-3.903872 12.054299 -1.515074
-4.185582 12.961059 -1.299362
-4.983389 15.496346 -1.159204
-6.296632 19.680702 -0.976007
-6.768018 21.201817 -0.521873
-6.709618 21.029194 0.001163
-16.689886 52.805103 1.309606
-0.000041 -0.289907 -0.009741
-0.000041 -0.289907 -0.009741
-6.200720 19.496256 1.934945
-0.000041 -0.289907 -0.009741
-4.475145 14.016149 2.104377
-4.463754 13.997144 2.456932
-4.496584 14.119819 2.841933
-0.171055 0.260926 -0.351211
-0.175755 0.276802 -0.342531
-0.193603 0.334661 -0.356820
-0.213713 0.400380 -0.371924
-0.282703 0.624211 -0.461909
-0.521436 1.397030 -0.794685
-1.221476 3.666421 -1.736719
-1.301962 3.932268 -1.732426
-1.393481 4.231837 -1.729153
-1.489686 4.549986 -1.717966
-1.603709 4.926846 -1.709721
-1.730862 5.343897 -1.696513
-1.878993 5.833643 -1.683131
-2.058373 6.422372 -1.669561
-2.275908 7.140925 -1.657590
-2.527696 7.973248 -1.633373
-2.890066 9.018221 -1.606081
-3.312496 10.385239 -1.574989
-3.830959 12.071219 -1.514374
-4.110388 12.989079 -1.299724
-4.918349 15.608983 -1.165294
-6.195092 19.760864 -0.978122
-6.842248 21.882721 -0.537138
-6.809517 21.790253 0.001537
-10.345569 33.297333 0.823360
-5.755111 18.417471 0.912570
-5.950996 19.066122 1.416202
-6.063284 19.455835 1.927480
-5.171931 16.573950 2.061709
-4.357864 13.928410 2.087625
-5.268058 16.919432 2.956127
-4.441093 14.236032 2.859761
-0.169891 0.268816 -0.355278
-0.175554 0.288133 -0.348394
-0.187446 0.327642 -0.352119
-0.212849 0.412202 -0.377292
-0.276382 0.622703 -0.460189
-0.512476 1.403929 -0.796299
-1.200289 3.679017 -1.739019
-1.278166 3.941817 -1.733143
-1.365017 4.234950 -1.727093
-1.460168 4.553363 -1.716038
-1.573094 4.934501 -1.709116
-1.695751 5.348874 -1.694853
-1.844258 5.846552 -1.683627
-2.019091 6.436649 -1.670012
-2.232928 7.158360 -1.658411
-2.476956 7.982769 -1.632256
-2.834695 9.029380 -1.605103
-3.247961 10.401241 -1.574426
-3.757422 12.085790 -1.513443
-4.066789 13.121493 -1.310251
-4.862670 15.766171 -1.174569
-6.125849 19.949501 -0.985493
-0.000043 -0.289239 -0.009719
-10.145047 33.312687 0.007387
-10.176232 33.437084 0.825352
-5.626539 18.381773 0.909187
-5.720476 18.717434 1.387970
-5.939143 19.468910 1.925244
-5.059302 16.552423 2.055417
-4.353665 14.221810 2.127015
-4.286775 14.016887 2.451417
-5.801736 19.085016 3.810941
-0.165587 0.266858 -0.353228
-0.168135 0.276137 -0.340552
-0.186793 0.339247 -0.357736
-0.207675 0.410349 -0.375488
-0.270966 0.624663 -0.460178
-0.502193 1.405441 -0.795476
-1.174112 3.677548 -1.735159
-1.250406 3.940722 -1.729500
-1.338948 4.243064 -1.727084
-1.432481 4.565915 -1.717307
-1.542612 4.945911 -1.709702
-1.664351 5.362562 -1.695944
-1.805095 5.848436 -1.681090
-1.979218 6.444776 -1.669082
-2.189444 7.169562 -1.657987
-2.425956 7.985919 -1.630032
-2.776558 9.036897 -1.603478
-3.184652 10.414407 -1.573586
-0.000033 -0.288895 -0.009708
-4.035301 13.308006 -1.325953
-4.773540 15.805714 -1.175394
-6.041394 20.106522 -0.991296
-0.000033 -0.288895 -0.009708
-13.020133 43.750755 0.012659
-15.650416 52.715343 1.300350
-16.569489 55.899948 2.750758
-5.600758 18.715967 1.385447
-0.000033 -0.288895 -0.009708
-0.000033 -0.288895 -0.009708
-9.676441 32.651485 4.832428
-5.839795 19.616360 3.408820
-5.134077 17.233498 3.439684
-0.162875 0.269781 -0.354236
-0.168294 0.289151 -0.347392
-0.182691 0.338939 -0.356787
-0.202649 0.408433 -0.373684
-0.266715 0.630010 -0.461876
-0.495489 1.419166 -0.800340
-1.151759 3.686358 -1.735919
-1.229151 3.958915 -1.733850
-1.311782 4.247426 -1.725708
-1.404506 4.574414 -1.717298
-1.511393 4.951365 -1.708503
-1.631236 5.370553 -1.695384
-1.771350 5.864625 -1.682598
-1.939891 6.454508 -1.668613
-2.148091 7.188012 -1.659223
-2.377196 7.996294 -1.629285
-2.721706 9.049275 -1.602823
-3.120748 10.425298 -1.572469
-3.609146 12.118107 -1.512042
-4.007511 13.505364 -1.342765
-4.689677 15.863931 -1.177605
-5.947208 20.221903 -0.995163
-9.348022 31.992504 -0.773593
-12.739612 43.733124 0.012609
-15.311617 52.689663 1.297500
-16.211821 55.877693 2.745008
-5.505599 18.798071 1.389104
-5.579982 19.081284 1.880806
-4.908705 16.773367 2.075257
-5.250023 17.971676 2.670007
-0.000045 -0.288572 -0.009697
-5.834826 20.058969 3.989156
-0.161076 0.276006 -0.357283
-0.165452 0.292113 -0.348360
-0.181970 0.350517 -0.362405
-0.199605 0.413368 -0.375466
-0.264376 0.642311 -0.466994
-0.489150 1.434621 -0.806018
-1.129881 3.696791 -1.737449
-1.203649 3.962679 -1.732387
-1.286159 4.257042 -1.726381
-1.374425 4.575456 -1.714731
-1.482249 4.963975 -1.709683
-1.598118 5.378318 -1.694825
-1.735881 5.875065 -1.682589
-1.901034 6.465899 -1.668605
-2.100765 7.185525 -1.655896
-2.331557 8.017767 -1.630754
-2.665731 9.057528 -1.601522
-3.057385 10.437696 -1.571629
-3.539824 12.146654 -1.512959
-3.990632 13.748841 -1.364012
-4.614576 15.954338 -1.182171
-5.833362 20.271519 -0.995897
-9.226850 32.275051 -0.779002
-12.485890 43.806095 0.012605
-0.000035 -0.288227 -0.009685
-15.854440 55.851257 2.739163
-0.000035 -0.288227 -0.009685
-5.667678 19.820646 1.949722
-4.837812 16.899199 2.087158
-0.000035 -0.288227 -0.009685
-5.563693 19.517700 3.380536
-4.857061 17.025343 3.387347
-0.156891 0.273952 -0.355233
-0.159756 0.285001 -0.343455
-0.175447 0.341676 -0.356765
-0.194126 0.409672 -0.372765
-0.257578 0.638910 -0.464419
-0.481168 1.444797 -0.809258
-1.106915 3.703567 -1.737439
-1.181149 3.977049 -1.735283
-1.259469 4.262893 -1.725688
-1.347902 4.589113 -1.716639
-1.452470 4.974618 -1.710268
-1.565975 5.389615 -1.695366
-1.701383 5.889031 -1.683591
-1.859516 6.467696 -1.666295
-2.056654 7.194062 -1.655058
-2.281627 8.023788 -1.629268
-2.608680 9.061661 -1.599574
-2.991312 10.440199 -1.569402
-3.466560 12.161427 -1.512259
-3.964692 13.969535 -1.383042
-4.536464 16.036718 -1.186184
-5.653969 20.085638 -0.985383
-9.112329 32.591969 -0.785229
-12.165037 43.636662 0.012479
-14.638052 52.637718 1.291939
-15.497906 55.822567 2.733316
-15.467570 55.750706 4.083852
-5.250700 18.760992 1.843464
-5.287528 18.920757 2.329994
-0.000025 -0.287883 -0.009674
-5.451116 19.555449 3.381516
-4.753121 17.038191 3.384382
-0.152292 0.270202 -0.352164
-0.157370 0.289613 -0.345402
-0.171827 0.343003 -0.356754
-0.191975 0.418020 -0.376340
-0.252698 0.642470 -0.465263
-0.472621 1.453164 -0.811685
-1.084871 3.713781 -1.738969
-1.154147 3.975112 -1.731641
-1.233247 4.270402 -1.725679
-1.321299 4.602598 -1.718548
-1.420165 4.975844 -1.707880
-1.534761 5.404439 -1.697008
-1.665804 5.899045 -1.683582
-1.819576 6.474865 -1.665366
-2.012020 7.200442 -1.653805
-2.233726 8.037125 -1.629260
-2.551675 9.065442 -1.597627
-2.927918 10.451855 -1.568563
-3.394823 12.181508 -1.512253
-3.951999 14.248062 -1.407617
-4.455990 16.112961 -1.189781
-5.520330 20.058426 -0.982521
-0.000037 -0.287560 -0.009663
-5.521337 20.104179 0.000597
-5.514253 20.106169 0.491088
-15.141689 55.789734 2.727376
-5.822111 21.289425 1.564016
-0.000037 -0.287560 -0.009663
-5.698634 20.890436 2.565830
-5.056172 18.515816 2.736495
-5.209818 19.114201 3.300870
-4.380953 16.050079 3.185763
-0.147745 0.266418 -0.349095
-0.155854 0.297572 -0.349306
-0.166833 0.339194 -0.353929
-0.187456 0.417716 -0.375433
-0.244561 0.633753 -0.460123
-0.462586 1.456194 -0.811674
-1.063706 3.727432 -1.742039
-1.129585 3.982021 -1.731632
-1.207460 4.279580 -1.726353
-1.293108 4.610469 -1.718539
-1.390808 4.987962 -1.709060
-1.500484 5.407945 -1.695348
-1.628668 5.903261 -1.682057
-1.780126 6.483668 -1.664897
-1.968363 7.210352 -1.653382
-2.184752 8.046387 -1.628514
-2.497279 9.078396 -1.597296
-2.863990 10.461211 -1.567447
