# This PCD file was generated using the MATLAB® pcwrite function
# from Computer Vision Toolbox®.
# .PCD v.7 - Point Cloud Data file format
VERSION .7
FIELDS x y z
SIZE 4 4 4
TYPE F F F
COUNT 1 1 1
WIDTH 1639
HEIGHT 1
VIEWPOINT 0 0 0 1 0 0 0
POINTS 1639
DATA ascii
-0.130813 0.301590 -0.345512
-0.143877 0.360788 -0.359662
-0.159348 0.431479 -0.376414
-0.204704 0.637398 -0.455020
-0.390128 1.477132 -0.810650
-0.451927 1.758038 -0.880944
-0.948249 4.010389 -1.722710
-1.012570 4.309052 -1.717141
-1.082417 4.629880 -1.705286
-1.163607 5.007075 -1.695356
-1.249881 5.408627 -1.675858
-1.356828 5.900607 -1.661883
-1.475458 6.452403 -1.637962
-1.622946 7.137894 -1.618370
-1.797304 7.948800 -1.590633
-2.066224 8.986124 -1.562639
-2.352136 10.285926 -1.523142
-2.732141 12.003226 -1.469795
-3.262377 14.411650 -1.402637
-3.675395 16.298702 -1.184544
-4.626606 20.607025 -0.991373
-7.270061 32.597099 -0.766080
-9.374482 42.183308 0.023188
-4.606710 20.599489 0.502832
-0.000909 -0.282451 -0.009937
-4.172184 18.689920 1.363307
-9.654897 43.697678 4.225524
-4.285380 19.251118 2.344123
-0.000909 -0.282451 -0.009937
-4.444544 20.041882 3.424409
-0.000909 -0.282451 -0.009937
-0.125838 0.294816 -0.359399
-0.127723 0.304380 -0.346477
-0.139680 0.360237 -0.358711
-0.156600 0.439747 -0.379984
-0.199790 0.640653 -0.455861
-0.381144 1.485039 -0.813070
-0.441360 1.768237 -0.884005
-0.921969 4.008806 -1.719784
-0.985717 4.313305 -1.716435
-1.054124 4.636355 -1.705263
-1.131144 5.004675 -1.692360
-1.217108 5.416045 -1.675833
-1.322419 5.914323 -1.663371
-1.437462 6.464930 -1.638853
-1.581484 7.147175 -1.618341
-1.751719 7.960966 -1.590971
-2.011624 9.000473 -1.562927
-2.291254 10.299613 -1.523105
-2.658354 12.015678 -1.469292
-3.171775 14.415507 -1.401115
-3.610544 16.462307 -1.194565
-4.505517 20.648117 -0.991950
-7.067158 32.576180 -0.764553
-9.116336 42.174343 0.023253
-4.415663 20.313992 0.495224
-3.966007 18.230761 0.887488
-4.040309 18.608620 1.355748
-9.470702 44.039425 4.253357
-9.506200 44.278755 5.353687
-4.039480 18.681963 2.730197
-2.990425 13.766929 2.361216
-3.039521 14.021255 2.756700
-0.119792 0.282351 -0.351235
-0.123369 0.300291 -0.343529
-0.136457 0.363062 -0.359636
-0.148160 0.419939 -0.369219
-0.196493 0.650930 -0.460119
-0.372019 1.491048 -0.814679
-0.430294 1.772797 -0.884758
-0.897604 4.012406 -1.719036
-0.960057 4.319057 -1.716413
-1.027802 4.648067 -1.707156
-1.101223 5.009368 -1.691742
-1.186435 5.428743 -1.677458
-1.290153 5.933317 -1.666376
-1.399391 6.471260 -1.638367
-1.539182 7.152393 -1.617484
-1.706864 7.976721 -1.592047
-1.958544 9.006093 -1.561926
-2.231724 10.310637 -1.522792
-2.588846 12.026752 -1.468792
-3.097037 14.468384 -1.404387
-3.575550 16.761782 -1.214248
-4.396362 20.710423 -0.993632
-6.865126 32.527397 -0.762447
-8.860288 42.134861 0.023290
-9.012873 42.937950 1.048961
-3.895981 18.413309 0.895307
-3.936380 18.639017 1.356366
-0.000907 -0.281787 -0.009914
-4.039306 19.182415 2.330207
-3.924267 18.659948 2.723814
-2.932305 13.882282 2.377873
-2.761582 13.079924 2.571581
-0.117559 0.288442 -0.354278
-0.121414 0.308160 -0.347429
-0.130259 0.352063 -0.353059
-0.147345 0.436872 -0.377269
-0.190583 0.650654 -0.459250
-0.362591 1.498930 -0.817099
-0.421388 1.790058 -0.890897
-0.873228 4.023472 -1.721192
-0.933858 4.330546 -1.718438
-0.998180 4.652544 -1.706494
-1.069442 5.014271 -1.691123
-1.151787 5.432242 -1.676333
-1.252128 5.935497 -1.664834
-1.358911 6.477882 -1.637879
-1.493389 7.160055 -1.617040
-1.656409 7.987320 -1.592015
-1.905038 9.017549 -1.561893
-2.167249 10.316272 -1.521647
-2.518322 12.043742 -1.468982
-3.015219 14.501934 -1.405814
-0.000920 -0.281461 -0.009902
-4.292528 20.819910 -0.997512
-6.666361 32.548290 -0.761907
-8.592972 42.110569 0.023344
-8.809079 43.212852 1.054539
-0.000920 -0.281461 -0.009902
-3.770368 18.396408 1.337241
-0.000920 -0.281461 -0.009902
-4.127942 20.220882 2.452091
-3.816472 18.706528 2.727230
-2.799546 13.670017 2.339154
-2.681083 13.090624 2.570509
-0.114860 0.292820 -0.356303
-0.117909 0.309203 -0.347416
-0.128220 0.361813 -0.357734
-0.140988 0.427548 -0.371880
-0.184015 0.646760 -0.456673
-0.353393 1.506700 -0.819519
-0.408379 1.789226 -0.889341
-0.847684 4.028903 -1.721170
-0.906561 4.332493 -1.717051
-0.968888 4.658716 -1.706470
-1.038385 5.022718 -1.691693
-1.118872 5.439109 -1.676308
-1.214853 5.941247 -1.664302
-1.320712 6.489749 -1.638771
-1.448258 7.157352 -1.614525
-1.608777 7.997043 -1.591985
-1.849440 9.027093 -1.561536
-2.106201 10.328895 -1.521611
-2.446316 12.064640 -1.469632
-2.926295 14.514035 -1.405215
-3.511386 17.488180 -1.262435
-4.162211 20.819870 -0.996258
-5.237516 26.319515 -0.618424
-0.000908 -0.281119 -0.009890
-0.000908 -0.281119 -0.009890
-3.754539 18.870581 0.915309
-3.656204 18.384867 1.334898
-11.650974 59.316772 5.702815
-3.994801 20.186850 2.445137
-3.871132 19.570148 2.848471
-2.767382 13.934172 2.380896
-2.500864 12.587709 2.470533
-0.111228 0.292110 -0.355271
-0.114183 0.308483 -0.346425
-0.124516 0.362867 -0.357721
-0.140289 0.446220 -0.380827
-0.177316 0.641022 -0.453243
-0.343093 1.509034 -0.819504
-0.398532 1.802750 -0.893941
-0.823904 4.039533 -1.723327
-0.879299 4.334256 -1.715664
-0.940080 4.662677 -1.705809
-1.009256 5.036442 -1.694047
-1.086285 5.447668 -1.676833
-1.179723 5.952277 -1.665287
-1.281355 6.495649 -1.638285
-1.406491 7.171669 -1.615739
-1.561450 8.008430 -1.592323
-1.795080 9.034030 -1.560858
-2.046203 10.347004 -1.522406
-2.374051 12.073009 -1.468900
-2.841067 14.530955 -1.405169
-3.473569 17.845491 -1.286114
-4.091684 21.110680 -1.008660
-6.264064 32.530384 -0.759576
-0.000918 -0.280797 -0.009879
-3.629366 18.779329 0.455600
-3.620309 18.766607 0.909302
-3.552367 18.425535 1.336363
-8.836525 46.343864 4.454443
-0.000918 -0.280797 -0.009879
-2.994034 15.556676 2.268058
-2.750582 14.295346 2.438926
-2.436158 12.652427 2.480241
-0.106023 0.282928 -0.349145
-0.111095 0.311185 -0.347390
-0.120176 0.360414 -0.355833
-0.134784 0.440321 -0.377229
-0.168377 0.622798 -0.443832
-0.330471 1.498712 -0.813804
-0.388205 1.814418 -0.897772
-0.799034 4.044521 -1.723306
-0.853042 4.341434 -1.716324
-0.911938 4.670212 -1.706425
-0.977929 5.038745 -1.692834
-1.055014 5.463621 -1.679558
-1.143455 5.957404 -1.664756
-1.243726 6.510895 -1.640096
-1.362156 7.172270 -1.614054
-1.513691 8.017617 -1.592293
-1.739587 9.034856 -1.559212
-1.982792 10.347261 -1.520710
-2.302160 12.082889 -1.468400
-2.751724 14.525862 -1.403098
-3.434329 18.216658 -1.310758
-3.985898 21.228514 -1.012998
-6.079016 32.587860 -0.759985
-7.821537 42.049137 0.023506
-3.772265 20.170732 0.489091
-0.000906 -0.280454 -0.009867
-0.000906 -0.280454 -0.009867
-10.679375 57.898483 5.554928
-0.000906 -0.280454 -0.009867
-0.000906 -0.280454 -0.009867
-2.606651 13.983212 2.383915
-2.424372 13.010681 2.546467
-0.103705 0.288929 -0.352189
-0.107375 0.310427 -0.346399
-0.117412 0.366649 -0.358632
-0.129362 0.434378 -0.373632
-0.165075 0.634774 -0.448944
-0.318948 1.495570 -0.811352
-0.375165 1.811494 -0.895448
-0.774101 4.049399 -1.723285
-0.825936 4.348600 -1.716984
-0.883102 4.673831 -1.705764
-0.946961 5.042731 -1.692217
-1.021255 5.472005 -1.680083
-1.107535 5.964200 -1.664731
-1.203405 6.518495 -1.640069
-1.318594 7.184410 -1.614854
-1.464440 8.026778 -1.592262
-1.685220 9.041162 -1.558534
-1.918302 10.351367 -1.519567
-2.231263 12.098240 -1.468592
-2.664647 14.531999 -1.402132
-3.349180 18.374523 -1.320361
-3.890527 21.410734 -1.020360
-5.888228 32.614773 -0.759722
-7.560387 42.040012 0.023572
-3.426819 18.916954 0.458059
-3.346042 18.500858 0.894633
-3.431158 19.016426 1.375969
-0.000916 -0.280132 -0.009856
-3.556667 19.780481 2.388717
-0.000916 -0.280132 -0.009856
-2.586120 14.362132 2.444879
-2.350510 13.040226 2.549483
-0.101225 0.294937 -0.355233
-0.103591 0.309644 -0.345408
-0.114188 0.371136 -0.360494
-0.126352 0.442501 -0.377203
-0.760948 4.105263 -2.112161
-0.309021 1.499515 -0.812148
-0.366836 1.837662 -0.905433
-0.748416 4.054236 -1.723263
-0.798649 4.349891 -1.715598
-0.854026 4.681177 -1.706380
-0.916976 5.058004 -1.695165
-0.988445 5.480016 -1.680608
-1.070152 5.969079 -1.664200
-1.164577 6.527552 -1.640502
-1.275601 7.192201 -1.614826
-1.417238 8.039284 -1.592970
-1.630250 9.053251 -1.558824
-1.856694 10.360634 -1.519255
-2.157443 12.109636 -1.468322
-2.576380 14.545916 -1.401903
-3.239335 18.380049 -1.319344
-3.806436 21.691645 -1.032300
-5.696363 32.669159 -0.760085
-7.305672 42.020096 0.023625
-0.000904 -0.279789 -0.009844
-0.000904 -0.279789 -0.009844
-3.310512 18.981134 1.372072
-9.963021 57.813942 5.535540
-0.000904 -0.279789 -0.009844
-0.000904 -0.279789 -0.009844
-2.494777 14.336252 2.438081
-2.265154 13.017452 2.542459
-0.097897 0.295855 -0.355219
-0.100184 0.310569 -0.345395
-0.111022 0.375595 -0.362356
-0.121301 0.438256 -0.374502
-0.735699 4.109895 -2.112140
-0.297267 1.494425 -0.808885
-0.354658 1.840051 -0.905418
-0.722545 4.053278 -1.721064
-0.771485 4.356729 -1.716258
-0.825137 4.684474 -1.705719
-0.884987 5.055983 -1.692765
-0.953944 5.484213 -1.680034
-1.034767 5.979304 -1.665185
-1.123220 6.528913 -1.639097
-1.231579 7.201888 -1.615212
-1.368180 8.049813 -1.593309
-1.575156 9.055040 -1.557502
-1.791247 10.358106 -1.517282
-2.085413 12.118258 -1.467823
-2.489973 14.554949 -1.401307
-3.137115 18.450451 -1.322877
-3.718074 21.942116 -1.042867
-5.487418 32.587364 -0.757401
-7.047323 42.019634 0.023696
-3.396763 20.125937 0.486621
-3.109522 18.438839 0.889908
-3.213132 19.103102 1.379462
-9.755558 58.703346 5.614926
-9.603069 57.839802 6.925633
-2.650555 15.791683 2.292316
-2.404473 14.329702 2.434541
-2.160483 12.859956 2.509777
-0.095597 0.303538 -0.359282
-0.097520 0.316646 -0.348317
-0.106293 0.371333 -0.359530
-0.119051 0.451635 -0.380760
-0.708977 4.105463 -2.107848
-0.287320 1.498259 -0.809681
-0.342954 1.847919 -0.907709
-0.698758 4.065070 -1.723948
-0.745678 4.366988 -1.718285
-0.796837 4.691353 -1.706335
-0.855750 5.070759 -1.695713
-0.921651 5.495638 -1.681660
-0.997505 5.977837 -1.663140
-1.084927 6.541356 -1.640450
-1.191310 7.218652 -1.617257
-1.320415 8.049895 -1.591806
-1.519763 9.064540 -1.557469
-1.730592 10.372489 -1.517801
-2.011515 12.128772 -1.467553
-2.400655 14.561914 -1.400526
-3.030179 18.474430 -1.323240
-3.602381 22.064709 -1.047478
-5.295831 32.604935 -0.757006
-6.796006 42.012436 0.023759
-3.250608 19.990108 0.482887
-0.000902 -0.279124 -0.009820
-0.000902 -0.279124 -0.009820
-0.000902 -0.279124 -0.009820
-9.230379 57.657101 6.897470
-0.000902 -0.279124 -0.009820
-2.468907 15.263096 2.588355
-2.112125 13.045255 2.542911
-0.090740 0.294192 -0.353156
-0.092576 0.307167 -0.342434
-0.103742 0.379234 -0.363268
-0.113306 0.442026 -0.375371
-0.684845 4.116942 -2.111245
-0.275973 1.492977 -0.806418
-0.332482 1.859255 -0.911540
-0.673168 4.065667 -1.722475
-0.717757 4.364113 -1.715533
-0.767345 4.690564 -1.704397
-0.824655 5.074030 -1.695096
-0.887225 5.493572 -1.679437
-0.962049 5.987632 -1.664126
-1.045044 6.543977 -1.639505
-1.148297 7.235578 -1.619301
-1.270096 8.052078 -1.590670
-1.466039 9.063460 -1.555826
-1.668002 10.374784 -1.516660
-1.941272 12.134257 -1.466826
-2.316509 14.567559 -1.399748
-0.000912 -0.278802 -0.009809
-3.529124 22.416460 -1.062811
-5.099933 32.593719 -0.755985
-6.546224 42.011673 0.023827
-3.156316 20.130770 0.485914
-3.061231 19.559982 0.942115
-2.945051 18.849617 1.358827
-8.975776 58.162949 5.553370
-8.760094 56.820248 6.791661
-0.000912 -0.278802 -0.009809
-0.000912 -0.278802 -0.009809
-2.013425 12.913752 2.515432
-0.087848 0.298455 -0.355181
-0.089613 0.311486 -0.344378
-0.099582 0.378410 -0.362317
-0.109833 0.448308 -0.378046
-0.660362 4.131993 -2.116349
-0.266029 1.496682 -0.807214
-0.320614 1.866993 -0.913832
-0.646014 4.060700 -1.718824
-0.690742 4.366638 -1.714829
-0.738134 4.697232 -1.705014
-0.790920 5.065946 -1.690913
-0.853969 5.498921 -1.679414
-0.924022 5.987807 -1.662586
-1.006302 6.554068 -1.640398
-1.104717 7.240469 -1.618860
-1.222681 8.063467 -1.591379
-1.407351 9.050857 -1.552245
-1.606928 10.386494 -1.516904
-1.867884 12.147856 -1.467018
-2.226318 14.567584 -1.398415
-2.808071 18.469292 -1.320381
-3.708780 24.541746 -1.160298
-4.893606 32.548573 -0.754199
-6.303747 42.056911 0.023931
-6.983574 46.732090 1.131103
-0.000900 -0.278460 -0.009797
-0.000900 -0.278460 -0.009797
-8.587273 57.863350 5.520150
-0.000900 -0.278460 -0.009797
-2.196311 14.638967 2.121426
-2.147092 14.338806 2.429454
-0.000900 -0.278460 -0.009797
-0.084294 0.297561 -0.354149
-0.086708 0.315779 -0.346321
-0.096054 0.381046 -0.363242
-0.102844 0.429787 -0.368177
-0.103764 0.437864 -0.351480
-0.256329 1.502126 -0.808823
-0.310077 1.881935 -0.919202
-0.621548 4.068367 -1.720256
-0.665046 4.378315 -1.717539
-0.709738 4.703609 -1.705631
-0.760948 5.076409 -1.692674
-0.820168 5.500249 -1.678291
-0.889546 6.004858 -1.665591
-0.966952 6.560073 -1.640373
-1.061948 7.250915 -1.619661
-1.174906 8.072644 -1.591720
-1.356998 9.082582 -1.556086
-1.544915 10.391990 -1.516317
-1.794594 12.146940 -1.465599
-2.140516 14.578509 -1.398189
-2.695528 18.453873 -1.318125
-3.571741 24.604561 -1.162160
-4.718933 32.677486 -0.756409
-6.043689 41.979996 0.023937
-6.733633 46.918327 1.134761
-8.674198 60.668613 2.909805
-0.000910 -0.278138 -0.009786
-8.169238 57.326633 5.464633
-8.301594 58.402287 6.968258
-2.042190 14.169335 2.052609
-2.068930 14.394235 2.436662
-8.620215 61.024281 11.704521
-0.082396 0.308596 -0.360249
-0.085204 0.330419 -0.354135
-0.091518 0.376678 -0.360416
-0.097789 0.423609 -0.364580
-0.096928 0.419068 -0.342070
-0.000898 -0.277795 -0.009774
-0.296383 1.874866 -0.915339
-0.595765 4.066657 -1.718058
-0.637717 4.378673 -1.716153
-0.681560 4.711696 -1.706887
-0.729847 5.079141 -1.692057
-0.787666 5.510919 -1.679917
-0.852846 6.006361 -1.664558
-0.927303 6.563928 -1.639889
-1.018066 7.253346 -1.618807
-1.127323 8.083499 -1.592429
-1.303075 9.090571 -1.556056
-1.481281 10.385329 -1.514070
-1.722759 12.155416 -1.465333
-2.054932 14.590917 -1.398148
-2.583807 18.441734 -1.316145
-3.416950 24.541916 -1.158252
-4.533706 32.738113 -0.757094
-5.792363 41.956955 0.023986
-6.453597 46.897205 1.133425
-0.000898 -0.277795 -0.009774
-8.288815 60.540775 4.331258
-7.761443 56.814655 5.411734
-7.812980 57.339325 6.836479
-0.000898 -0.277795 -0.009774
-0.000898 -0.277795 -0.009774
-8.246244 60.919376 11.675276
-0.076640 0.292356 -0.350048
-0.080919 0.326048 -0.351187
-0.087635 0.377542 -0.360403
-0.092220 0.413877 -0.359191
-0.091124 0.407429 -0.336077
-0.095320 0.440133 -0.331323
-0.284332 1.882411 -0.917631
-0.569982 4.070455 -1.718037
-0.610576 4.386436 -1.717497
-0.651461 4.712230 -1.705587
-0.697814 5.081818 -1.691440
-0.753054 5.513930 -1.679344
-0.816046 6.015488 -1.665543
-0.886687 6.569659 -1.639863
-0.972627 7.253762 -1.617537
-1.078711 8.098167 -1.593875
-1.248003 9.102379 -1.556671
-1.418263 10.396224 -1.514314
-1.648954 12.165766 -1.465296
-1.965640 14.595285 -1.397370
-2.470871 18.443226 -1.315130
-3.252952 24.435310 -1.152329
-0.000912 -0.277470 -0.009762
-0.000912 -0.277470 -0.009762
-0.000912 -0.277470 -0.009762
-0.000912 -0.277470 -0.009762
-0.000912 -0.277470 -0.009762
-0.000912 -0.277470 -0.009762
-7.368093 56.591167 6.742352
-1.891926 14.338200 2.073404
-1.890895 14.369155 2.428599
-0.000912 -0.277470 -0.009762
-0.074004 0.298242 -0.353092
-0.078110 0.332016 -0.354109
-0.082529 0.367850 -0.354764
-0.086226 0.398755 -0.351114
-0.085049 0.390300 -0.327522
-0.090501 0.435560 -0.328874
-0.271356 1.876961 -0.914538
-0.545706 4.073894 -1.718017
-0.584300 4.388233 -1.716794
-0.623832 4.717998 -1.706205
-0.668350 5.082049 -1.690231
-0.719755 5.510746 -1.677123
-0.782470 6.023984 -1.666531
-0.848693 6.576754 -1.640298
-0.932595 7.265070 -1.618755
-1.032413 8.096424 -1.592374
-1.191727 9.092123 -1.553737
-1.357276 10.408475 -1.514835
-1.575293 12.159601 -1.463418
-1.882310 14.604384 -1.397147
-2.361768 18.447584 -1.314393
-3.116647 24.467297 -1.152914
-3.360177 26.473988 -0.614248
-3.351911 26.443567 0.011678
-6.283491 49.956932 1.205937
-0.000899 -0.277127 -0.009750
-0.000899 -0.277127 -0.009750
-7.197358 57.575455 5.476050
-0.000899 -0.277127 -0.009750
-0.000899 -0.277127 -0.009750
-1.825181 14.489151 2.446881
-0.000899 -0.277127 -0.009750
-0.072032 0.307491 -0.358173
-0.073239 0.318889 -0.346270
-0.077985 0.359839 -0.350064
-0.080523 0.381790 -0.342142
-0.080574 0.383895 -0.324092
-0.085770 0.429110 -0.325613
-0.257356 1.862267 -0.907598
-0.521621 4.079061 -1.718724
-0.558250 4.391748 -1.716774
-0.595716 4.719845 -1.705546
-0.637930 5.089936 -1.691398
-0.686655 5.517025 -1.677650
-0.743935 6.019245 -1.663982
-0.808987 6.579926 -1.639814
-0.888060 7.272746 -1.619143
-0.982727 8.102723 -1.592346
-1.143870 9.108351 -1.555324
-1.299439 10.416006 -1.514805
-1.506787 12.158423 -1.462233
-1.800115 14.600834 -1.395821
-2.258053 18.440607 -1.312970
-2.973191 24.440990 -1.150844
-3.046000 25.118862 -0.583168
-3.046275 25.193768 0.010721
-0.000910 -0.276805 -0.009739
-4.500302 37.515514 1.795548
-7.203191 60.392567 4.311461
-0.000910 -0.276805 -0.009739
-6.882210 58.024918 6.903031
-0.000910 -0.276805 -0.009739
-0.000910 -0.276805 -0.009739
-0.000910 -0.276805 -0.009739
-0.068561 0.309966 -0.359179
-0.070881 0.331806 -0.353105
-0.073899 0.358871 -0.349114
-0.073946 0.361289 -0.331377
-0.075177 0.373948 -0.318954
-0.080637 0.422677 -0.322352
-0.244713 1.867791 -0.909121
-0.494806 4.080641 -1.717977
-0.530161 4.399130 -1.718118
-0.564761 4.719962 -1.704247
-0.604089 5.084562 -1.688404
-0.652051 5.519424 -1.677078
-0.706589 6.023861 -1.663958
-0.767869 6.581060 -1.638870
-0.843480 7.280151 -1.619531
-0.932342 8.102880 -1.591212
-1.085101 9.117657 -1.555615
-1.233440 10.418161 -1.513941
-1.429694 12.157840 -1.461044
-1.705705 14.604269 -1.395041
-2.140979 18.430582 -1.311265
-2.817396 24.417347 -1.148859
-2.789840 24.249275 -0.563069
-2.790373 24.289665 0.010040
-0.000897 -0.276462 -0.009727
-4.276556 37.606136 1.798669
-6.851550 60.509899 4.316951
-0.000897 -0.276462 -0.009727
-6.564214 58.315720 6.932859
-0.000897 -0.276462 -0.009727
-0.000897 -0.276462 -0.009727
-0.000897 -0.276462 -0.009727
-0.064637 0.305531 -0.356110
-0.066438 0.323854 -0.348201
-0.069081 0.349085 -0.343476
-0.068924 0.349585 -0.325093
-0.070455 0.365710 -0.314670
-0.076815 0.425266 -0.323151
-0.450727 3.894010 -1.757717
-0.470522 4.091149 -1.720862
-0.502616 4.396844 -1.716050
-0.536603 4.729103 -1.706143
-0.572794 5.084497 -1.687194
-0.619082 5.527231 -1.678155
-0.670710 6.032005 -1.664945
-0.728367 6.585702 -1.638846
-0.800779 7.292995 -1.621163
-0.884699 8.114300 -1.592292
-1.031420 9.128004 -1.556231
-1.170337 10.411624 -1.511973
-1.356759 12.154364 -1.459627
-1.618054 14.596350 -1.393344
-2.029546 18.409222 -1.308875
-2.668268 24.369930 -1.145872
-0.000908 -0.276140 -0.009715
-2.608166 23.927834 0.009791
-0.000908 -0.276140 -0.009715
-0.000908 -0.276140 -0.009715
-6.732019 62.706955 4.470603
-6.166165 57.597271 5.467233
-6.192871 58.034878 6.895319
-0.000908 -0.276140 -0.009715
-0.000908 -0.276140 -0.009715
-0.000908 -0.276140 -0.009715
-0.061448 0.307949 -0.357116
-0.062071 0.315893 -0.343297
-0.064769 0.342758 -0.339713
-0.063137 0.328943 -0.314329
-0.065652 0.355638 -0.309532
-0.070587 0.406055 -0.314206
-0.425399 3.884010 -1.752313
-0.445168 4.092276 -1.720116
-0.474901 4.400061 -1.716030
-0.507394 4.728669 -1.704844
-0.542881 5.097534 -1.690144
-0.584264 5.527302 -1.677033
-0.634559 6.038030 -1.665427
-0.687847 6.592165 -1.639282
-0.755666 7.295996 -1.620723
-0.836277 8.133415 -1.594846
-0.978488 9.145885 -1.558139
-1.106093 10.410830 -1.510834
-1.284564 12.156356 -1.458903
-1.531354 14.595858 -1.392385
-1.916835 18.403385 -1.307588
-2.519595 24.319613 -1.142795
-2.458074 23.799038 -0.552113
-0.000895 -0.275797 -0.009703
-0.000895 -0.275797 -0.009703
-0.000895 -0.275797 -0.009703
-0.000895 -0.275797 -0.009703
-5.807503 57.482586 5.453111
-0.000895 -0.275797 -0.009703
-5.836857 58.068092 8.278993
-0.000895 -0.275797 -0.009703
-0.000895 -0.275797 -0.009703
-0.058322 0.312053 -0.359141
-0.058057 0.311364 -0.340349
-0.059719 0.329402 -0.332200
-0.058324 0.317193 -0.308044
-0.061327 0.349125 -0.306102
-0.066495 0.404949 -0.313381
-0.067979 0.422833 -0.302049
-0.420014 4.095096 -1.720097
-0.448333 4.406787 -1.717375
-0.478201 4.728074 -1.703547
-0.511759 5.098997 -1.689529
-0.550662 5.528985 -1.676462
-0.598019 6.039978 -1.664899
-0.648654 6.600220 -1.640177
-0.714105 7.308225 -1.622355
-0.788578 8.130453 -1.593345
-0.921810 9.143992 -1.556819
-1.044720 10.419333 -1.511080
-1.211732 12.173985 -1.460020
-1.443109 14.604997 -1.392346
-1.806915 18.390627 -1.305888
-2.371517 24.312576 -1.141731
-2.321873 23.839006 -0.552641
-2.316400 23.867739 0.009830
-0.000906 -0.275475 -0.009692
-0.000906 -0.275475 -0.009692
-5.862962 61.391758 4.372070
-5.482408 57.488659 5.450782
-5.393287 56.754345 6.736027
-5.402459 57.058090 8.131017
-0.000906 -0.275475 -0.009692
-0.000906 -0.275475 -0.009692
-0.053938 0.300700 -0.351997
-0.054457 0.308536 -0.338380
-0.054575 0.310695 -0.321874
-0.054208 0.308927 -0.303552
-0.056245 0.333597 -0.298401
-0.061587 0.394725 -0.308496
-0.063253 0.414331 -0.298189
-0.395180 4.101482 -1.721530
-0.421029 4.405881 -1.715990
-0.449221 4.729183 -1.702888
-0.479800 5.090760 -1.685943
-0.517242 5.532380 -1.676440
-0.561830 6.045562 -1.665382
-0.609048 6.604175 -1.640154
-0.668927 7.310712 -1.621916
-0.738870 8.137269 -1.593687
-0.869024 9.147354 -1.556469
-0.983121 10.425498 -1.511050
-1.142739 12.186825 -1.460679
-1.359636 14.609181 -1.391942
-1.698862 18.395081 -1.305431
-2.231815 24.299917 -1.140489
-2.184402 23.868238 -0.552947
-2.177501 23.882998 0.009884
-0.000893 -0.275133 -0.009680
-3.355387 37.166615 1.773771
-5.355363 59.717884 4.250963
-5.162653 57.780308 5.475446
-3.269917 36.560558 4.345160
-0.000893 -0.275133 -0.009680
-3.217050 36.245071 6.044002
-0.000893 -0.275133 -0.009680
-0.050376 0.299619 -0.350965
-0.050993 0.309178 -0.338367
-0.049286 0.290216 -0.310612
-0.050433 0.306006 -0.301747
-0.053099 0.339646 -0.300951
-0.056811 0.384462 -0.303612
-0.058999 0.413188 -0.297407
-0.369221 4.104071 -1.721510
-0.393907 4.406691 -1.715288
-0.419364 4.730208 -1.702228
-0.448757 5.103354 -1.688893
-0.482197 5.516434 -1.670921
-0.523673 6.041410 -1.663339
-0.569432 6.607895 -1.640130
-0.625251 7.314754 -1.621892
-0.690092 8.137801 -1.592924
-0.813437 9.156615 -1.557086
-0.922336 10.441181 -1.512404
-1.068446 12.189754 -1.460184
-1.270616 14.609390 -1.391167
-1.592327 18.416822 -1.306215
-2.084972 24.301092 -1.139885
-2.042459 23.897045 -0.553251
-2.046401 23.991127 0.010014
-0.000904 -0.274811 -0.009669
-3.867261 45.965637 2.191838
-0.000904 -0.274811 -0.009669
-4.783018 57.265690 5.424209
-0.000904 -0.274811 -0.009669
-0.000904 -0.274811 -0.009669
-3.070053 37.034248 6.171803
-3.052673 36.976971 7.063772
-0.046516 0.293366 -0.346878
-0.045836 0.287169 -0.325637
-0.046035 0.290816 -0.310599
-0.047524 0.311952 -0.304422
-0.049707 0.342068 -0.301793
-0.051752 0.370535 -0.297103
-0.055631 0.421191 -0.300472
-0.343582 4.100868 -1.719314
-0.366290 4.411137 -1.715951
-0.390257 4.729082 -1.700931
-0.417334 5.100475 -1.687090
-0.448137 5.523352 -1.671999
-0.487903 6.052358 -1.665337
-0.528449 6.609536 -1.639647
-0.580071 7.316706 -1.621453
-0.640466 8.146001 -1.593635
-0.759758 9.169334 -1.558349
-0.859378 10.454689 -1.513481
-0.996340 12.192067 -1.459691
-1.185212 14.620749 -1.391499
-1.481102 18.422276 -1.305895
-1.944032 24.320997 -1.140198
-1.905117 23.932646 -0.553737
-0.000914 -0.274489 -0.009657
-0.000914 -0.274489 -0.009657
-0.000914 -0.274489 -0.009657
-4.723647 60.682049 4.315404
-4.459115 57.521675 5.445870
-4.431310 57.284351 6.788750
-4.435071 57.588852 8.194334
-4.525909 59.037647 9.812831
-0.000914 -0.274489 -0.009657
-0.042768 0.288806 -0.343809
-0.041846 0.279074 -0.320733
-0.042685 0.291402 -0.310586
-0.043908 0.310772 -0.303514
-0.045513 0.335472 -0.298363
-0.047225 0.360225 -0.292218
-0.050161 0.403427 -0.292766
-0.317607 4.103174 -1.719294
-0.339442 4.415374 -1.716614
-0.360982 4.737305 -1.702827
-0.385180 5.099367 -1.685881
-0.414601 5.524257 -1.671428
-0.450224 6.053542 -1.664810
-0.488810 6.612788 -1.639625
-0.536473 7.322217 -1.621843
-0.591562 8.143991 -1.592504
-0.703577 9.172032 -1.557999
-0.797599 10.459775 -1.513452
-0.921630 12.188182 -1.458506
-1.096960 14.629839 -1.391646
-1.372236 18.414911 -1.304749
-1.797058 24.318474 -1.139504
-1.763341 23.969772 -0.554266
-1.762406 24.012049 0.010117
-0.000902 -0.274146 -0.009645
-4.357004 60.353188 2.874402
-0.000902 -0.274146 -0.009645
-4.094718 57.105789 5.404373
-4.043398 56.658104 6.711901
-0.000902 -0.274146 -0.009645
-0.000902 -0.274146 -0.009645
-0.000902 -0.274146 -0.009645
-0.038937 0.280786 -0.338702
-0.037597 0.263965 -0.311916
-0.039306 0.290204 -0.309636
-0.040543 0.311340 -0.303501
-0.042125 0.337855 -0.299205
-0.044797 0.379051 -0.300325
-0.045382 0.391151 -0.287367
-0.292167 4.101528 -1.717824
-0.312053 4.411964 -1.714548
-0.331493 4.730180 -1.699614
-0.354234 5.101828 -1.685860
-0.381083 5.524960 -1.670858
-0.414153 6.062160 -1.666303
-0.449138 6.615828 -1.639602
-0.492482 7.321595 -1.620991
-0.543342 8.151502 -1.593217
-0.649302 9.178230 -1.558295
-0.735235 10.456616 -1.512316
-0.849853 12.193609 -1.458475
-1.011528 14.642192 -1.392163
-1.265130 18.430796 -1.305260
-1.652178 24.280912 -1.137256
-1.625430 24.005793 -0.554798
-1.623572 24.038094 0.010181
-0.000912 -0.273824 -0.009634
-2.443675 36.701893 1.748665
-2.435838 36.675495 2.609993
-2.421560 36.649403 3.472899
-3.956266 60.373337 7.147792
-0.000912 -0.273824 -0.009634
-0.000912 -0.273824 -0.009634
-0.000912 -0.273824 -0.009634
-0.035941 0.283054 -0.339708
-0.034811 0.267984 -0.313860
-0.036370 0.294284 -0.311498
-0.037054 0.308321 -0.301697
-0.039062 0.343814 -0.301755
-0.040714 0.374147 -0.297877
-0.041457 0.388030 -0.285816
-0.267606 4.101584 -1.717080
-0.285080 4.414011 -1.714529
-0.303666 4.734181 -1.700233
-0.324097 5.102156 -1.685246
-0.348378 5.538912 -1.674135
-0.378433 6.058910 -1.664767
-0.409460 6.618638 -1.639580
-0.448975 7.328545 -1.621796
-0.494807 8.154840 -1.593192
-0.596516 9.182043 -1.558269
-0.673301 10.459043 -1.512011
-0.780715 12.206432 -1.459366
-0.928341 14.649938 -1.392313
-1.157644 18.442091 -1.305495
-1.514926 24.288084 -1.137117
-1.491405 24.040775 -0.555333
-1.487068 24.105267 0.010277
-0.000903 -0.273478 -0.009622
-0.000903 -0.273478 -0.009622
-3.674938 60.841171 4.321798
-3.461661 57.620880 5.448991
-3.497533 58.382313 6.910463
-0.000903 -0.273478 -0.009622
-3.535602 59.704800 9.911880
-0.000903 -0.273478 -0.009622
-0.032056 0.273270 -0.333583
-0.031801 0.271986 -0.315804
-0.032909 0.293045 -0.310549
-0.033501 0.307074 -0.300788
-0.035076 0.338965 -0.299179
-0.037185 0.378350 -0.299488
-0.037536 0.388587 -0.285803
-0.241757 4.105281 -1.717787
-0.258498 4.423415 -1.717240
-0.273760 4.732429 -1.698937
-0.292006 5.100491 -1.684038
-0.315118 5.544989 -1.675214
-0.340663 6.057499 -1.663736
-0.369874 6.623154 -1.640017
-0.405091 7.329379 -1.621359
-0.446693 8.165722 -1.594642
-0.540627 9.189694 -1.558887
-0.611489 10.463070 -1.511983
-0.706897 12.215131 -1.459795
-0.839792 14.655507 -1.392278
-0.000891 -0.273135 -0.009610
-1.368282 24.281015 -1.136333
-1.348996 24.083462 -0.556044
-0.000891 -0.273135 -0.009610
-0.000891 -0.273135 -0.009610
-0.000891 -0.273135 -0.009610
-3.298026 60.403450 4.289440
-3.137527 57.813145 5.465395
-3.113442 57.731949 6.831502
-0.000891 -0.273135 -0.009610
-0.000891 -0.273135 -0.009610
-0.000891 -0.273135 -0.009610
-0.028917 0.273767 -0.333571
-0.028479 0.269009 -0.313835
-0.029723 0.295331 -0.311473
-0.030245 0.309375 -0.301671
-0.031824 0.344901 -0.301729
-0.033487 0.382551 -0.301099
-0.033812 0.390968 -0.286560
-0.216547 4.106929 -1.717769
-0.230358 4.419563 -1.715173
-0.245033 4.736141 -1.699556
-0.261321 5.108152 -1.685801
-0.280511 5.545159 -1.674644
-0.304376 6.063566 -1.664724
-0.329142 6.629444 -1.640914
-0.359705 7.326116 -1.620092
-0.396714 8.170516 -1.594986
-0.486225 9.194957 -1.559184
-0.547789 10.466832 -1.511954
-0.635668 12.233222 -1.461377
-0.754003 14.664411 -1.392612
-0.000901 -0.272813 -0.009598
-1.225360 24.258888 -1.134912
-1.209507 24.107128 -0.556354
-1.206763 24.219507 0.010456
-0.000901 -0.272813 -0.009598
-0.000901 -0.272813 -0.009598
-0.000901 -0.272813 -0.009598
-2.771964 57.397476 5.424642
-2.781400 57.792889 6.836747
-1.980064 41.353756 5.882034
-2.837804 59.823486 9.925448
-0.000901 -0.272813 -0.009598
-0.025745 0.275981 -0.334577
-0.025354 0.271228 -0.314801
-0.026451 0.297571 -0.312398
-0.026880 0.311648 -0.302555
-0.028201 0.343580 -0.300863
-0.029318 0.373925 -0.297026
-0.029949 0.393334 -0.287316
-0.191496 4.112151 -1.719203
-0.203269 4.419252 -1.714472
-0.216186 4.737803 -1.699537
-0.229934 5.100353 -1.682810
-0.247095 5.548925 -1.675173
-0.267805 6.063612 -1.664198
-0.289321 6.629603 -1.640432
-0.317359 7.330285 -1.620484
-0.349795 8.178833 -1.596068
-0.430494 9.207863 -1.560771
-0.485575 10.462230 -1.510819
-0.561289 12.233126 -1.460885
-0.665287 14.666953 -1.392393
-0.827017 18.372713 -1.299307
-1.076720 24.196194 -1.131658
-1.070569 24.147980 -0.557067
-1.067245 24.262354 0.010534
-2.967178 68.513702 1.645361
-0.000889 -0.272470 -0.009587
-2.507790 58.548954 4.155839
-2.461746 57.692890 5.451159
-2.405967 56.835857 6.722218
-0.000889 -0.272470 -0.009587
-2.521314 60.300056 10.001795
-0.000889 -0.272470 -0.009587
-0.022895 0.281596 -0.337621
-0.022044 0.264715 -0.310876
-0.023045 0.292756 -0.309573
-0.023551 0.310328 -0.301646
-0.024516 0.340445 -0.299142
-0.025849 0.378058 -0.298638
-0.025961 0.386429 -0.284227
-0.166258 4.113503 -1.719185
-0.176913 4.416904 -1.713089
-0.187193 4.735508 -1.698241
-0.199011 5.101904 -1.682791
-0.214805 5.556305 -1.676803
-0.231329 6.065369 -1.664177
-0.250645 6.627544 -1.639492
-0.273781 7.338189 -1.621704
-0.300986 8.177109 -1.595307
-0.377170 9.200580 -1.559133
-0.425956 10.473006 -1.511900
-0.491528 12.238380 -1.461087
-0.582087 14.676736 -1.392913
-0.723338 18.389345 -1.300097
-0.938535 24.162224 -1.129783
-1.257391 32.763676 -0.749981
-1.657253 43.466480 0.026346
-2.593031 68.797272 1.651907
-0.000899 -0.272148 -0.009575
-2.207088 59.313957 4.209145
-2.133043 57.847713 5.464561
-2.095841 57.367165 6.783368
-0.000899 -0.272148 -0.009575
-2.161083 59.998367 9.949755
-0.000899 -0.272148 -0.009575
-0.019710 0.282044 -0.337608
-0.019128 0.270391 -0.313798
-0.019865 0.294959 -0.310499
-0.020200 0.310778 -0.301634
-0.021032 0.342725 -0.299983
-0.021935 0.376697 -0.297813
-0.022165 0.386897 -0.284214
-0.141117 4.118451 -1.720619
-0.149173 4.420063 -1.713753
-0.158362 4.736830 -1.698222
-0.167997 5.101391 -1.682177
-0.180032 5.552056 -1.675133
-0.194777 6.064991 -1.663652
-0.209707 6.629241 -1.639470
-0.228634 7.340004 -1.621681
-0.250809 8.177099 -1.594915
-0.322679 9.204904 -1.559430
-0.362466 10.483592 -1.512979
-0.419213 12.233392 -1.460136
-0.495662 14.670218 -1.391960
-0.612280 18.383667 -1.299368
-0.797287 24.151579 -1.129004
-1.058664 32.508907 -0.744057
-1.398275 43.493866 0.026437
-2.204880 69.115135 1.659322
-0.000909 -0.271826 -0.009564
-0.000909 -0.271826 -0.009564
-1.811994 58.635864 5.537754
-1.756199 57.128429 6.753984
-1.753539 57.685059 8.188129
-1.736867 57.785572 9.582279
-0.000909 -0.271826 -0.009564
-0.016375 0.280758 -0.336577
-0.015897 0.270835 -0.313785
-0.016501 0.295396 -0.310486
-0.016790 0.313005 -0.302517
-0.017404 0.343149 -0.299971
-0.018098 0.373490 -0.296177
-0.018438 0.394740 -0.287278
-0.114985 4.115805 -1.719149
-0.122157 4.421175 -1.713735
-0.128645 4.738014 -1.698203
-0.136132 5.102611 -1.682158
-0.146496 5.553327 -1.675114
-0.157132 6.064432 -1.663126
-0.170010 6.632617 -1.639909
-0.184739 7.339581 -1.621245
-0.202190 8.180710 -1.595260
-0.266634 9.212883 -1.560373
-0.300752 10.493748 -1.514060
-0.344698 12.224060 -1.458724
-0.406671 14.661289 -1.390821
-0.504104 18.359274 -1.297401
-0.650876 24.100288 -1.126395
-0.000897 -0.271484 -0.009552
-1.197959 45.478840 0.028138
-1.693356 65.263725 1.566518
-1.671949 65.297409 3.103338
-0.000897 -0.271484 -0.009552
-1.482307 59.029816 5.574019
-0.000897 -0.271484 -0.009552
-0.000897 -0.271484 -0.009552
-0.000897 -0.271484 -0.009552
-0.000897 -0.271484 -0.009552
-0.012960 0.270851 -0.330452
-0.012899 0.276468 -0.316708
-0.013239 0.295807 -0.310474
-0.013267 0.306272 -0.298921
-0.013859 0.343571 -0.299958
-0.014393 0.379389 -0.298600
-0.014489 0.389623 -0.284958
-0.089690 4.114860 -1.718405
-0.094307 4.422159 -1.713716
-0.099843 4.740891 -1.698823
-0.105214 5.105556 -1.682733
-0.111771 5.544795 -1.672346
-0.120720 6.069433 -1.664116
-0.129043 6.633838 -1.639887
-0.139558 7.338907 -1.620808
-0.152091 8.184042 -1.595605
-0.212269 9.226441 -1.562284
-0.236874 10.495674 -1.514032
-0.272997 12.238088 -1.460077
-0.000907 -0.271162 -0.009540
-0.393507 18.360279 -1.297224
-0.509934 24.075993 -1.125068
-0.658487 31.700066 -0.725585
-0.694263 34.005825 0.018743
-0.000907 -0.271162 -0.009540
-0.000907 -0.271162 -0.009540
-0.000907 -0.271162 -0.009540
-1.133533 59.203129 5.589670
-1.105648 58.245884 6.883771
-1.081167 57.997257 8.230032
-1.163847 63.626682 10.544434
-0.000907 -0.271162 -0.009540
-0.009878 0.279857 -0.335533
-0.009689 0.278597 -0.317674
-0.009962 0.301499 -0.313274
-0.009960 0.313813 -0.302492
-0.010273 0.347581 -0.301654
-0.010623 0.377958 -0.297776
-0.010579 0.390015 -0.284945
-0.063772 4.123102 -1.721291
-0.067237 4.419188 -1.712334
-0.070142 4.743616 -1.699444
-0.073309 5.106422 -1.682714
-0.078296 5.547608 -1.672876
-0.083138 6.072295 -1.664600
-0.089290 6.634789 -1.639867
-0.095742 7.339909 -1.620787
-0.103381 8.183141 -1.595214
-0.155797 9.219963 -1.560968
-0.175017 10.507107 -1.515390
-0.198833 12.243794 -1.460509
-0.231612 14.635800 -1.387995
-0.286116 18.356585 -1.296775
-0.364876 24.038960 -1.123193
-0.463263 31.327885 -0.717112
-0.494970 33.879601 0.018692
-0.994712 70.073830 1.682002
-0.000894 -0.270819 -0.009528
-0.851496 62.167267 4.408845
-0.787254 58.928257 5.563333
-0.000894 -0.270819 -0.009528
-0.760129 59.143391 8.391390
-0.000894 -0.270819 -0.009528
-0.000894 -0.270819 -0.009528
-0.006677 0.276784 -0.333483
-0.006398 0.266762 -0.310814
-0.006629 0.300127 -0.312323
-0.006591 0.315994 -0.303376
-0.006651 0.342541 -0.299079
-0.006906 0.382005 -0.299387
-0.006744 0.388559 -0.284163
-0.038435 4.118128 -1.719096
-0.040242 4.421713 -1.712998
-0.041237 4.740479 -1.698148
-0.042392 5.110891 -1.683884
-0.044859 5.554039 -1.674506
-0.046624 6.072989 -1.664581
-0.049552 6.637455 -1.640306
-0.051934 7.342618 -1.621180
-0.054696 8.181953 -1.594823
-0.101224 9.228931 -1.562235
-0.113002 10.512218 -1.515918
-0.126774 12.245054 -1.460481
-0.145823 14.643193 -1.388516
-0.178802 18.354261 -1.296463
-0.224407 23.989037 -1.120770
-0.277980 30.956459 -0.708688
-0.000904 -0.270498 -0.009517
-0.592092 70.378624 1.689315
-0.553182 68.521858 3.255729
-0.490967 62.053749 4.400609
-0.469603 62.028343 5.854878
-0.422381 58.402420 6.901262
-0.000904 -0.270498 -0.009517
-0.000904 -0.270498 -0.009517
-0.000904 -0.270498 -0.009517
-0.003529 0.277138 -0.333471
-0.003344 0.275839 -0.315692
-0.003338 0.295167 -0.309499
-0.003225 0.314544 -0.302468
-0.003115 0.341089 -0.298213
-0.003143 0.378700 -0.297751
-0.002966 0.390750 -0.284920
-0.013179 4.122334 -1.720531
-0.013249 4.424062 -1.713663
-0.012387 4.742860 -1.698769
-0.011406 5.107551 -1.682677
-0.011307 5.550694 -1.673387
-0.010102 6.075417 -1.665066
-0.009771 6.636011 -1.639826
-0.008100 7.345076 -1.621573
-0.006017 8.186398 -1.595538
-0.046521 9.229688 -1.562211
-0.050894 10.507068 -1.515063
-0.054729 12.253860 -1.461375
-0.060021 14.664029 -1.390327
-0.071536 18.347315 -1.295877
-0.084597 23.960289 -1.119355
-0.097409 30.717922 -0.703266
-0.136163 45.599628 0.028513
-0.132062 50.001137 1.199346
-0.142621 62.187374 2.955048
-0.130829 61.487286 4.360466
-0.110588 61.922825 5.844847
-0.085633 59.226501 6.998202
-0.000892 -0.270155 -0.009505
-0.000892 -0.270155 -0.009505
-0.000892 -0.270155 -0.009505
-0.000358 0.286094 -0.338552
-0.000199 0.272694 -0.313723
-0.000087 0.295500 -0.309487
0.000141 0.313095 -0.301559
0.000396 0.341415 -0.298200
0.000587 0.380852 -0.298550
0.000837 0.389239 -0.284139
0.012103 4.115226 -1.717610
0.013786 4.424397 -1.713646
0.016489 4.745080 -1.699389
0.019597 5.115508 -1.685035
0.022187 5.547142 -1.672269
0.026451 6.075714 -1.665046
0.030025 6.644065 -1.641644
0.035743 7.343373 -1.621138
0.042681 8.186626 -1.595516
0.008162 9.230110 -1.562188
0.011172 10.509497 -1.515314
0.017400 12.264227 -1.462499
0.026048 14.700309 -1.393611
0.035658 18.337774 -1.295153
0.054855 23.920750 -1.117484
0.080625 30.554348 -0.699545
-0.000902 -0.269833 -0.009494
0.127539 40.504185 0.971032
0.218517 62.599014 2.974670
0.224779 61.467392 4.359141
0.250524 62.657486 5.914099
-0.000902 -0.269833 -0.009494
-0.000902 -0.269833 -0.009494
-0.000902 -0.269833 -0.009494
-0.000902 -0.269833 -0.009494
0.002829 0.284699 -0.337521
0.002920 0.271283 -0.312733
0.003211 0.299375 -0.311349
0.003533 0.317002 -0.303338
0.003955 0.347159 -0.300750
0.004476 0.383014 -0.299349
0.004670 0.395089 -0.286434
0.037409 4.122871 -1.720497
0.041647 4.426449 -1.714311
0.045410 4.750922 -1.701288
0.050616 5.117546 -1.685611
0.056824 5.560701 -1.676098
0.062969 6.073859 -1.664522
0.071032 6.642167 -1.641164
0.080871 7.339457 -1.620288
0.092840 8.186552 -1.595493
0.062865 9.230244 -1.562165
0.075156 10.513544 -1.515842
0.089621 12.270219 -1.463163
0.112284 14.706206 -1.394134
0.146102 18.341572 -1.295393
0.193922 23.892391 -1.116162
0.257628 30.493727 -0.698154
0.355856 40.530952 0.024437
0.361753 40.435131 0.969457
0.581293 62.674942 2.978454
0.589211 61.267807 4.345254
0.624047 62.667171 5.915313
-0.000894 -0.269486 -0.009482
-0.000894 -0.269486 -0.009482
-0.000894 -0.269486 -0.009482
-0.000894 -0.269486 -0.009482
0.006139 0.286722 -0.338527
0.006136 0.273315 -0.313699
0.006582 0.299670 -0.311336
0.006969 0.313728 -0.301534
0.007495 0.345659 -0.299883
0.008176 0.379642 -0.297713
0.008625 0.395388 -0.286421
0.062681 4.122897 -1.720480
0.068604 4.420828 -1.712246
0.074245 4.747103 -1.699993
0.081481 5.107943 -1.682623
0.090462 5.564463 -1.677179
0.099420 6.069843 -1.663493
0.110821 6.641967 -1.641144
0.123449 7.345084 -1.621510
0.140085 8.188196 -1.595841
0.119231 9.230039 -1.562141
0.137401 10.525148 -1.517478
0.163931 12.263830 -1.462445
0.201324 14.719551 -1.395393
0.253226 18.338741 -1.295222
0.336856 23.861177 -1.114748
0.434615 30.480070 -0.697838
0.447753 30.665579 0.016285
0.458351 30.670483 0.734714
0.463348 30.660543 1.458883
0.949123 61.622776 4.370749
0.973407 62.527630 5.902648
-0.000904 -0.269164 -0.009470
-0.000904 -0.269164 -0.009470
-0.000904 -0.269164 -0.009470
-0.000904 -0.269164 -0.009470
0.009082 0.278399 -0.333421
0.009133 0.271855 -0.312708
0.009697 0.296424 -0.309449
0.010246 0.315784 -0.302418
0.011023 0.345922 -0.299871
0.011787 0.379904 -0.297701
0.012219 0.390114 -0.284101
0.088054 4.126532 -1.721915
0.094740 4.418814 -1.711547
0.103204 4.750714 -1.701253
0.112686 5.119175 -1.686170
0.122693 5.548806 -1.672764
0.135949 6.071419 -1.663980
0.149439 6.643507 -1.641585
0.167229 7.342604 -1.621076
0.188783 8.187580 -1.595820
0.172417 9.237453 -1.563410
0.197587 10.520571 -1.516901
0.233845 12.259082 -1.461959
0.284947 14.714546 -1.394997
0.357829 18.373283 -1.297671
0.471500 23.853273 -1.114435
0.611205 30.453394 -0.697254
-0.000892 -0.268821 -0.009458
0.893329 43.501392 1.043487
1.313518 63.014271 2.995218
1.313454 62.510391 4.434074
1.338668 62.690529 5.918664
-0.000892 -0.268821 -0.009458
-0.000892 -0.268821 -0.009458
-0.000892 -0.268821 -0.009458
-0.000892 -0.268821 -0.009458
0.012522 0.290709 -0.340540
0.012288 0.273865 -0.313674
0.012976 0.298434 -0.310375
0.013564 0.314252 -0.301510
0.014619 0.347994 -0.300713
0.015553 0.376506 -0.296064
0.015974 0.388522 -0.283319
0.113206 4.120687 -1.719721
0.122438 4.414732 -1.710165
0.132064 4.748482 -1.700597
0.143647 5.116850 -1.685558
0.157681 5.565614 -1.677692
0.172564 6.074736 -1.664971
0.190611 6.648671 -1.642943
0.212498 7.345727 -1.621884
0.239168 8.194498 -1.597273
0.227287 9.242542 -1.564355
0.261736 10.525472 -1.517707
0.306123 12.263812 -1.462624
0.371475 14.722943 -1.395889
0.468485 18.373161 -1.297776
0.609782 23.826508 -1.113299
0.791331 30.575603 -0.700028
1.052177 40.193798 0.024339
1.061522 40.293873 0.966506
-0.000902 -0.268499 -0.009447
1.774266 65.788406 4.666821
1.718897 62.926620 5.941805
1.778797 64.731621 7.649717
-0.000902 -0.268499 -0.009447
-0.000902 -0.268499 -0.009447
-0.000902 -0.268499 -0.009447
0.015622 0.284061 -0.336453
0.015675 0.279352 -0.316596
0.016450 0.302211 -0.312237
0.017027 0.314495 -0.301497
0.018163 0.344608 -0.298992
0.019384 0.380389 -0.297676
0.019919 0.390579 -0.284076
0.139236 4.120265 -1.719704
0.149585 4.419921 -1.712195
0.161818 4.747936 -1.700580
0.175460 5.112411 -1.684352
0.191207 5.563016 -1.677124
0.210309 6.077789 -1.665962
0.230300 6.643892 -1.642005
0.256278 7.342757 -1.621450
0.287769 8.189391 -1.596515
0.283589 9.237411 -1.563687
0.324013 10.528083 -1.518237
0.380292 12.256149 -1.461907
0.460391 14.720784 -1.395860
0.575378 18.356506 -1.296779
0.752039 23.800823 -1.112253
0.969966 30.432796 -0.696893
1.436277 44.940983 0.028370
1.303316 40.323139 0.967429
-0.000890 -0.268156 -0.009435
2.171333 66.287865 4.703047
-0.000890 -0.268156 -0.009435
-0.000890 -0.268156 -0.009435
-0.000890 -0.268156 -0.009435
-0.000890 -0.268156 -0.009435
-0.000890 -0.268156 -0.009435
0.019049 0.291172 -0.340516
0.018688 0.276080 -0.314628
0.019615 0.298912 -0.310350
0.020384 0.314716 -0.301485
0.021693 0.344823 -0.298980
0.023166 0.378767 -0.296851
0.023786 0.392630 -0.284833
0.164436 4.117864 -1.718962
0.177246 4.415522 -1.710814
0.190696 4.747251 -1.700563
0.206370 5.109740 -1.683741
0.225792 5.562108 -1.677106
0.246629 6.071012 -1.664428
0.271294 6.642727 -1.641986
0.301416 7.341424 -1.621430
0.338008 8.189817 -1.596863
0.338594 9.243831 -1.564956
0.388068 10.526307 -1.518213
0.452680 12.262012 -1.462804
0.547221 14.732158 -1.397121
0.685367 18.339149 -1.295781
0.890637 23.796427 -1.112216
1.145483 30.393066 -0.696088
1.783832 47.034500 0.030193
1.708788 44.846729 1.076563
-0.000900 -0.267835 -0.009423
-0.000900 -0.267835 -0.009423
2.504500 64.104614 6.055187
-0.000900 -0.267835 -0.009423
-0.000900 -0.267835 -0.009423
-0.000900 -0.267835 -0.009423
-0.000900 -0.267835 -0.009423
0.022517 0.294824 -0.342541
0.021841 0.274544 -0.313637
0.022890 0.297336 -0.309400
0.023844 0.314917 -0.301473
0.025331 0.345014 -0.298967
0.026957 0.380766 -0.297651
0.027775 0.394641 -0.285590
0.190522 4.118996 -1.719671
0.204366 4.418504 -1.712162
0.220189 4.740678 -1.698630
0.238518 5.114470 -1.685506
0.259440 5.562959 -1.677638
0.284302 6.071687 -1.664915
0.311269 6.645282 -1.642886
0.344955 7.334025 -1.620168
0.386891 8.191998 -1.597580
0.395028 9.241995 -1.564934
0.450546 10.532139 -1.519297
0.526587 12.249504 -1.461627
0.636374 14.732956 -1.397461
0.792333 18.331234 -1.295475
1.033307 23.789047 -1.112087
1.326869 30.374077 -0.695775
1.715583 39.193176 0.023685
1.729929 39.213146 0.941230
-0.000888 -0.267492 -0.009412
-0.000888 -0.267492 -0.009412
-0.000888 -0.267492 -0.009412
-0.000888 -0.267492 -0.009412
-0.000888 -0.267492 -0.009412
-0.000888 -0.267492 -0.009412
-0.000888 -0.267492 -0.009412
0.025591 0.291574 -0.340491
0.024967 0.274743 -0.313625
0.026148 0.297528 -0.309388
0.027264 0.316865 -0.302357
0.028819 0.346979 -0.299810
0.030860 0.384573 -0.299263
0.031768 0.398484 -0.287116
0.215090 4.120047 -1.720382
0.231448 4.419469 -1.712828
0.248322 4.743474 -1.699891
0.268470 5.111481 -1.684895
0.292218 5.546321 -1.673224
0.319987 6.076131 -1.666412
0.350576 6.633989 -1.640570
0.387488 7.334259 -1.620564
0.434311 8.193951 -1.598298
0.449783 9.239895 -1.564912
0.512537 10.525737 -1.518721
0.598567 12.244615 -1.461372
0.723494 14.745271 -1.398908
0.900481 18.348610 -1.296961
-0.000898 -0.267170 -0.009400
1.497276 30.352539 -0.695421
1.952643 39.382721 0.023903
1.954117 39.138973 0.939742
-0.000898 -0.267170 -0.009400
-0.000898 -0.267170 -0.009400
-0.000898 -0.267170 -0.009400
-0.000898 -0.267170 -0.009400
-0.000898 -0.267170 -0.009400
-0.000898 -0.267170 -0.009400
-0.000898 -0.267170 -0.009400
0.028889 0.295185 -0.342517
0.028825 0.290596 -0.322417
0.029673 0.304752 -0.313126
0.030631 0.318827 -0.303240
0.032254 0.345323 -0.298943
0.034330 0.379251 -0.296814
0.035999 0.407852 -0.290950
0.240347 4.119066 -1.720366
0.258197 4.414614 -1.711447
0.277167 4.742292 -1.699874
0.299314 5.108257 -1.684284
0.326776 5.564084 -1.678703
0.356412 6.072596 -1.665889
0.390616 6.637997 -1.641931
0.432917 7.338021 -1.621786
0.484271 8.187626 -1.597540
0.502439 9.229678 -1.563602
0.574670 10.522930 -1.518699
0.668736 12.247355 -1.462040
0.807636 14.747293 -1.399435
1.008094 18.351412 -1.297483
1.307946 23.810349 -1.113573
1.671828 30.311787 -0.694664
-0.000886 -0.266828 -0.009388
2.179432 39.223587 0.942098
-0.000886 -0.266828 -0.009388
-0.000886 -0.266828 -0.009388
-0.000886 -0.266828 -0.009388
-0.000886 -0.266828 -0.009388
-0.000886 -0.266828 -0.009388
-0.000886 -0.266828 -0.009388
-0.000886 -0.266828 -0.009388
0.032424 0.298766 -0.344542
0.032031 0.289004 -0.321426
0.032867 0.301378 -0.311238
0.033787 0.313610 -0.300540
0.036012 0.347269 -0.299785
0.037712 0.373889 -0.294366
0.040218 0.411633 -0.292477
0.266366 4.117899 -1.720350
0.285276 4.415271 -1.712113
0.306883 4.740896 -1.699857
0.331210 5.106730 -1.684267
0.360217 5.560509 -1.678136
0.393762 6.066826 -1.664862
0.430618 6.639855 -1.642831
0.476694 7.335728 -1.621768
0.532948 8.185030 -1.597521
0.558760 9.226851 -1.563581
0.637138 10.525699 -1.519507
0.742975 12.243500 -1.462016
0.897425 14.754504 -1.400513
1.116959 18.373505 -1.299383
1.454022 23.856339 -1.116008
1.853602 30.307652 -0.694756
-0.000896 -0.266506 -0.009377
-0.000896 -0.266506 -0.009377
-0.000896 -0.266506 -0.009377
-0.000896 -0.266506 -0.009377
-0.000896 -0.266506 -0.009377
-0.000896 -0.266506 -0.009377
-0.000896 -0.266506 -0.009377
-0.000896 -0.266506 -0.009377
-0.000896 -0.266506 -0.009377
0.035552 0.297166 -0.343511
0.035805 0.297852 -0.326305
0.036232 0.303253 -0.312164
0.037245 0.315519 -0.301424
0.039530 0.347365 -0.299773
0.041757 0.377634 -0.295978
0.044852 0.422767 -0.297080
0.291221 4.111034 -1.718156
0.312906 4.411940 -1.711415
0.335710 4.739377 -1.699841
0.362258 5.106958 -1.684845
0.394910 5.560518 -1.678669
0.430094 6.062856 -1.664339
0.471707 6.639442 -1.643273
0.521521 7.329195 -1.620921
0.582947 8.180093 -1.597132
0.613676 9.227749 -1.564205
0.701031 10.520087 -1.519208
0.815384 12.245289 -1.462684
0.984543 14.759337 -1.401408
1.228594 18.382816 -1.300456
1.592403 23.839933 -1.115608
2.031888 30.330711 -0.695478
3.221689 47.990341 0.031347
-0.000884 -0.266163 -0.009365
-0.000884 -0.266163 -0.009365
4.355599 64.147202 4.559779
-0.000884 -0.266163 -0.009365
-0.000884 -0.266163 -0.009365
-0.000884 -0.266163 -0.009365
-0.000884 -0.266163 -0.009365
-0.000884 -0.266163 -0.009365
0.039034 0.299007 -0.344517
0.039625 0.304898 -0.330206
0.040617 0.317457 -0.319651
0.040686 0.315606 -0.301412
0.043300 0.349252 -0.300615
0.046627 0.392286 -0.302461
0.049883 0.435717 -0.302453
0.317188 4.109567 -1.718140
0.340780 4.412198 -1.712082
0.365538 4.739520 -1.700464
0.394276 5.106957 -1.685422
0.429035 5.552642 -1.677003
0.467472 6.058577 -1.663817
0.512246 6.631041 -1.641876
0.566577 7.326302 -1.620902
0.633331 8.180727 -1.597850
0.670266 9.228207 -1.564830
0.765143 10.518033 -1.519463
0.889872 12.244513 -1.463121
1.072822 14.741645 -1.400278
1.341210 18.403379 -1.302357
1.732659 23.792515 -1.113836
2.215404 30.346355 -0.696064
-0.000894 -0.265841 -0.009353
-0.000894 -0.265841 -0.009353
-0.000894 -0.265841 -0.009353
-0.000894 -0.265841 -0.009353
-0.000894 -0.265841 -0.009353
-0.000894 -0.265841 -0.009353
-0.000894 -0.265841 -0.009353
-0.000894 -0.265841 -0.009353
-0.000894 -0.265841 -0.009353
0.042666 0.304237 -0.347562
0.043445 0.311946 -0.334107
0.044941 0.329887 -0.326201
0.044865 0.326391 -0.306775
0.047121 0.352926 -0.302311
0.050163 0.390523 -0.301637
0.054344 0.441257 -0.304749
0.342372 4.107996 -1.718125
