# This PCD file was generated using the MATLAB® pcwrite function
# from Computer Vision Toolbox®.
# .PCD v.7 - Point Cloud Data file format
VERSION .7
FIELDS x y z
SIZE 4 4 4
TYPE F F F
COUNT 1 1 1
WIDTH 1661
HEIGHT 1
VIEWPOINT 0 0 0 1 0 0 0
POINTS 1661
DATA ascii
-0.000149 -0.243583 -0.009692
-0.000149 -0.243583 -0.009692
-0.000149 -0.243583 -0.009692
-0.000149 -0.243583 -0.009692
-0.000149 -0.243583 -0.009692
0.214957 0.298716 -0.355628
0.217432 0.304393 -0.340918
0.240513 0.362204 -0.356268
0.262172 0.415995 -0.366072
0.328931 0.582937 -0.430827
1.449194 3.391780 -1.752849
1.531424 3.596086 -1.737124
1.632313 3.844821 -1.729508
-0.000156 -0.243264 -0.009680
1.857916 4.402712 -1.701445
2.008541 4.774261 -1.697227
2.165925 5.161899 -1.680547
2.348485 5.614475 -1.663037
2.563615 6.144578 -1.641904
2.824322 6.787030 -1.621538
3.131098 7.542753 -1.592400
3.461708 8.474508 -1.552498
3.935015 9.656322 -1.508835
4.577014 11.265528 -1.458163
5.468746 13.493685 -1.391805
6.717407 16.612965 -1.281839
-0.000156 -0.243264 -0.009680
-0.000156 -0.243264 -0.009680
23.288641 58.046589 -0.021060
27.667717 68.971878 1.707402
-0.000156 -0.243264 -0.009680
-0.000156 -0.243264 -0.009680
-0.000156 -0.243264 -0.009680
-0.000156 -0.243264 -0.009680
-0.000156 -0.243264 -0.009680
-0.000156 -0.243264 -0.009680
-0.000156 -0.243264 -0.009680
0.218076 0.297802 -0.355615
0.220574 0.303454 -0.340905
0.241357 0.354597 -0.352498
0.268641 0.421428 -0.369650
0.332180 0.578063 -0.429102
1.468101 3.380574 -1.751208
1.553515 3.587536 -1.737111
1.653020 3.830796 -1.727311
1.764475 4.101097 -1.717197
1.888818 4.404874 -1.705916
2.034374 4.757993 -1.695425
2.196064 5.150037 -1.680533
2.383348 5.606970 -1.664544
2.599979 6.132289 -1.642352
2.856399 6.757484 -1.618195
3.171681 7.522384 -1.591646
3.509631 8.449259 -1.551510
3.990976 9.636354 -1.509100
4.641738 11.235633 -1.457684
5.543290 13.451221 -1.390674
6.813673 16.581057 -1.282245
-0.000143 -0.242920 -0.009666
-0.000143 -0.242920 -0.009666
-0.000143 -0.242920 -0.009666
-0.000143 -0.242920 -0.009666
-0.000143 -0.242920 -0.009666
-0.000143 -0.242920 -0.009666
-0.000143 -0.242920 -0.009666
-0.000143 -0.242920 -0.009666
-0.000143 -0.242920 -0.009666
-0.000143 -0.242920 -0.009666
-0.000143 -0.242920 -0.009666
0.219131 0.292122 -0.352541
0.225605 0.307374 -0.343832
0.246716 0.358478 -0.355302
0.272349 0.420243 -0.369637
0.336905 0.576463 -0.429089
1.489631 3.374061 -1.752009
1.576989 3.584239 -1.739411
1.677859 3.824961 -1.728754
1.793054 4.099874 -1.720606
1.916287 4.396000 -1.706543
2.065326 4.751805 -1.697200
2.226361 5.135856 -1.679968
2.414768 5.588099 -1.663010
2.636648 6.117529 -1.642339
2.901639 6.749771 -1.620262
3.215444 7.498308 -1.590520
3.561117 8.437152 -1.552795
4.048564 9.615366 -1.509365
4.705777 11.209865 -1.457670
5.615879 13.411157 -1.389730
6.910449 16.541861 -1.282231
-0.000150 -0.242601 -0.009654
-0.000150 -0.242601 -0.009654
-0.000150 -0.242601 -0.009654
28.127478 67.870659 1.687909
-0.000150 -0.242601 -0.009654
-0.000150 -0.242601 -0.009654
-0.000150 -0.242601 -0.009654
-0.000150 -0.242601 -0.009654
-0.000150 -0.242601 -0.009654
-0.000150 -0.242601 -0.009654
-0.000150 -0.242601 -0.009654
0.218318 0.281602 -0.346405
0.230221 0.309580 -0.345779
0.248908 0.354059 -0.353411
0.276973 0.420593 -0.370522
0.341054 0.573099 -0.428220
1.508329 3.360700 -1.749554
1.599675 3.575144 -1.739398
1.702692 3.816979 -1.729469
1.816582 4.086335 -1.719224
1.943773 4.384868 -1.706530
2.093451 4.736272 -1.695995
2.255805 5.119722 -1.678852
2.447829 5.570432 -1.661983
2.672494 6.100784 -1.641864
2.943366 6.736859 -1.621081
3.257685 7.474560 -1.589395
3.614086 8.419843 -1.553431
4.106021 9.594028 -1.509630
4.775167 11.185717 -1.458121
5.701415 13.388949 -1.390833
7.009310 16.507633 -1.282637
-0.000157 -0.242282 -0.009641
-0.000157 -0.242282 -0.009641
-0.000157 -0.242282 -0.009641
28.577564 67.813469 1.690690
-0.000157 -0.242282 -0.009641
-0.000157 -0.242282 -0.009641
-0.000157 -0.242282 -0.009641
-0.000157 -0.242282 -0.009641
-0.000157 -0.242282 -0.009641
-0.000157 -0.242282 -0.009641
-0.000157 -0.242282 -0.009641
0.225362 0.290166 -0.352515
0.232025 0.305351 -0.343806
0.250965 0.349696 -0.351519
0.282187 0.422605 -0.372304
0.350693 0.583087 -0.434199
1.533246 3.360401 -1.753610
1.623804 3.571284 -1.741698
1.730419 3.817705 -1.733823
1.850348 4.094817 -1.726739
1.968168 4.368702 -1.704595
2.120587 4.720943 -1.694789
2.286835 5.104805 -1.678287
2.481271 5.556567 -1.661970
2.710841 6.086919 -1.642312
2.984729 6.719596 -1.621068
3.303412 7.455412 -1.589381
3.661589 8.393747 -1.552444
4.164323 9.569822 -1.509617
4.844785 11.167492 -1.459269
5.780589 13.358030 -1.391005
7.113262 16.477083 -1.283461
6.803486 15.741217 -0.822858
-0.000141 -0.241943 -0.009628
-0.000141 -0.241943 -0.009628
-0.000141 -0.241943 -0.009628
-0.000141 -0.241943 -0.009628
-0.000141 -0.241943 -0.009628
-0.000141 -0.241943 -0.009628
-0.000141 -0.241943 -0.009628
-0.000141 -0.241943 -0.009628
-0.000141 -0.241943 -0.009628
-0.000141 -0.241943 -0.009628
0.228529 0.289155 -0.352502
0.234586 0.302695 -0.342813
0.253757 0.346884 -0.350568
0.284690 0.417945 -0.370496
0.354886 0.579676 -0.433330
1.552524 3.348487 -1.751969
1.641267 3.550047 -1.736287
1.752258 3.802563 -1.731626
1.874539 4.082680 -1.726041
1.999262 4.365955 -1.707784
2.151538 4.712116 -1.695968
2.317597 5.091877 -1.678273
2.518724 5.549165 -1.663983
2.746467 6.069739 -1.641837
3.023989 6.700820 -1.620638
3.349268 7.440197 -1.590109
3.716669 8.381251 -1.554053
4.221557 9.547831 -1.509881
4.912413 11.138881 -1.459255
5.873033 13.351234 -1.393783
6.765315 15.408802 -1.204978
6.769660 15.403844 -0.807692
6.853806 15.583127 -0.413122
6.981707 15.870705 -0.012793
-0.000147 -0.241624 -0.009615
-0.000147 -0.241624 -0.009615
-0.000147 -0.241624 -0.009615
29.698206 68.065369 6.925780
-0.000147 -0.241624 -0.009615
-0.000147 -0.241624 -0.009615
-0.000147 -0.241624 -0.009615
-0.000147 -0.241624 -0.009615
0.231571 0.288144 -0.352489
0.239119 0.304855 -0.344760
0.261412 0.355457 -0.356190
0.287051 0.413348 -0.368688
0.356553 0.571377 -0.429893
1.576119 3.346505 -1.755211
1.666043 3.547607 -1.739358
1.773326 3.789638 -1.730157
1.897898 4.068696 -1.724659
2.022681 4.349849 -1.705849
2.179166 4.700343 -1.695954
2.350601 5.084037 -1.679915
2.551793 5.537089 -1.664477
2.784353 6.057710 -1.642746
3.061141 6.680580 -1.619792
3.391308 7.419887 -1.589725
3.766269 8.360028 -1.554039
4.280243 9.529116 -1.510704
4.970682 11.094341 -1.457150
5.957620 13.332096 -1.395258
6.772722 15.181763 -1.190556
-0.000154 -0.241305 -0.009602
6.823763 15.275887 -0.406230
-0.000154 -0.241305 -0.009602
-0.000154 -0.241305 -0.009602
-0.000154 -0.241305 -0.009602
-0.000154 -0.241305 -0.009602
-0.000154 -0.241305 -0.009602
-0.000154 -0.241305 -0.009602
-0.000154 -0.241305 -0.009602
-0.000154 -0.241305 -0.009602
-0.000154 -0.241305 -0.009602
0.239425 0.298181 -0.359620
0.240741 0.300642 -0.342787
0.260433 0.344632 -0.350542
0.289248 0.408793 -0.366880
0.353872 0.553129 -0.421320
1.593036 3.329351 -1.751129
1.687938 3.540260 -1.740116
1.796521 3.779689 -1.730143
1.925759 4.064881 -1.727383
2.049858 4.340172 -1.706476
2.206798 4.686281 -1.695345
2.382798 5.074237 -1.681005
2.585825 5.524389 -1.664970
2.819784 6.040114 -1.642272
3.104562 6.667967 -1.621027
3.435097 7.396370 -1.588970
3.815856 8.342798 -1.554675
4.338056 9.508249 -1.511247
5.029875 11.057661 -1.455974
6.041437 13.317128 -1.397105
6.854116 15.126426 -1.189283
6.772488 14.936283 -0.787648
6.779276 14.937244 -0.398543
-0.000161 -0.240985 -0.009590
-0.000161 -0.240985 -0.009590
-0.000161 -0.240985 -0.009590
-0.000161 -0.240985 -0.009590
-0.000161 -0.240985 -0.009590
-0.000161 -0.240985 -0.009590
-0.000161 -0.240985 -0.009590
-0.000161 -0.240985 -0.009590
-0.000161 -0.240985 -0.009590
0.236956 0.284531 -0.351443
0.244666 0.301115 -0.343754
0.266072 0.348215 -0.353347
0.296054 0.413910 -0.370457
0.367521 0.571091 -0.431579
1.614330 3.322109 -1.751929
1.708816 3.527134 -1.738561
1.821884 3.772671 -1.731586
1.948204 4.048919 -1.725317
2.078561 4.331688 -1.707744
2.235215 4.671694 -1.694735
2.414169 5.062500 -1.681543
2.619988 5.509265 -1.664957
2.857538 6.027647 -1.643181
3.141873 6.644967 -1.619765
3.480655 7.380357 -1.589697
3.864298 8.314945 -1.553687
4.397385 9.490640 -1.512348
5.097647 11.029749 -1.456193
6.104542 13.243282 -1.393182
7.541772 16.410061 -1.291096
-0.000145 -0.240645 -0.009577
-0.000145 -0.240645 -0.009577
-0.000145 -0.240645 -0.009577
-0.000145 -0.240645 -0.009577
-0.000145 -0.240645 -0.009577
-0.000145 -0.240645 -0.009577
-0.000145 -0.240645 -0.009577
-0.000145 -0.240645 -0.009577
-0.000145 -0.240645 -0.009577
-0.000145 -0.240645 -0.009577
-0.000145 -0.240645 -0.009577
0.238542 0.280353 -0.349389
0.245594 0.295260 -0.340802
0.267252 0.342184 -0.350516
6.195433 13.243605 -7.463275
0.369915 0.564350 -0.428998
1.634674 3.311125 -1.751102
1.731268 3.519238 -1.739318
1.844174 3.760730 -1.730845
1.974403 4.039303 -1.725988
2.106449 4.323406 -1.709012
2.265065 4.662524 -1.695914
2.445601 5.048413 -1.681529
2.652241 5.492644 -1.664436
2.895480 6.012652 -1.643629
3.185140 6.631848 -1.620999
3.526652 7.361685 -1.590054
3.914321 8.294659 -1.553998
4.455879 9.466501 -1.512613
5.171600 11.020395 -1.458734
6.205383 13.258885 -1.398379
7.651280 16.388905 -1.292899
6.921906 14.796810 -0.784532
6.924489 14.788584 -0.396736
-0.000152 -0.240326 -0.009564
-0.000152 -0.240326 -0.009564
-0.000152 -0.240326 -0.009564
-0.000152 -0.240326 -0.009564
-0.000152 -0.240326 -0.009564
-0.000152 -0.240326 -0.009564
-0.000152 -0.240326 -0.009564
-0.000152 -0.240326 -0.009564
-0.000152 -0.240326 -0.009564
0.240171 0.276131 -0.347335
0.250251 0.297288 -0.342748
0.273702 0.347326 -0.354260
0.302926 0.409427 -0.369534
0.373170 0.559204 -0.427273
1.655872 3.303629 -1.751903
1.754339 3.510904 -1.740076
1.866307 3.746670 -1.729376
1.999023 4.028192 -1.725974
2.132693 4.309440 -1.708358
2.293305 4.647591 -1.695305
2.476017 5.034561 -1.681516
2.687050 5.478894 -1.664930
2.929790 5.992675 -1.642692
3.225498 6.615484 -1.621402
3.572050 7.345130 -1.590781
3.964891 8.271601 -1.553984
4.510876 9.439212 -1.512320
5.240829 10.995219 -1.459417
6.287054 13.225756 -1.398737
7.764643 16.382837 -1.295822
7.017777 14.770276 -0.785266
-0.000159 -0.240007 -0.009551
-0.000159 -0.240007 -0.009551
-0.000159 -0.240007 -0.009551
-0.000159 -0.240007 -0.009551
-0.000159 -0.240007 -0.009551
-0.000159 -0.240007 -0.009551
-0.000159 -0.240007 -0.009551
-0.000159 -0.240007 -0.009551
-0.000159 -0.240007 -0.009551
-0.000159 -0.240007 -0.009551
0.246076 0.281280 -0.351404
0.254830 0.299311 -0.344695
0.271791 0.334892 -0.347672
0.307420 0.409605 -0.370419
0.373762 0.549270 -0.422980
1.682511 3.307556 -1.758400
1.773523 3.496047 -1.737749
1.889345 3.738193 -1.730090
2.024379 4.018628 -1.726645
2.154823 4.290948 -1.705782
2.320575 4.635040 -1.695291
2.508003 5.024004 -1.682606
2.718117 5.462378 -1.664409
2.966494 5.977796 -1.643139
3.262896 6.595926 -1.620972
3.616058 7.328940 -1.591509
4.014699 8.250742 -1.554294
4.568227 9.416965 -1.512863
5.310551 10.975949 -1.460796
6.371330 13.204050 -1.400211
7.872227 16.363420 -1.297764
7.121243 14.766038 -0.787121
-0.000143 -0.239667 -0.009538
7.175544 14.860021 -0.012552
-0.000143 -0.239667 -0.009538
25.642931 53.647762 2.762692
-0.000143 -0.239667 -0.009538
-0.000143 -0.239667 -0.009538
-0.000143 -0.239667 -0.009538
-0.000143 -0.239667 -0.009538
-0.000143 -0.239667 -0.009538
-0.000143 -0.239667 -0.009538
0.245266 0.272469 -0.346289
0.257079 0.296630 -0.343703
0.279578 0.343236 -0.353295
0.308737 0.403385 -0.367712
0.376585 0.544227 -0.421255
1.697548 3.288556 -1.753504
1.795166 3.488076 -1.738507
1.914766 3.734616 -1.732988
2.048137 4.007587 -1.726632
2.184210 4.287701 -1.708971
2.349428 4.625771 -1.696469
2.537368 5.010247 -1.682592
2.752433 5.452646 -1.665916
3.003712 5.966710 -1.644510
3.303575 6.583202 -1.622206
3.659122 7.310717 -1.591865
4.062907 8.230294 -1.554604
4.620379 9.388064 -1.512291
5.378257 10.957179 -1.462175
6.448024 13.172164 -1.400568
7.978651 16.348280 -1.299987
7.195396 14.706556 -0.786077
7.196985 14.703167 -0.397579
8.043164 16.445072 -0.012861
31.679539 65.415909 1.669830
-0.000149 -0.239349 -0.009525
-0.000149 -0.239349 -0.009525
-0.000149 -0.239349 -0.009525
-0.000149 -0.239349 -0.009525
-0.000149 -0.239349 -0.009525
-0.000149 -0.239349 -0.009525
-0.000149 -0.239349 -0.009525
0.255084 0.285264 -0.355460
0.257968 0.290728 -0.340749
0.281482 0.338723 -0.351403
0.310971 0.398655 -0.365904
0.386124 0.551989 -0.426378
1.718463 3.278761 -1.753490
1.816454 3.476043 -1.737722
1.936546 3.718155 -1.730791
2.071633 3.992300 -1.725249
2.212660 4.276310 -1.709598
2.377424 4.608235 -1.695263
2.566772 4.991970 -1.681475
2.786313 5.434338 -1.665395
3.042184 5.952585 -1.645419
3.341738 6.556209 -1.620527
3.706898 7.292075 -1.592592
4.117414 8.215241 -1.556213
4.677433 9.360820 -1.512276
5.443740 10.923625 -1.461928
6.540604 13.160853 -1.403345
-0.000160 -0.239026 -0.009512
7.302391 14.701637 -0.788025
-0.000160 -0.239026 -0.009512
-0.000160 -0.239026 -0.009512
32.021042 65.130142 1.667366
-0.000160 -0.239026 -0.009512
-0.000160 -0.239026 -0.009512
-0.000160 -0.239026 -0.009512
-0.000160 -0.239026 -0.009512
-0.000160 -0.239026 -0.009512
-0.000160 -0.239026 -0.009512
-0.000160 -0.239026 -0.009512
0.257320 0.282552 -0.354427
0.263334 0.294247 -0.343676
0.289499 0.346910 -0.357026
0.313847 0.395577 -0.364993
0.393075 0.554928 -0.428933
1.740120 3.270463 -1.754290
1.844366 3.479053 -1.743878
1.956829 3.702263 -1.728594
2.096707 3.980259 -1.725236
2.239469 4.265510 -1.710225
2.406133 4.596478 -1.695846
2.597764 4.976969 -1.681461
2.820661 5.421978 -1.666395
3.079759 5.936511 -1.645866
3.386357 6.545322 -1.622594
3.753287 7.273795 -1.593319
4.171270 8.202316 -1.558146
4.736063 9.336763 -1.512819
5.514106 10.904879 -1.463539
6.622972 13.133995 -1.404447
8.166970 16.237005 -1.298696
-0.000144 -0.238686 -0.009499
-0.000144 -0.238686 -0.009499
-0.000144 -0.238686 -0.009499
-0.000144 -0.238686 -0.009499
-0.000144 -0.238686 -0.009499
-0.000144 -0.238686 -0.009499
-0.000144 -0.238686 -0.009499
-0.000144 -0.238686 -0.009499
-0.000144 -0.238686 -0.009499
-0.000144 -0.238686 -0.009499
-0.000144 -0.238686 -0.009499
0.261959 0.284422 -0.356455
0.267280 0.294563 -0.344643
0.289016 0.337624 -0.352316
0.320823 0.400424 -0.368571
0.390482 0.538385 -0.421216
1.758647 3.257432 -1.752649
1.859763 3.455189 -1.737695
1.981850 3.694228 -1.730036
2.122669 3.971799 -1.726591
2.265304 4.250775 -1.709571
2.440820 4.594379 -1.700005
2.628640 4.963974 -1.681998
2.853337 5.403748 -1.665874
3.114375 5.917240 -1.645391
3.428029 6.531273 -1.623829
3.799155 7.257637 -1.594417
4.220395 8.175975 -1.557807
4.795579 9.318512 -1.514198
5.583685 10.879377 -1.464454
6.711136 13.112567 -1.406293
8.286813 16.239925 -1.302597
-0.000150 -0.238367 -0.009486
7.498701 14.646885 -0.399451
-0.000150 -0.238367 -0.009486
-0.000150 -0.238367 -0.009486
-0.000150 -0.238367 -0.009486
-0.000150 -0.238367 -0.009486
-0.000150 -0.238367 -0.009486
-0.000150 -0.238367 -0.009486
-0.000150 -0.238367 -0.009486
-0.000150 -0.238367 -0.009486
-0.000150 -0.238367 -0.009486
0.261856 0.277105 -0.352359
0.271132 0.294891 -0.345610
0.293131 0.337849 -0.353243
0.320426 0.390916 -0.364070
0.402343 0.550941 -0.428907
1.776259 3.242686 -1.750194
1.881849 3.446389 -1.738453
2.001932 3.678104 -1.727839
2.146020 3.958149 -1.725893
2.291984 4.239665 -1.710198
2.465119 4.573759 -1.697607
2.658546 4.949061 -1.681985
2.886660 5.389260 -1.666367
3.148005 5.896070 -1.644454
3.466958 6.511741 -1.623814
3.841362 7.234206 -1.594032
4.274171 8.162421 -1.559740
4.853231 9.296351 -1.515020
5.654844 10.861528 -1.466297
6.796961 13.091761 -1.408139
8.408784 16.245577 -1.306777
-0.000157 -0.238048 -0.009474
7.606143 14.646514 -0.400558
-0.000157 -0.238048 -0.009474
-0.000157 -0.238048 -0.009474
-0.000157 -0.238048 -0.009474
-0.000157 -0.238048 -0.009474
-0.000157 -0.238048 -0.009474
-0.000157 -0.238048 -0.009474
-0.000157 -0.238048 -0.009474
-0.000157 -0.238048 -0.009474
-0.000157 -0.238048 -0.009474
0.263229 0.272844 -0.350306
0.268600 0.282801 -0.338738
0.295630 0.334903 -0.352290
0.330609 0.402084 -0.371238
0.397728 0.531261 -0.419478
1.799651 3.239226 -1.753436
1.905580 3.440724 -1.740753
2.025320 3.668496 -1.728553
2.171020 3.947715 -1.726563
2.318606 4.228394 -1.710824
2.491925 4.558125 -1.696997
2.689266 4.935697 -1.682523
2.919913 5.374580 -1.666860
3.184176 5.879885 -1.644902
3.508479 6.497184 -1.625049
3.887060 7.217514 -1.595130
4.324293 8.141500 -1.560375
4.908973 9.270329 -1.515284
5.724139 10.839684 -1.467676
6.883686 13.072182 -1.410171
8.509072 16.207829 -1.307600
-0.000142 -0.237708 -0.009461
-0.000142 -0.237708 -0.009461
-0.000142 -0.237708 -0.009461
32.711689 62.794743 1.626563
-0.000142 -0.237708 -0.009461
-0.000142 -0.237708 -0.009461
-0.000142 -0.237708 -0.009461
-0.000142 -0.237708 -0.009461
-0.000142 -0.237708 -0.009461
-0.000142 -0.237708 -0.009461
-0.000142 -0.237708 -0.009461
0.268562 0.276221 -0.353354
0.274823 0.287743 -0.342645
0.298910 0.333504 -0.352278
0.330961 0.394156 -0.367635
0.402992 0.530884 -0.420321
1.820486 3.230735 -1.754236
1.924167 3.425119 -1.738425
2.050382 3.662035 -1.730722
2.195981 3.937145 -1.727234
2.346042 4.218631 -1.712092
2.523061 4.550770 -1.699367
2.721711 4.925553 -1.684163
2.954002 5.361425 -1.667859
3.219352 5.861766 -1.644887
3.541745 6.466831 -1.622537
3.929940 7.195335 -1.595115
4.375209 8.122013 -1.561334
4.963628 9.242205 -1.515269
5.790609 10.812139 -1.468358
6.966704 13.044991 -1.411458
8.240250 15.466353 -1.252755
-0.000148 -0.237389 -0.009448
-0.000148 -0.237389 -0.009448
7.911178 14.807314 -0.012492
33.157024 62.763103 1.630688
-0.000148 -0.237389 -0.009448
-0.000148 -0.237389 -0.009448
-0.000148 -0.237389 -0.009448
-0.000148 -0.237389 -0.009448
-0.000148 -0.237389 -0.009448
-0.000148 -0.237389 -0.009448
-0.000148 -0.237389 -0.009448
0.267480 0.267388 -0.348239
0.276200 0.283389 -0.340672
0.302196 0.332100 -0.352265
0.333755 0.390986 -0.366724
0.408254 0.530466 -0.421164
1.840171 3.218580 -1.753409
1.946954 3.417548 -1.739954
2.069287 3.643898 -1.727798
2.219825 3.922702 -1.726536
2.374356 4.210395 -1.714000
2.553284 4.541524 -1.701142
2.755015 4.914718 -1.685804
2.987095 5.346335 -1.668352
3.259168 5.849748 -1.646719
3.578682 6.440839 -1.621275
3.976760 7.177404 -1.596213
4.427910 8.105721 -1.562943
5.022585 9.218163 -1.516090
5.864404 10.798227 -1.470898
7.048685 13.015512 -1.412560
8.277976 15.313606 -1.244486
-0.000155 -0.237070 -0.009435
-0.000155 -0.237070 -0.009435
8.035133 14.825720 -0.012489
-0.000155 -0.237070 -0.009435
-0.000155 -0.237070 -0.009435
-0.000155 -0.237070 -0.009435
-0.000155 -0.237070 -0.009435
-0.000155 -0.237070 -0.009435
-0.000155 -0.237070 -0.009435
-0.000155 -0.237070 -0.009435
-0.000155 -0.237070 -0.009435
0.274541 0.273686 -0.353328
0.283418 0.289740 -0.345559
0.305581 0.330634 -0.352251
0.338331 0.390898 -0.367609
0.415381 0.533129 -0.423719
1.857447 3.203433 -1.750954
1.967730 3.404633 -1.739169
2.100268 3.646633 -1.734334
2.242844 3.908513 -1.725838
2.397998 4.191554 -1.712064
2.580688 4.524940 -1.700532
2.785560 4.900783 -1.686342
3.019255 5.327139 -1.667831
3.294164 5.831195 -1.646705
3.618023 6.422168 -1.621676
4.019386 7.154693 -1.596198
4.476392 8.077879 -1.562603
5.087293 9.208591 -1.519141
5.937332 10.777558 -1.472741
7.139503 12.996573 -1.414963
8.229024 15.009648 -1.224049
-0.000139 -0.236730 -0.009422
-0.000139 -0.236730 -0.009422
-0.000139 -0.236730 -0.009422
-0.000139 -0.236730 -0.009422
-0.000139 -0.236730 -0.009422
-0.000139 -0.236730 -0.009422
-0.000139 -0.236730 -0.009422
-0.000139 -0.236730 -0.009422
-0.000139 -0.236730 -0.009422
-0.000139 -0.236730 -0.009422
-0.000139 -0.236730 -0.009422
0.278303 0.273932 -0.354336
0.282283 0.280787 -0.340646
0.307145 0.326082 -0.350360
0.342800 0.390834 -0.368493
0.409406 0.512030 -0.413434
1.875486 3.189807 -1.749312
1.987787 3.391948 -1.738384
2.119917 3.629900 -1.732137
2.268487 3.899145 -1.727193
2.427101 4.184628 -1.714613
2.608999 4.512003 -1.701114
2.813251 4.881610 -1.685225
3.054980 5.316763 -1.669844
3.322492 5.800518 -1.643460
3.657256 6.403256 -1.622078
4.063785 7.135188 -1.596925
4.528935 8.060950 -1.564212
5.140663 9.177728 -1.518847
6.006383 10.753965 -1.474119
7.219398 12.962532 -1.415692
8.351172 15.025338 -1.229068
-0.000146 -0.236411 -0.009409
-0.000146 -0.236411 -0.009409
28.599834 51.920921 -0.020027
42.786839 77.728981 2.039501
-0.000146 -0.236411 -0.009409
-0.000146 -0.236411 -0.009409
-0.000146 -0.236411 -0.009409
-0.000146 -0.236411 -0.009409
-0.000146 -0.236411 -0.009409
-0.000146 -0.236411 -0.009409
-0.000146 -0.236411 -0.009409
0.277075 0.265120 -0.349220
0.286931 0.282513 -0.342593
0.311226 0.326165 -0.351287
0.349003 0.393859 -0.371173
0.417212 0.516302 -0.416845
1.901095 3.188517 -1.754182
2.008659 3.380772 -1.738371
2.140330 3.614685 -1.730668
2.292081 3.884300 -1.726494
2.452534 4.170912 -1.714599
2.635363 4.495545 -1.700504
2.844506 4.866829 -1.685762
3.085963 5.297706 -1.669323
3.362060 5.787827 -1.645291
3.699441 6.386877 -1.623312
4.108411 7.112982 -1.597281
4.576645 8.035052 -1.564197
5.203137 9.159500 -1.520783
6.081115 10.740353 -1.476892
7.301100 12.931522 -1.416793
9.046647 16.066154 -1.316469
8.347103 14.799399 -0.814443
11.049199 19.650192 -0.541637
29.076969 52.053028 -0.020063
43.568542 78.080925 2.055334
-0.000152 -0.236093 -0.009397
-0.000152 -0.236093 -0.009397
-0.000152 -0.236093 -0.009397
-0.000152 -0.236093 -0.009397
17.008446 30.225061 4.887453
-0.000152 -0.236093 -0.009397
-0.000152 -0.236093 -0.009397
0.277519 0.259289 -0.346146
0.292572 0.285695 -0.345520
0.319741 0.333866 -0.356909
0.354491 0.395222 -0.372956
0.418000 0.507913 -0.413408
1.918111 3.173069 -1.751726
2.030077 3.369104 -1.738357
2.162464 3.602610 -1.730654
2.318538 3.876261 -1.728534
2.480662 4.161983 -1.716506
2.661640 4.478958 -1.699894
2.875744 4.854038 -1.686851
3.120644 5.285223 -1.670830
3.396691 5.768682 -1.645277
3.734448 6.363037 -1.622465
4.151330 7.093672 -1.598007
4.627582 8.011524 -1.564831
5.260076 9.134889 -1.521604
6.144212 10.700953 -1.476411
7.388869 12.905656 -1.418638
9.158967 16.047146 -1.319110
10.873560 19.079548 -1.047017
11.049734 19.384470 -0.536193
31.483116 55.620514 -0.020801
44.134636 78.002464 2.060157
-0.000159 -0.235774 -0.009384
-0.000159 -0.235774 -0.009384
-0.000159 -0.235774 -0.009384
-0.000159 -0.235774 -0.009384
17.232346 30.213104 4.901372
-0.000159 -0.235774 -0.009384
-0.000159 -0.235774 -0.009384
0.286241 0.268535 -0.353276
0.292887 0.279824 -0.342567
0.317692 0.323201 -0.351260
0.350939 0.381137 -0.365761
0.419464 0.501181 -0.410827
1.935306 3.159450 -1.750085
2.051105 3.359648 -1.739114
2.187568 3.597276 -1.733551
2.339602 3.860309 -1.727151
2.503311 4.145102 -1.715211
2.692664 4.472626 -1.702860
2.904117 4.838215 -1.686837
3.149503 5.264673 -1.669802
3.432101 5.753316 -1.646186
3.773198 6.345806 -1.623283
4.195144 7.075822 -1.599104
4.675525 7.989313 -1.565465
5.313297 9.107405 -1.521867
6.206178 10.668524 -1.476628
7.470027 12.878352 -1.420111
9.273476 16.037680 -1.322449
10.909022 18.892179 -1.040172
11.037245 19.109163 -0.530422
32.685150 57.003780 -0.021093
44.690899 77.965141 2.065765
-0.000143 -0.235434 -0.009371
-0.000143 -0.235434 -0.009371
43.510941 75.777298 8.146200
43.586781 75.848190 10.228821
17.451376 30.202635 4.915293
-0.000143 -0.235434 -0.009371
-0.000143 -0.235434 -0.009371
0.288369 0.265671 -0.352242
0.297687 0.281433 -0.344514
0.319237 0.318579 -0.349369
0.359052 0.387107 -0.370236
0.423957 0.498936 -0.410814
1.957245 3.151401 -1.751699
2.067763 3.339741 -1.735245
2.205351 3.574512 -1.729170
2.366685 3.851558 -1.729190
2.532863 4.134967 -1.717119
2.720419 4.454775 -1.702249
2.934172 4.821226 -1.686823
3.182083 5.244003 -1.669280
3.467580 5.733180 -1.646171
3.817249 6.329720 -1.624933
4.240706 7.052085 -1.599460
4.726205 7.965166 -1.566099
5.371611 9.081194 -1.522688
6.271748 10.633546 -1.476844
7.556659 12.849636 -1.421769
9.391815 16.020693 -1.325509
10.871308 18.566280 -1.026032
11.060047 18.877306 -0.525960
33.024193 56.809155 -0.021064
45.278423 77.913467 2.071512
-0.000154 -0.235110 -0.009358
-0.000154 -0.235110 -0.009358
44.090397 75.710228 8.167745
44.158463 75.766380 10.253905
17.716280 30.244444 4.938944
-0.000154 -0.235110 -0.009358
31.923573 54.598755 11.933537
0.287778 0.258383 -0.348148
0.297139 0.274013 -0.340581
0.321535 0.315536 -0.348416
0.358116 0.377638 -0.365735
0.419823 0.482832 -0.403097
1.972103 3.132516 -1.747616
2.092056 3.334470 -1.738315
2.228462 3.565658 -1.730612
2.388283 3.834947 -1.727807
2.556285 4.119459 -1.716464
2.747549 4.441491 -1.702831
2.956437 4.792981 -1.682947
3.214596 5.229807 -1.670279
3.499922 5.710081 -1.645234
3.855836 6.311993 -1.625751
4.284324 7.033686 -1.600557
4.772374 7.936445 -1.565759
5.425182 9.050434 -1.522672
6.339259 10.606150 -1.477990
7.630880 12.804501 -1.421567
9.509463 16.007973 -1.328848
10.869312 18.315794 -1.015820
10.955288 18.455055 -0.516165
26.464539 44.877533 -0.018621
45.835030 77.834496 2.076430
-0.000160 -0.234792 -0.009345
-0.000160 -0.234792 -0.009345
44.629906 75.660561 8.189102
-0.000160 -0.234792 -0.009345
38.169399 64.570663 10.547237
-0.000160 -0.234792 -0.009345
-0.000160 -0.234792 -0.009345
0.294037 0.263021 -0.352216
0.289325 0.254670 -0.328808
0.319281 0.304865 -0.342768
0.352426 0.360582 -0.356745
0.416577 0.468292 -0.396236
1.997058 3.130852 -1.752485
2.110707 3.319525 -1.736759
2.253186 3.557906 -1.732781
2.411699 3.821462 -1.727793
2.582065 4.104526 -1.716450
2.777195 4.428702 -1.704009
2.995174 4.792699 -1.688449
3.246951 5.210947 -1.670265
3.538131 5.694550 -1.646603
3.894762 6.286973 -1.625319
4.330398 7.013518 -1.601654
4.820946 7.915085 -1.566718
5.477552 9.017649 -1.522378
6.399690 10.570891 -1.477974
7.697505 12.751745 -1.420433
9.634423 16.006474 -1.333166
10.872971 18.079721 -1.006356
-0.000145 -0.234452 -0.009332
33.714806 56.485836 -0.021018
46.426987 77.810150 2.082915
-0.000145 -0.234452 -0.009332
-0.000145 -0.234452 -0.009332
45.204853 75.605141 8.211946
-0.000145 -0.234452 -0.009332
-0.000145 -0.234452 -0.009332
-0.000145 -0.234452 -0.009332
32.676044 54.433929 11.978728
0.294400 0.257098 -0.349142
0.287827 0.245748 -0.323895
0.297043 0.260910 -0.316456
0.322912 0.303585 -0.324414
0.368597 0.379377 -0.348288
2.016048 3.117698 -1.751657
2.131738 3.307243 -1.736745
2.272762 3.540002 -1.730584
2.438618 3.812218 -1.729832
2.607009 4.089903 -1.716436
2.804985 4.414582 -1.704591
3.023966 4.773523 -1.687883
3.280270 5.195803 -1.671264
3.574235 5.677731 -1.647512
3.934147 6.270455 -1.626553
4.372073 6.988787 -1.601639
4.872651 7.889179 -1.567352
5.534401 8.988713 -1.522920
6.469681 10.538754 -1.478887
7.784874 12.718450 -1.421906
9.771744 16.017736 -1.338743
10.860919 17.814920 -0.995396
10.991588 18.024855 -0.507896
27.131592 44.800362 -0.018617
27.127710 44.758400 1.201164
27.132080 44.747921 2.431121
-0.000151 -0.234133 -0.009319
45.761295 75.543320 8.233678
-0.000151 -0.234133 -0.009319
-0.000151 -0.234133 -0.009319
-0.000151 -0.234133 -0.009319
-0.000151 -0.234133 -0.009319
0.298041 0.257249 -0.350150
0.293218 0.248927 -0.326822
0.302554 0.264094 -0.319260
-0.000158 -0.233814 -0.009306
-0.000158 -0.233814 -0.009306
2.040073 3.114157 -1.755712
2.152450 3.297187 -1.737502
2.294445 3.527159 -1.730570
2.459938 3.795235 -1.728449
2.633843 4.078373 -1.717703
2.831717 4.398679 -1.704577
3.053755 4.757985 -1.688420
3.308446 5.172184 -1.669729
3.608214 5.657363 -1.647497
3.976779 6.254007 -1.628203
4.420003 6.971425 -1.603477
4.922042 7.868914 -1.568635
5.589491 8.960403 -1.523461
6.531799 10.506166 -1.479335
7.866423 12.690421 -1.423564
9.872443 15.973443 -1.339705
10.880451 17.621237 -0.988083
10.976831 17.765259 -0.502498
34.124573 55.676960 -0.020873
-0.000158 -0.233814 -0.009306
34.605595 56.398438 3.073978
-0.000158 -0.233814 -0.009306
46.342136 75.486504 8.257264
-0.000158 -0.233814 -0.009306
-0.000158 -0.233814 -0.009306
-0.000158 -0.233814 -0.009306
-0.000158 -0.233814 -0.009306
0.300951 0.255798 -0.350137
0.295150 0.246005 -0.325829
0.302729 0.258108 -0.316430
0.316904 0.280714 -0.312718
0.334924 0.309523 -0.311455
0.342453 0.321506 -0.299818
2.172394 3.283106 -1.736717
2.320656 3.520155 -1.733467
2.483092 3.781316 -1.728435
2.660383 4.064604 -1.718329
2.859152 4.382116 -1.704562
3.085503 4.745552 -1.690060
3.335375 5.144567 -1.667180
3.645174 5.641782 -1.648867
4.014071 6.231314 -1.628188
4.462455 6.947835 -1.603833
4.972099 7.843246 -1.569269
5.636105 8.918254 -1.521774
6.594373 10.465856 -1.479087
7.978512 12.701464 -1.429875
9.971895 15.926819 -1.340526
10.850808 17.337429 -0.976000
10.964661 17.507948 -0.497194
34.385014 55.381187 -0.020821
48.180573 77.633469 2.100487
-0.000142 -0.233474 -0.009293
-0.000142 -0.233474 -0.009293
46.908581 75.430237 8.280480
-0.000142 -0.233474 -0.009293
37.780945 60.636269 10.046417
-0.000142 -0.233474 -0.009293
-0.000142 -0.233474 -0.009293
0.301939 0.251456 -0.348083
0.293302 0.237234 -0.320916
0.305544 0.256669 -0.316417
0.316057 0.273127 -0.309114
0.335180 0.303320 -0.308874
0.347576 0.322943 -0.301433
2.196526 3.277116 -1.739788
2.336300 3.497574 -1.729086
2.505171 3.765676 -1.727737
2.685106 4.049548 -1.718315
2.882658 4.361059 -1.702759
3.113104 4.726394 -1.689494
3.369391 5.130517 -1.668686
3.678945 5.621011 -1.648852
4.058520 6.219998 -1.631086
4.506879 6.927329 -1.604930
5.018545 7.814815 -1.569253
5.688720 8.885969 -1.521758
6.655881 10.428022 -1.479071
8.058138 12.664056 -1.430789
10.047890 15.842390 -1.338270
10.842693 17.100517 -0.966349
10.940388 17.243145 -0.491609
34.656956 55.106289 -0.020774
-0.000149 -0.233155 -0.009281
-0.000149 -0.233155 -0.009281
-0.000149 -0.233155 -0.009281
47.487572 75.388527 8.305737
-0.000149 -0.233155 -0.009281
-0.000149 -0.233155 -0.009281
-0.000149 -0.233155 -0.009281
-0.000149 -0.233155 -0.009281
0.302881 0.247118 -0.346029
0.296943 0.237340 -0.321883
0.309313 0.256728 -0.317343
0.319942 0.273151 -0.309999
0.340187 0.304748 -0.310573
0.349798 0.319714 -0.300606
2.218685 3.267850 -1.741316
2.361742 3.490675 -1.731983
2.526153 3.748339 -1.726354
2.706670 4.029531 -1.716379
2.911118 4.347928 -1.703937
3.139534 4.705444 -1.688377
3.400210 5.111332 -1.668672
3.715740 5.604980 -1.650221
4.095620 6.196842 -1.631071
4.546993 6.899929 -1.604543
5.061649 7.781097 -1.568264
5.771818 8.901929 -1.529824
6.722467 10.398223 -1.480216
8.144013 12.636286 -1.432819
-0.000156 -0.232836 -0.009268
10.854661 16.899725 -0.958662
10.924164 16.996130 -0.486492
20.373503 31.886513 -0.015952
-0.000156 -0.232836 -0.009268
46.176292 72.452850 3.991371
-0.000156 -0.232836 -0.009268
48.052670 75.319122 8.328399
-0.000156 -0.232836 -0.009268
-0.000156 -0.232836 -0.009268
-0.000156 -0.232836 -0.009268
-0.000156 -0.232836 -0.009268
0.310293 0.252954 -0.351118
0.302457 0.240344 -0.324810
0.311161 0.253762 -0.316391
0.320914 0.268607 -0.308190
0.342305 0.301586 -0.309704
0.354070 0.319503 -0.301407
2.241817 3.260013 -1.743615
2.381126 3.474193 -1.730514
2.550742 3.735177 -1.727024
2.728109 4.009424 -1.714443
2.939505 4.334608 -1.705115
3.175035 4.696755 -1.691672
3.433034 5.095244 -1.669670
3.748203 5.579880 -1.649283
4.135831 6.176047 -1.631888
4.594561 6.881393 -1.606381
5.106643 7.750462 -1.567924
5.833399 8.879525 -1.531759
6.786813 10.364691 -1.480896
8.235182 12.616315 -1.435780
10.062821 15.455764 -1.315855
10.649955 16.364763 -0.932365
10.904344 16.748175 -0.481329
20.485861 31.644234 -0.015903
49.960888 77.478333 2.119447
-0.000140 -0.232496 -0.009255
-0.000140 -0.232496 -0.009255
40.580502 62.742897 6.966978
-0.000140 -0.232496 -0.009255
-0.000140 -0.232496 -0.009255
-0.000140 -0.232496 -0.009255
-0.000140 -0.232496 -0.009255
0.307546 0.242756 -0.344982
0.304317 0.237410 -0.323817
0.315982 0.255213 -0.318256
0.326805 0.271518 -0.310870
0.343505 0.296844 -0.307979
0.361215 0.323897 -0.304649
0.380147 0.352580 -0.300744
2.403092 3.460335 -1.730499
2.576630 3.725471 -1.729063
2.755304 3.996662 -1.715709
2.964481 4.314223 -1.703908
3.198134 4.670674 -1.688899
3.462487 5.071877 -1.668642
3.784817 5.563417 -1.650653
4.171607 6.150815 -1.631457
4.634385 6.853498 -1.605995
5.156082 7.723670 -1.568557
5.881464 8.839450 -1.530628
6.857140 10.336221 -1.482506
8.327530 12.592587 -1.438555
-0.000146 -0.232177 -0.009242
10.657871 16.162577 -0.924584
10.868608 16.473995 -0.475463
20.714928 31.596458 -0.015893
50.568420 77.407028 2.125707
-0.000146 -0.232177 -0.009242
-0.000146 -0.232177 -0.009242
-0.000146 -0.232177 -0.009242
-0.000146 -0.232177 -0.009242
37.182652 56.681843 9.533088
-0.000146 -0.232177 -0.009242
-0.000146 -0.232177 -0.009242
0.312153 0.244169 -0.347010
0.309892 0.240350 -0.326743
0.318779 0.253704 -0.318243
0.329699 0.269951 -0.310857
0.348535 0.298203 -0.309678
0.364416 0.322136 -0.304636
0.374360 0.336822 -0.293791
2.426373 3.449872 -1.731941
2.599391 3.710900 -1.729048
2.777520 3.977879 -1.714414
2.994811 4.303759 -1.706278
3.224186 4.649278 -1.687781
3.496179 5.057014 -1.670148
3.822411 5.548326 -1.652484
4.214777 6.136796 -1.633939
4.681620 6.836840 -1.608204
5.202905 7.695823 -1.568866
5.939046 8.814029 -1.532005
6.924430 10.306833 -1.483883
8.400162 12.543079 -1.438351
10.030135 15.016105 -1.288685
10.734535 16.074549 -0.923069
-0.000153 -0.231858 -0.009229
20.409225 30.735508 -0.015713
51.150112 77.320137 2.131416
-0.000153 -0.231858 -0.009229
-0.000153 -0.231858 -0.009229
41.895992 63.169140 7.067185
20.177267 30.279291 4.261975
38.202633 57.514362 9.709374
-0.000153 -0.231858 -0.009229
19.817465 29.678534 6.744403
0.313946 0.241261 -0.345977
0.306805 0.230161 -0.320851
0.319600 0.249230 -0.316352
0.333572 0.269853 -0.311742
0.350569 0.294996 -0.308809
0.367599 0.320350 -0.304623
-0.000160 -0.231539 -0.009217
2.453738 3.445454 -1.736293
2.624143 3.699314 -1.730403
2.804881 3.966867 -1.716321
3.019824 4.285174 -1.705668
3.250106 4.627756 -1.686663
3.531941 5.045135 -1.672667
3.855655 5.526557 -1.652469
4.252465 6.114357 -1.634340
4.723362 6.811730 -1.608559
5.248474 7.666051 -1.568850
5.992159 8.781666 -1.532268
6.987213 10.270415 -1.484331
8.483524 12.509729 -1.440009
9.987259 14.762463 -1.272163
10.762891 15.914707 -0.917533
10.851713 16.035660 -0.466632
-0.000160 -0.231539 -0.009217
19.841822 29.478394 0.814010
19.517456 28.970655 1.622621
19.851070 29.458628 2.481972
19.865997 29.458548 3.317327
-0.000160 -0.231539 -0.009217
-0.000160 -0.231539 -0.009217
-0.000160 -0.231539 -0.009217
-0.000160 -0.231539 -0.009217
0.310896 0.231207 -0.339841
0.311413 0.231617 -0.322797
0.323349 0.249177 -0.317278
0.332459 0.262327 -0.308138
0.352589 0.291804 -0.307939
0.369838 0.316970 -0.303796
0.374690 0.323951 -0.289137
2.470700 3.425417 -1.733368
2.646369 3.682448 -1.729704
2.831143 3.954118 -1.717587
3.046862 4.269624 -1.706249
3.279967 4.610313 -1.687200
3.561204 5.023451 -1.672145
3.890830 5.505503 -1.652915
4.292251 6.092589 -1.635156
4.770592 6.792038 -1.610396
5.299364 7.644196 -1.570457
6.043315 8.742990 -1.531694
7.053126 10.238567 -1.485475
8.562341 12.469260 -1.440921
9.989019 14.574273 -1.261235
10.738353 15.678922 -0.907694
10.828831 15.800916 -0.461749
-0.000148 -0.231196 -0.009203
52.383789 77.234993 2.145646
19.562140 28.676094 1.612435
20.013468 29.320835 2.480328
-0.000148 -0.231196 -0.009203
-0.000148 -0.231196 -0.009203
-0.000148 -0.231196 -0.009203
36.201336 53.083603 10.567017
20.051289 29.287985 6.707826
0.315585 0.232533 -0.341868
0.315124 0.231515 -0.323764
0.324209 0.244661 -0.315386
0.336378 0.262136 -0.309023
0.352636 0.285557 -0.305358
0.372998 0.315164 -0.303783
0.374864 0.317484 -0.286810
2.497615 3.418701 -1.736992
2.665684 3.662818 -1.727636
2.854844 3.935992 -1.716933
3.074603 4.253370 -1.706830
3.309963 4.594831 -1.688288
3.594507 5.005738 -1.673144
3.928214 5.489744 -1.654745
4.330819 6.071315 -1.635973
4.817652 6.774496 -1.612604
5.349354 7.617846 -1.571414
6.098236 8.713260 -1.532513
7.117372 10.200145 -1.485922
8.647649 12.433348 -1.442579
-0.000154 -0.230877 -0.009190
10.729959 15.465158 -0.899165
10.802959 15.560122 -0.456725
22.754951 33.018028 -0.016195
53.008610 77.165642 2.152463
51.665340 75.148010 4.236561
-0.000154 -0.230877 -0.009190
20.119396 29.090261 3.302171
-0.000154 -0.230877 -0.009190
37.488667 54.342140 9.284136
36.465298 52.812782 10.554744
-0.000154 -0.230877 -0.009190
0.316283 0.228188 -0.339814
0.315802 0.227148 -0.321791
0.329950 0.247467 -0.318191
0.340245 0.262000 -0.309907
0.358684 0.288298 -0.307913
0.377275 0.314769 -0.304583
0.386429 0.327786 -0.292967
2.526012 3.415291 -1.742073
2.693011 3.653418 -1.730359
2.875560 3.915140 -1.714996
3.101461 4.237476 -1.707412
3.336351 4.572275 -1.687170
3.627928 4.990048 -1.674649
3.966548 5.473063 -1.656576
4.372603 6.052249 -1.637622
4.861378 6.749331 -1.613330
5.396700 7.590473 -1.572047
6.147832 8.672361 -1.531661
7.181830 10.165830 -1.486835
8.736300 12.406598 -1.445166
9.935577 14.130627 -1.233365
10.723536 15.263796 -0.891197
10.783298 15.338539 -0.452169
23.035013 33.002750 -0.016194
53.627766 77.110794 2.159556
41.402519 59.435314 3.364930
-0.000161 -0.230557 -0.009178
-0.000161 -0.230557 -0.009178
39.935543 57.214344 8.160109
-0.000161 -0.230557 -0.009178
36.786152 52.605526 10.556722
36.763126 52.552879 12.098611
0.322940 0.232268 -0.343883
0.317507 0.224155 -0.320799
0.327733 0.238600 -0.313481
0.342126 0.258822 -0.308997
0.360622 0.285060 -0.307044
0.381446 0.314397 -0.305384
0.387598 0.322769 -0.291411
0.415991 0.363038 -0.292279
2.718587 3.642795 -1.732398
2.898299 3.897282 -1.714341
3.124936 4.216730 -1.706205
3.360647 4.548595 -1.685500
3.660152 4.972548 -1.675648
4.000444 5.452032 -1.657022
4.412116 6.034442 -1.639272
4.901406 6.723997 -1.613685
5.452062 7.571584 -1.574628
6.204689 8.645259 -1.533038
7.255918 10.141261 -1.489373
8.822543 12.371165 -1.447010
9.940268 13.962350 -1.223836
10.714396 15.056273 -0.882949
10.762577 15.119335 -0.447660
28.338106 40.155209 -0.017709
54.268414 77.051720 2.166928
-0.000145 -0.230218 -0.009165
-0.000145 -0.230218 -0.009165
-0.000145 -0.230218 -0.009165
20.360863 28.700846 4.121765
-0.000145 -0.230218 -0.009165
37.755829 53.357937 10.749153
38.878651 54.910767 12.690589
0.331492 0.239225 -0.349993
0.320043 0.222702 -0.320786
0.333395 0.241401 -0.316286
0.344865 0.257241 -0.308983
0.362549 0.281833 -0.306175
0.381316 0.308117 -0.302930
0.389630 0.319431 -0.290627
0.419406 0.360960 -0.292266
2.733654 3.618692 -1.728277
2.927506 3.888563 -1.717529
3.154944 4.205226 -1.708574
3.390634 4.534782 -1.687140
3.688932 4.950130 -1.675126
4.037770 5.437860 -1.659314
4.445853 6.006068 -1.638424
4.943669 6.699187 -1.614410
5.497825 7.544560 -1.575261
6.257582 8.615637 -1.533857
7.320632 10.110648 -1.490749
8.907740 12.343143 -1.449411
-0.000152 -0.229898 -0.009152
10.730239 14.898743 -0.877319
10.745493 14.909060 -0.443385
28.127829 39.383503 -0.017549
41.464718 58.123123 1.640462
-0.000152 -0.229898 -0.009152
40.717491 57.008202 4.890542
-0.000152 -0.229898 -0.009152
39.819939 55.663975 8.004306
-0.000152 -0.229898 -0.009152
-0.000152 -0.229898 -0.009152
-0.000152 -0.229898 -0.009152
0.329179 0.230634 -0.344878
0.320624 0.218349 -0.318812
0.335090 0.238375 -0.315334
0.345578 0.252661 -0.307175
0.368654 0.284469 -0.308730
0.386627 0.309131 -0.304544
0.393860 0.318996 -0.291385
0.427140 0.364900 -0.295164
2.759715 3.607285 -1.730316
2.953402 3.875044 -1.718796
3.180432 4.187304 -1.708560
3.431210 4.532059 -1.693193
3.717570 4.927551 -1.674604
4.072449 5.415684 -1.659760
4.480492 5.976734 -1.637576
4.981231 6.665263 -1.613282
5.544797 7.516294 -1.575894
6.311113 8.580287 -1.534119
7.388161 10.079941 -1.492358
8.996256 12.314620 -1.451998
10.520720 14.429470 -1.274006
10.682037 14.648774 -0.866452
10.706486 14.671868 -0.438315
23.894110 33.001888 -0.016198
23.918053 33.022984 0.934789
23.916039 32.995758 1.892883
-0.000159 -0.229579 -0.009139
-0.000159 -0.229579 -0.009139
-0.000159 -0.229579 -0.009139
-0.000159 -0.229579 -0.009139
38.952923 53.707062 10.909881
-0.000159 -0.229579 -0.009139
0.330885 0.227594 -0.343844
0.325317 0.219580 -0.320759
0.338894 0.238128 -0.316260
0.349472 0.252362 -0.308060
0.367345 0.276798 -0.305293
0.389721 0.307217 -0.304531
0.398185 0.318459 -0.292143
0.432751 0.365769 -0.296607
2.783986 3.594696 -1.731670
2.974753 3.855220 -1.717500
3.210310 4.175404 -1.710929
3.446102 4.495446 -1.687110
3.750640 4.911076 -1.676109
4.104909 5.392475 -1.659745
4.519706 5.958264 -1.639225
5.024305 6.644015 -1.614749
5.605718 7.504352 -1.580097
6.371036 8.556934 -1.536332
7.460876 10.052327 -1.494663
9.084576 12.280682 -1.454214
10.529906 14.265642 -1.265037
10.468213 14.170163 -0.842400
10.701576 14.485779 -0.434694
28.100674 38.381489 -0.017345
56.161682 76.881035 2.189231
-0.000143 -0.229239 -0.009126
-0.000143 -0.229239 -0.009126
40.079933 54.720337 6.324433
54.639530 74.626671 10.812486
39.323509 53.604450 9.348536
38.238136 52.099483 10.627475
37.474888 51.017506 11.941148
0.335476 0.228847 -0.345872
0.330923 0.222308 -0.323686
0.340535 0.235071 -0.315308
0.353221 0.252173 -0.308944
0.371323 0.276453 -0.306136
0.392817 0.305301 -0.304518
0.399156 0.313519 -0.290588
0.436173 0.363595 -0.296594
2.803740 3.575903 -1.730286
2.997818 3.836301 -1.716845
3.236381 4.156592 -1.710914
3.478967 4.483580 -1.689853
3.782215 4.890602 -1.676601
4.145129 5.377724 -1.662498
4.562068 5.937155 -1.640874
5.066161 6.615977 -1.615104
5.653488 7.479616 -1.581380
6.422720 8.522035 -1.536594
7.525217 10.020419 -1.496040
9.171983 12.254147 -1.456987
10.536403 14.100621 -1.255926
10.603050 14.180748 -0.846495
10.751767 14.377528 -0.433319
-0.000149 -0.228921 -0.009113
42.793488 57.821346 1.652882
-0.000149 -0.228921 -0.009113
-0.000149 -0.228921 -0.009113
40.181664 54.179115 6.289422
-0.000149 -0.228921 -0.009113
-0.000149 -0.228921 -0.009113
39.829781 53.604511 10.981213
-0.000149 -0.228921 -0.009113
0.337247 0.225739 -0.344838
0.334707 0.221995 -0.324653
0.344336 0.234783 -0.316234
0.356159 0.250337 -0.308931
0.373255 0.273133 -0.305267
0.395973 0.303277 -0.304505
0.402353 0.311451 -0.290575
0.437451 0.358329 -0.295125
2.829640 3.564043 -1.732325
3.023460 3.822340 -1.718111
3.261590 4.138209 -1.710899
3.511466 4.469330 -1.692045
3.812796 4.870607 -1.677093
4.173858 5.349414 -1.661098
4.601131 5.918178 -1.642522
5.111399 6.594883 -1.616941
5.704010 7.450025 -1.582336
6.482796 8.495215 -1.538528
7.599531 9.990521 -1.498345
9.275410 12.234962 -1.461249
10.543797 13.934153 -1.246816
10.669282 14.092284 -0.844979
10.762978 14.212805 -0.430353
-0.000156 -0.228602 -0.009101
57.431389 76.718086 2.203659
55.987656 74.756584 4.338894
55.949036 74.650429 6.511066
-0.000156 -0.228602 -0.009101
55.900093 74.503510 10.888433
38.565144 51.291279 9.024179
40.166355 53.410915 10.988701
38.235332 50.795116 11.992646
0.340801 0.225537 -0.345846
0.336164 0.219043 -0.323660
0.345857 0.231765 -0.315282
0.356666 0.245798 -0.307123
0.377208 0.272726 -0.306110
0.395655 0.297019 -0.302050
0.406476 0.310996 -0.291333
0.439718 0.354653 -0.294384
2.850765 3.548494 -1.732310
3.046730 3.805174 -1.718096
3.290135 4.124240 -1.712673
3.539987 4.453057 -1.693133
3.845606 4.853518 -1.678598
4.206121 5.327895 -1.661544
4.641164 5.898122 -1.644172
5.154165 6.570347 -1.618037
5.749181 7.421536 -1.582969
6.534978 8.463943 -1.539347
7.661266 9.954602 -1.499256
9.360429 12.203962 -1.463650
10.553094 13.782930 -1.238685
10.673328 13.932289 -0.839069
-0.000141 -0.228262 -0.009088
24.679735 32.479115 -0.016093
58.068638 76.672531 2.211680
43.177792 56.911106 3.318514
56.552792 74.583824 6.532686
41.259781 54.313683 6.359597
-0.000141 -0.228262 -0.009088
-0.000141 -0.228262 -0.009088
-0.000141 -0.228262 -0.009088
38.781517 50.907982 12.071487
0.346533 0.228000 -0.348894
0.338733 0.217422 -0.323647
0.346358 0.227275 -0.313390
0.360484 0.245491 -0.308007
0.382294 0.273758 -0.307809
0.402068 0.299325 -0.304479
0.406227 0.304578 -0.289006
0.446458 0.356874 -0.296554
2.870852 3.528856 -1.730927
3.075664 3.795409 -1.721284
3.316314 4.107065 -1.713254
3.570033 4.435337 -1.694221
3.878351 4.836229 -1.680103
4.239012 5.303157 -1.661529
4.677441 5.870803 -1.644156
5.200413 6.547776 -1.619873
5.797906 7.394890 -1.584251
6.597243 8.439527 -1.541838
7.735444 9.931194 -1.502258
9.453608 12.178691 -1.466981
10.575560 13.641066 -1.231673
10.671100 13.761312 -0.832597
-0.000147 -0.227943 -0.009075
-0.000147 -0.227943 -0.009075
58.707230 76.594521 2.219195
57.235970 74.615227 4.368696
42.380863 55.150387 4.855289
40.457851 52.599491 6.187359
-0.000147 -0.227943 -0.009075
-0.000147 -0.227943 -0.009075
-0.000147 -0.227943 -0.009075
-0.000147 -0.227943 -0.009075
0.353442 0.231723 -0.352963
0.352027 0.229556 -0.333434
0.347983 0.224145 -0.312438
0.361101 0.240834 -0.306199
0.384159 0.270374 -0.306939
0.402967 0.294371 -0.302838
0.411633 0.305400 -0.290535
0.453331 0.358953 -0.298724
2.894252 3.513571 -1.731597
3.095999 3.772911 -1.719348
3.343150 4.089144 -1.713835
3.598821 4.415915 -1.694757
3.908323 4.813441 -1.680088
4.280110 5.288994 -1.664743
4.715962 5.846368 -1.644972
5.238117 6.514019 -1.619116
5.852679 7.373195 -1.586831
6.652191 8.405263 -1.542657
7.806498 9.899593 -1.504331
9.530704 12.127428 -1.467521
10.557717 13.448911 -1.220185
10.681870 13.604774 -0.827060
-0.000153 -0.227624 -0.009062
-0.000153 -0.227624 -0.009062
59.376133 76.521881 2.227310
57.895527 74.554237 4.385177
41.651737 53.533993 4.734944
40.863319 52.478428 6.201493
-0.000153 -0.227624 -0.009062
-0.000153 -0.227624 -0.009062
-0.000153 -0.227624 -0.009062
-0.000153 -0.227624 -0.009062
0.355016 0.228646 -0.351929
0.353572 0.226467 -0.332440
0.357090 0.230815 -0.318060
0.365993 0.241895 -0.307981
0.384783 0.265622 -0.305214
0.404742 0.290994 -0.302011
0.418114 0.307720 -0.292835
2.740961 3.276423 -1.747022
2.919732 3.503597 -1.734319
3.121336 3.758337 -1.720614
3.366777 4.068645 -1.713223
3.625877 4.397582 -1.695294
3.940869 4.795740 -1.681593
4.313265 5.268405 -1.665650
4.754641 5.826418 -1.646620
5.279326 6.489624 -1.620211
5.898790 7.342812 -1.587463
6.706373 8.376105 -1.544033
7.875697 9.868898 -1.506403
9.606611 12.078951 -1.468246
10.550428 13.283138 -1.210655
10.671557 13.428444 -0.820214
-0.000141 -0.227281 -0.009049
-0.000141 -0.227281 -0.009049
60.037781 76.460808 2.235611
58.539639 74.493561 4.401381
41.966084 53.319714 4.736654
-0.000141 -0.227281 -0.009049
-0.000141 -0.227281 -0.009049
41.905243 53.146355 9.516131
41.845467 53.032013 11.107083
39.633930 50.181129 12.061244
0.355504 0.224212 -0.349875
0.361571 0.231584 -0.337327
0.359726 0.229077 -0.318047
0.366472 0.237297 -0.306173
0.389867 0.266567 -0.306913
0.409992 0.291850 -0.303625
0.420043 0.304180 -0.292051
2.752995 3.250673 -1.741913
2.937671 3.482624 -1.732251
3.141875 3.737638 -1.719318
3.395033 4.054004 -1.714997
3.650065 4.373935 -1.694175
3.974544 4.779343 -1.683604
4.349680 5.249888 -1.667480
4.790639 5.800785 -1.647021
5.326487 6.470197 -1.622789
5.948403 7.316787 -1.589069
6.760734 8.343899 -1.545130
7.947241 9.840840 -1.508941
9.656330 11.997169 -1.465063
10.561270 13.137951 -1.203083
10.662039 13.255819 -0.813556
-0.000148 -0.226962 -0.009036
44.630272 56.149555 -0.021216
60.694489 76.386803 2.243682
59.168800 74.407539 4.416377
-0.000148 -0.226962 -0.009036
-0.000148 -0.226962 -0.009036
40.460827 50.718563 7.587819
-0.000148 -0.226962 -0.009036
41.077995 51.440258 10.824029
41.133842 51.473530 12.427184
0.358094 0.222479 -0.349862
0.364221 0.229831 -0.337314
0.360133 0.224553 -0.316155
0.370253 0.236896 -0.307057
0.391570 0.263222 -0.306044
0.411845 0.288390 -0.302798
0.421938 0.300632 -0.291267
2.772983 3.235088 -1.741898
2.960154 3.467424 -1.732921
3.165855 3.721290 -1.719943
3.422016 4.037675 -1.716174
3.678909 4.356158 -1.695263
4.002106 4.755190 -1.683082
4.382366 5.226581 -1.667926
4.828960 5.777997 -1.648253
5.352650 6.424425 -1.619067
5.994200 7.285802 -1.589702
6.817392 8.314426 -1.546785
8.018734 9.812303 -1.511478
9.697979 11.905905 -1.460763
10.553331 12.971265 -1.193554
10.664615 13.100920 -0.807926
-0.000154 -0.226643 -0.009023
43.019848 53.477158 -0.020650
