# This PCD file was generated using the MATLAB® pcwrite function
# from Computer Vision Toolbox®.
# .PCD v.7 - Point Cloud Data file format
VERSION .7
FIELDS x y z
SIZE 4 4 4
TYPE F F F
COUNT 1 1 1
WIDTH 1634
HEIGHT 1
VIEWPOINT 0 0 0 1 0 0 0
POINTS 1634
DATA ascii
-0.462114 -0.234722 -0.279594
-3.344779 0.419148 -1.835046
-3.538539 0.464437 -1.833220
-3.761850 0.516570 -1.837385
-4.015631 0.575815 -1.844838
-4.250196 0.630079 -1.831885
-4.551720 0.700573 -1.834050
-4.847863 0.770032 -1.820807
-4.926036 0.788866 -1.718299
-5.097154 0.829962 -1.642464
-5.405808 0.902801 -1.600973
-5.773830 0.988467 -1.561266
-6.264170 1.103559 -1.533173
-6.862542 1.243970 -1.506752
-7.468432 1.386568 -1.453658
-8.176568 1.512726 -1.386475
-9.234320 1.755770 -1.339321
-10.546090 2.055390 -1.270625
-10.741735 2.103823 -1.035519
-11.227998 2.218603 -0.812778
-11.406228 2.261364 -0.553002
-16.316956 3.387169 -0.393453
-12.137875 2.437238 -0.007036
-12.096917 2.430175 0.281081
-12.080078 2.430822 0.570940
-12.082076 2.435776 0.859867
-12.060017 2.435219 1.147568
-12.060733 2.437671 1.440392
-12.031336 2.435398 1.728395
-12.039639 2.441802 2.023307
-12.014335 2.438231 2.316555
-0.436885 -0.237534 -0.279391
-0.456390 -0.232843 -0.276646
-3.347097 0.440909 -1.838793
-3.538941 0.486948 -1.835904
-3.753194 0.538364 -1.835670
-4.010288 0.599251 -1.844833
-4.242574 0.655177 -1.831111
-4.547294 0.728300 -1.834773
-4.837731 0.797396 -1.819437
-4.924793 0.819693 -1.720215
-5.084551 0.859190 -1.640678
-5.392946 0.932915 -1.599320
-5.760200 1.021691 -1.559749
-6.259535 1.140836 -1.534093
-6.859010 1.285150 -1.507997
-7.435426 1.424424 -1.449229
-8.151984 1.558394 -1.384216
-9.272258 1.820920 -1.346538
-10.523952 2.116446 -1.269710
-10.752273 2.173720 -1.037930
-11.193658 2.279000 -0.811403
-11.425617 2.337518 -0.554671
0.000571 -0.339228 -0.013350
-16.305857 3.489997 -0.004872
-12.093903 2.505431 0.281401
-12.073151 2.505071 0.571399
-12.067830 2.506108 0.859996
-12.051590 2.506793 1.148304
-12.053708 2.511805 1.441547
-12.024805 2.507243 1.729780
-12.025358 2.511871 2.023621
-12.007213 2.512071 2.318400
-0.441304 -0.233487 -0.282437
-0.454070 -0.230291 -0.275655
-3.339113 0.459670 -1.836911
-3.528897 0.506398 -1.833209
-3.749830 0.560712 -1.836520
-3.997711 0.620943 -1.841578
-4.238562 0.680356 -1.831877
-4.526573 0.751305 -1.828957
-4.832923 0.826008 -1.820118
-4.925402 0.850140 -1.722769
-5.055278 0.883406 -1.633538
-5.387408 0.964718 -1.599869
-5.772950 1.060181 -1.565308
-6.245236 1.175803 -1.532713
-6.758278 1.302787 -1.488086
-7.400313 1.461502 -1.444430
-8.121711 1.601059 -1.380987
-9.238483 1.869535 -1.343493
-10.525088 2.181040 -1.271566
-10.898342 2.274482 -1.053275
0.000564 -0.338909 -0.013337
-11.514899 2.428825 -0.559658
-16.305307 3.586320 -0.394265
-16.291323 3.586035 -0.004888
-16.262014 3.585087 0.383505
-12.097354 2.584740 0.573365
-12.060933 2.578244 0.860687
-12.044682 2.578824 1.149227
-12.044821 2.583377 1.442468
-12.019755 2.579594 1.731445
-12.022145 2.584698 2.025887
-12.000126 2.583853 2.320246
-0.437353 -0.231443 -0.280386
-0.458506 -0.226093 -0.278580
-3.334441 0.479225 -1.836904
-3.523974 0.527025 -1.833204
-3.742828 0.582186 -1.835660
-3.992108 0.644280 -1.841574
-4.238005 0.706389 -1.834183
-4.511161 0.775456 -1.825321
-4.822493 0.853232 -1.818749
-4.920316 0.879259 -1.723406
-5.062979 0.916499 -1.638293
-5.381662 0.996522 -1.600417
-5.779819 1.097461 -1.569351
-6.238300 1.212537 -1.533173
-6.824664 1.360901 -1.504681
-7.376470 1.501085 -1.441847
-8.104663 1.646708 -1.380021
-9.240991 1.926807 -1.345717
-10.608810 2.266081 -1.283354
-10.712939 2.295676 -1.037024
-11.094937 2.391733 -0.806574
-16.295965 3.677701 -0.787588
-16.286316 3.681442 -0.394376
-16.287844 3.684937 -0.004898
-16.254671 3.682853 0.383865
-16.243664 3.686242 0.775536
-12.067193 2.653730 0.862362
-12.035412 2.650393 1.149962
-12.041276 2.656396 1.444090
-12.008518 2.650535 1.732271
-12.020450 2.658021 2.028477
-11.990735 2.655146 2.321719
-0.430056 -0.230277 -0.276297
-0.456169 -0.223561 -0.277589
-3.333101 0.499597 -1.838775
-3.518937 0.547620 -1.833198
-3.739214 0.604490 -1.836510
-3.984624 0.667115 -1.840757
-4.224736 0.729311 -1.831099
-4.506478 0.802195 -1.826044
-4.815532 0.881323 -1.818746
-4.916874 0.908847 -1.724681
-5.053815 0.945488 -1.637696
-5.377613 1.028761 -1.601516
-5.647700 1.099527 -1.535985
-6.234910 1.250213 -1.534554
-6.812864 1.400020 -1.504267
-7.350514 1.539969 -1.438895
-8.047140 1.682149 -1.372267
-9.218181 1.977906 -1.344337
-10.564722 2.320200 -1.279898
-10.641591 2.343540 -1.031674
-11.523993 2.568125 -0.838443
-11.367968 2.533062 -0.554241
-16.276476 3.778920 -0.394715
-16.262466 3.778513 -0.004920
-16.244812 3.780165 0.384176
-16.229900 3.782512 0.775987
-16.222492 3.783750 1.165572
-12.039219 2.725399 1.152005
-12.033456 2.728477 1.445244
-12.008368 2.724393 1.734773
-12.012535 2.729995 2.030091
-11.994243 2.729845 2.325791
-0.434428 -0.226190 -0.279344
-0.460572 -0.219309 -0.280514
-3.328216 0.519105 -1.838769
-3.512026 0.567763 -1.832296
-3.728467 0.624977 -1.833941
-3.976986 0.689921 -1.839940
-4.222104 0.754859 -1.832635
-4.498035 0.827979 -1.825314
-4.810248 0.909829 -1.819426
-4.916959 0.939360 -1.727236
-5.044500 0.974405 -1.637099
-5.352916 1.055660 -1.596562
-5.689884 1.145530 -1.549634
-6.206831 1.281498 -1.529952
-6.795173 1.437566 -1.502609
-7.402322 1.599020 -1.451085
-8.083158 1.741073 -1.380352
-9.204684 2.031282 -1.344343
-10.580018 2.389258 -1.283602
-10.637526 2.408108 -1.032792
-11.277190 2.575378 -0.821970
-16.283453 3.874783 -0.789288
-16.271845 3.877939 -0.395189
-16.261719 3.878453 -0.004929
-16.238253 3.878498 0.384582
-16.215567 3.878757 0.776437
-16.213934 3.881458 1.166675
-16.189276 3.881171 1.555988
-12.034827 2.803067 1.447565
-12.009693 2.798838 1.737555
-11.998495 2.800449 2.030729
-11.978268 2.799713 2.326150
-0.428771 -0.224599 -0.276274
-0.451410 -0.218450 -0.275608
-3.321378 0.538701 -1.837825
-3.504871 0.588448 -1.831394
-3.726173 0.648346 -1.835645
-3.972590 0.714290 -1.840748
-4.211974 0.779277 -1.831091
-4.491046 0.854969 -1.825311
-4.800953 0.938185 -1.818740
-4.909294 0.968841 -1.727234
-5.029248 1.002672 -1.634718
-5.335266 1.085247 -1.593809
-5.722101 1.190589 -1.560755
-6.214035 1.323152 -1.534094
-6.797730 1.481741 -1.505514
-7.364127 1.636106 -1.445918
-8.085954 1.793349 -1.382942
-9.175142 2.082150 -1.342131
-10.515634 2.439633 -1.277838
-10.611426 2.468956 -1.031878
-11.485364 2.702310 -0.838188
-16.263954 3.973205 -0.789586
-16.260065 3.978346 -0.395529
-16.246078 3.977774 -0.004945
-16.230328 3.979747 0.384987
-16.209560 3.980391 0.777357
-16.196337 3.979975 1.167215
-16.175497 3.980583 1.557087
-16.178205 3.987453 1.953550
-12.010005 2.875504 1.740335
-11.993016 2.875500 2.032993
-11.972747 2.874624 2.328736
-0.433102 -0.220466 -0.279320
-0.459138 -0.213254 -0.280490
-3.317977 0.558601 -1.838758
-3.494291 0.607550 -1.828699
-3.718698 0.669628 -1.834785
-3.961157 0.736055 -1.838306
-4.196564 0.801419 -1.827238
-4.487696 0.882115 -1.826761
-4.791702 0.965652 -1.818055
-4.912650 1.000409 -1.731067
-5.019590 1.031446 -1.634121
-5.332544 1.117794 -1.595459
-5.733736 1.229451 -1.566315
-6.193102 1.356153 -1.531334
-6.762606 1.514469 -1.500123
-7.388648 1.688687 -1.452938
-7.989700 1.817593 -1.368723
-9.107512 2.120822 -1.334371
-10.581933 2.522755 -1.287779
-10.693119 2.556882 -1.041312
-11.436852 2.760387 -0.835983
-16.258141 4.072355 -0.790530
-16.252300 4.076968 -0.395959
-16.232540 4.074739 -0.004961
-16.218708 4.077147 0.385298
-16.205631 4.079778 0.778371
-16.188520 4.078246 1.168459
-16.173429 4.080284 1.559307
-16.164530 4.084027 1.954928
-16.132504 4.078400 2.345897
-11.993340 2.950074 2.036233
-11.965416 2.946988 2.330951
-0.440708 -0.215353 -0.284405
-0.458434 -0.210302 -0.280479
-3.309353 0.577080 -1.836876
-3.492254 0.628918 -1.830487
-3.707595 0.689914 -1.832216
-3.952956 0.759374 -1.837489
-4.191719 0.826380 -1.828004
-4.477001 0.907270 -1.825305
-4.782075 0.993878 -1.817369
-4.906679 1.029521 -1.731704
-5.007954 1.059619 -1.632929
-5.327514 1.150772 -1.596558
-5.730198 1.264340 -1.567831
-6.182945 1.393194 -1.531334
-6.800491 1.568601 -1.510911
-7.372722 1.731744 -1.452202
-7.952430 1.857064 -1.364525
-9.146236 2.189899 -1.342144
-10.569119 2.585031 -1.288251
-10.559196 2.586336 -1.030049
-11.206782 2.769885 -0.820757
-16.240189 4.168367 -0.790920
-16.242023 4.175098 -0.396345
-16.227285 4.177190 -0.004972
-16.214191 4.176719 0.385798
-16.185705 4.174970 0.778632
-16.173559 4.177785 1.169279
-16.169949 4.182940 1.561526
-16.150270 4.180604 1.956307
0.000566 -0.336949 -0.013261
-16.115757 4.183289 2.745180
-11.974687 3.024148 2.336508
-0.438319 -0.212876 -0.283374
-0.452638 -0.208678 -0.277531
-3.300458 0.596073 -1.834994
-3.488163 0.650447 -1.831379
-3.703368 0.712055 -1.833066
-3.955386 0.784918 -1.841548
-4.190063 0.853071 -1.830310
-4.469754 0.933361 -1.825301
-4.772524 1.021203 -1.816684
-4.904210 1.059622 -1.733620
-4.996158 1.087710 -1.631738
-5.326254 1.183861 -1.598758
-5.717171 1.296563 -1.566820
-6.182230 1.431774 -1.533636
-6.776575 1.603104 -1.508009
-7.332702 1.765094 -1.446665
-7.971564 1.913647 -1.370025
-9.120094 2.239625 -1.340487
-10.542033 2.645315 -1.287106
-10.417114 2.613995 -1.018046
-11.025542 2.788452 -0.808992
-16.232384 4.270434 -0.791865
-16.235012 4.274343 -0.396821
-16.220238 4.276390 -0.004984
-16.204432 4.278107 0.386202
-16.178654 4.273928 0.779552
-16.172241 4.278294 1.171084
-16.154009 4.276259 1.562439
-16.146906 4.280429 1.959084
-16.121653 4.279405 2.351998
-16.109240 4.278987 2.748411
-13.530589 3.545379 2.646131
-0.432671 -0.211541 -0.280304
-0.448550 -0.206777 -0.275561
-3.295213 0.614796 -1.834988
-3.480873 0.669740 -1.830477
-3.693789 0.732686 -1.831352
-3.949041 0.807329 -1.841543
-4.174473 0.874218 -1.826456
-4.453423 0.956800 -1.821666
-4.763056 1.047635 -1.815998
-4.905177 1.090818 -1.736814
-4.991529 1.117859 -1.632926
-5.317665 1.213918 -1.598756
-5.709512 1.330342 -1.567325
-6.166644 1.464966 -1.532255
-6.772805 1.644616 -1.509670
-7.303493 1.802646 -1.443344
-7.955080 1.957360 -1.369383
-9.061784 2.278220 -1.334113
-10.521387 2.703375 -1.286653
-10.553521 2.716714 -1.032841
-11.074993 2.869721 -0.813852
-16.227507 4.367462 -0.792900
-16.225464 4.373117 -0.397252
-16.209602 4.371677 -0.004998
-16.195688 4.373887 0.386607
-16.172934 4.373503 0.780565
-16.155798 4.371659 1.171765
-16.142481 4.374005 1.563910
-16.135303 4.378135 1.960928
-16.118448 4.376359 2.355329
-16.099428 4.377024 2.751316
-16.095451 4.382042 3.155486
-0.431934 -0.208714 -0.280292
-0.444468 -0.204871 -0.273592
-3.282904 0.632081 -1.831230
-3.476738 0.690597 -1.831368
-3.687576 0.754258 -1.831347
-3.942181 0.831066 -1.841539
-4.163905 0.897500 -1.824913
-4.449479 0.983803 -1.823116
-4.756565 1.076728 -1.816679
0.000569 -0.335971 -0.013223
-4.977568 1.145282 -1.631139
-5.293640 1.241365 -1.594353
-5.699826 1.363512 -1.567325
-6.168900 1.505747 -1.535478
-6.697182 1.666054 -1.495567
-7.253018 1.834991 -1.435961
-7.926572 1.999017 -1.366801
-9.061320 2.336741 -1.336340
-10.517038 2.768183 -1.288280
-10.587333 2.792999 -1.037841
-10.956283 2.906271 -0.806659
-16.219309 4.466833 -0.793845
-16.211496 4.470788 -0.397593
-16.198622 4.473245 -0.005012
-16.177874 4.470260 0.386821
-16.162785 4.472016 0.781390
-16.148613 4.474035 1.173287
-16.133343 4.475721 1.565755
-16.128834 4.477554 1.963472
-16.103479 4.476230 2.357261
-16.093878 4.479588 2.755195
-16.081190 4.478952 3.158063
-0.426226 -0.207310 -0.277223
-0.436984 -0.203903 -0.269665
-3.280472 0.652895 -1.833101
-3.463737 0.709467 -1.827777
-3.686224 0.778019 -1.833907
-3.924907 0.850892 -1.836660
-4.160050 0.923573 -1.826449
-4.430850 1.007278 -1.818753
-4.748350 1.104418 -1.816677
-4.895401 1.150925 -1.739368
-4.968708 1.175096 -1.631138
-5.291820 1.274392 -1.596553
-5.565610 1.359855 -1.533452
-6.163777 1.543269 -1.536859
-6.711744 1.712905 -1.501377
-7.249782 1.879931 -1.437811
-7.948483 2.057144 -1.372948
-9.007843 2.377781 -1.330799
-10.450895 2.816505 -1.282516
-10.505674 2.837086 -1.031753
-10.712052 2.901545 -0.790322
-16.211561 4.569677 -0.794882
-16.203732 4.573607 -0.398116
-16.191730 4.573146 -0.005025
-16.175879 4.574613 0.387461
-16.153076 4.573987 0.782308
-16.132084 4.570786 1.174107
-16.126318 4.575270 1.567786
-16.115179 4.578158 1.965315
-16.090668 4.573843 2.359472
-16.084747 4.578301 2.758424
-16.080519 4.583257 3.163608
-0.427142 -0.204041 -0.278230
-0.439565 -0.200048 -0.271611
-3.283175 0.674680 -1.837786
-3.455963 0.729181 -1.826876
-3.678022 0.799017 -1.833048
-3.912773 0.872178 -1.834218
-4.149183 0.946759 -1.824906
-4.421279 1.032529 -1.818024
-4.739971 1.132068 -1.816674
-4.895822 1.182209 -1.742563
-4.976336 1.209103 -1.636490
-5.280617 1.304599 -1.596002
-5.670331 1.427808 -1.564797
-6.137991 1.574427 -1.533179
-6.675557 1.744276 -1.495986
-7.242543 1.923714 -1.438922
-7.974200 2.115369 -1.379742
-8.986387 2.428191 -1.329974
-10.394602 2.865265 -1.277907
-10.481505 2.896117 -1.031209
-11.366238 3.171123 -0.839241
-16.209759 4.671548 -0.796196
-16.200018 4.674855 -0.398730
-16.180368 4.671986 -0.005039
-16.156860 4.670997 0.387675
-16.145538 4.673764 0.783320
-16.128349 4.671617 1.175910
-16.116770 4.674319 1.569631
-16.109385 4.678293 1.968090
-16.084799 4.673847 2.362801
-16.075029 4.677057 2.761653
-16.061308 4.679051 3.165441
-0.431292 -0.199702 -0.281277
-0.447093 -0.194576 -0.276493
-3.272230 0.692321 -1.834967
-3.449771 0.749391 -1.826871
-3.667976 0.819418 -1.831334
-3.914454 0.897771 -1.838277
-4.138215 0.969839 -1.823363
-4.411542 1.057737 -1.817294
-4.729644 1.159101 -1.815989
-4.897838 1.214133 -1.746397
-4.974627 1.240377 -1.638867
-5.254588 1.330079 -1.591048
-5.652707 1.458415 -1.562775
-6.149141 1.617143 -1.538702
-6.667203 1.784190 -1.496818
-7.244392 1.970482 -1.441881
-7.933580 2.153315 -1.375221
-9.011894 2.493274 -1.336084
-10.353252 2.918255 -1.275145
-10.515911 2.973485 -1.036395
-11.056591 3.145779 -0.818194
-16.214943 4.775966 -0.797879
-16.184244 4.772610 -0.399072
-16.176071 4.773229 -0.005050
-16.144928 4.769713 0.388078
-16.137373 4.773630 0.784332
-16.116364 4.770174 1.177151
-16.102852 4.772193 1.571101
-16.097273 4.776744 1.970167
-16.078337 4.773931 2.366129
-16.068468 4.777070 2.765532
-16.054649 4.778952 3.169873
-0.423949 -0.198987 -0.277188
-0.434659 -0.195407 -0.269630
-3.264586 0.710924 -1.834023
-3.445170 0.770108 -1.827762
-3.654377 0.838636 -1.827910
-3.907296 0.920609 -1.838273
-4.130635 0.993968 -1.823359
-4.398130 1.081724 -1.815112
-4.719167 1.186063 -1.815304
-4.896047 1.244966 -1.748953
-4.960022 1.267560 -1.637081
-5.241264 1.359442 -1.589947
-5.655161 1.495442 -1.566314
-6.119285 1.646847 -1.534101
-6.669769 1.827712 -1.500140
-7.223508 2.010069 -1.440407
-7.900313 2.193278 -1.371993
-9.001103 2.547275 -1.336924
-10.315415 2.972098 -1.272846
-10.483416 3.030050 -1.035112
0.000564 -0.334673 -0.013173
-16.213785 4.878749 -0.799286
-16.169785 4.870964 -0.399459
-16.167322 4.873381 -0.005063
-16.141899 4.871538 0.388718
-16.124805 4.872330 0.785155
-16.109461 4.870617 1.178813
-16.099697 4.873764 1.573692
-16.088367 4.876422 1.972709
-16.065619 4.872264 2.368619
-16.048159 4.872901 2.767134
-16.045477 4.878365 3.173933
-0.431346 -0.193560 -0.282273
-0.437167 -0.191497 -0.271576
-3.258498 0.730040 -1.834018
-3.440438 0.790819 -1.828654
-3.647570 0.859975 -1.827906
-3.889364 0.940671 -1.833394
-4.122902 1.018067 -1.823356
-4.398739 1.110271 -1.818742
-4.710058 1.214361 -1.815302
-4.888668 1.274049 -1.749590
-4.943460 1.294030 -1.634701
-5.231122 1.390832 -1.589946
-5.613297 1.517987 -1.557719
-6.072289 1.671859 -1.525359
-6.647528 1.864504 -1.498068
-7.235597 2.061856 -1.445582
-7.879994 2.237224 -1.371028
-8.916063 2.578814 -1.326945
-10.275428 3.024983 -1.270315
-10.596338 3.134067 -1.048061
-10.914646 3.242543 -0.810875
-16.221445 4.984828 -0.801154
-16.164232 4.972438 -0.400074
-16.157022 4.976431 -0.005077
-16.130650 4.970980 0.389168
-16.121111 4.974193 0.786449
-16.101030 4.973939 1.180474
-16.087412 4.975782 1.575535
-16.078831 4.976185 1.975251
-16.060762 4.976550 2.372505
-16.045076 4.977680 2.771988
-16.037590 4.978429 3.178364
-0.430499 -0.190671 -0.282261
-0.439616 -0.187471 -0.273522
-3.257149 0.751355 -1.836827
-3.426918 0.809270 -1.825063
-3.643845 0.883066 -1.829611
-3.879978 0.963485 -1.832578
-4.113066 1.042232 -1.822583
-4.388336 1.136062 -1.818014
-4.695438 1.240811 -1.813251
-4.886209 1.305776 -1.752146
-4.922853 1.320004 -1.631131
-5.222596 1.422794 -1.590496
-5.593015 1.548519 -1.555192
-6.095324 1.719983 -1.534104
-6.638076 1.905478 -1.498901
-7.182141 2.091864 -1.437829
-7.845875 2.278018 -1.367801
-8.934330 2.643882 -1.332224
-10.251553 3.084954 -1.269865
-10.569900 3.195318 -1.047519
0.000551 -0.334035 -0.013147
-16.219915 5.091455 -0.802655
-16.159004 5.077472 -0.400736
-16.146091 5.079524 -0.005092
-16.125410 5.075847 0.389806
-16.100697 5.073901 0.786989
-16.088173 5.076067 1.181854
-16.074492 5.077837 1.577377
-16.069639 5.079434 1.978024
-16.049614 5.079047 2.375552
-16.035702 5.080716 2.775865
-16.022551 5.079494 3.181680
-0.426402 -0.188961 -0.280210
-0.435463 -0.185730 -0.271553
-3.244163 0.768143 -1.833069
-3.427059 0.831607 -1.828645
-3.636758 0.904375 -1.829607
-3.872677 0.985457 -1.832574
-4.108554 1.067426 -1.824119
-4.386845 1.164053 -1.820917
-4.690133 1.268546 -1.814615
-4.885659 1.337275 -1.755342
-4.920466 1.351136 -1.633508
-5.227262 1.457241 -1.594898
-5.583914 1.581652 -1.555697
-6.019331 1.732205 -1.517998
-6.640266 1.947930 -1.502222
-7.164753 2.130998 -1.437094
-7.836313 2.325390 -1.368776
-8.898808 2.687694 -1.329458
-10.218507 3.139812 -1.268258
-10.507921 3.242352 -1.043464
-10.995487 3.410483 -0.819906
-16.214886 5.194122 -0.803971
-16.146494 5.177235 -0.401215
-16.134533 5.176412 -0.005106
-16.111034 5.174768 0.390208
-16.090071 5.174000 0.788000
-16.080355 5.173930 1.183516
-16.068506 5.176259 1.579781
-16.062618 5.180623 1.981032
-16.039730 5.176023 2.378601
-16.022007 5.176308 2.778768
-16.017113 5.180997 3.186854
-0.433698 -0.183375 -0.285296
-0.469210 -0.170919 -0.292097
-3.231079 0.784825 -1.829312
-3.416891 0.850494 -1.826846
-3.626168 0.924419 -1.827893
-3.865010 1.008065 -1.832570
-4.091708 1.088349 -1.820267
-4.371089 1.187181 -1.818008
-4.680816 1.295864 -1.814613
-4.881326 1.367573 -1.757258
-4.910673 1.379776 -1.633507
-5.200531 1.481927 -1.589944
-5.591054 1.620487 -1.560754
-6.025715 1.773574 -1.522602
-6.612235 1.981294 -1.498906
-7.152304 2.173185 -1.437467
-7.800341 2.363713 -1.365225
-8.890610 2.742460 -1.330852
-10.183319 3.193722 -1.266421
-10.553014 3.325960 -1.049945
-10.904005 3.449867 -0.814792
-16.205414 5.295619 -0.805103
-16.139038 5.279001 -0.401831
-16.125196 5.277457 -0.005120
-16.103588 5.276345 0.390799
-16.084486 5.276122 0.789293
-16.074749 5.275975 1.185457
-16.062838 5.278227 1.582370
-16.051220 5.280588 1.983573
-16.018957 5.272564 2.380252
-16.014235 5.277300 2.782970
-16.009212 5.281933 3.191654
-0.431214 -0.181133 -0.284265
-3.077234 0.751173 -1.844563
-3.224587 0.803734 -1.829307
-3.404958 0.868689 -1.824152
-3.617158 0.945002 -1.827034
-3.855511 1.030001 -1.831754
-4.092149 1.115293 -1.824113
-4.360507 1.212023 -1.817279
-4.671354 1.323117 -1.814611
-4.878592 1.398515 -1.759815
-4.898929 1.407708 -1.632911
-5.199037 1.515401 -1.592695
-5.581536 1.653622 -1.561260
-5.993302 1.801390 -1.517541
-6.600631 2.020323 -1.499323
-7.135899 2.213996 -1.437102
-7.779100 2.406943 -1.364261
-8.852190 2.786703 -1.327809
-10.151603 3.248663 -1.265046
-10.413465 3.345217 -1.038311
-10.957266 3.539536 -0.820348
-16.195330 5.397178 -0.806234
-16.127192 5.379518 -0.402357
-16.109579 5.376577 -0.005136
-16.097401 5.378682 0.391437
-16.074516 5.377007 0.790397
-16.064739 5.376809 1.187118
-16.037746 5.373658 1.583092
-16.046694 5.383270 1.987046
-16.025585 5.379025 2.386092
-16.003963 5.377731 2.786847
-15.993262 5.380332 3.194971
-0.433569 -0.177161 -0.286292
-3.059451 0.765070 -1.837706
-3.211327 0.820229 -1.825549
-3.397983 0.888599 -1.824147
-3.609715 0.966154 -1.827030
-3.845878 1.051884 -1.830938
-4.078511 1.137297 -1.821800
-4.351534 1.237433 -1.817277
-4.659983 1.349662 -1.813927
-4.873872 1.428848 -1.761731
-4.879830 1.432981 -1.629936
-5.181076 1.543014 -1.590493
-5.577281 1.688690 -1.563283
-5.984574 1.837516 -1.518463
-6.555711 2.047264 -1.492273
-7.139574 2.262097 -1.440800
-7.750180 2.447363 -1.362003
-8.824756 2.834610 -1.326430
-10.128940 3.306718 -1.264826
-10.512037 3.448592 -1.050154
-10.983604 3.620456 -0.823964
-16.184605 5.498812 -0.807367
-16.118471 5.481451 -0.402974
-16.106533 5.480447 -0.005147
-16.090567 5.481134 0.392074
-16.065773 5.478665 0.791595
-16.054092 5.477722 1.188778
-16.032707 5.476428 1.585868
-16.035908 5.484060 1.989820
-16.001743 5.474930 2.387463
-15.993055 5.478241 2.790725
-15.984115 5.481411 3.199771
-0.432662 -0.174336 -0.286280
-3.056352 0.784193 -1.839658
-3.199667 0.837196 -1.822730
-3.384189 0.906000 -1.820557
-3.600496 0.986603 -1.826171
-3.834153 1.073752 -1.829309
-4.066512 1.159812 -1.820257
-4.344181 1.263421 -1.818001
-4.653427 1.378920 -1.815292
-4.870756 1.459830 -1.764288
-4.883925 1.466646 -1.634694
-5.175256 1.576051 -1.592144
-5.471144 1.686273 -1.536992
-5.971582 1.873318 -1.518465
-6.594697 2.106115 -1.504309
-7.083508 2.289718 -1.432679
-7.735898 2.492949 -1.362332
-8.826271 2.894719 -1.329490
-10.096609 3.361228 -1.263451
-10.598541 3.549119 -1.060889
-11.585632 3.915262 -0.870268
-16.173264 5.600503 -0.808500
-16.109119 5.583469 -0.403591
-16.090540 5.583138 -0.005164
-16.073698 5.580253 0.392475
-16.056423 5.580389 0.792792
-16.039919 5.580811 1.190296
-16.025984 5.582131 1.588642
-16.018915 5.582841 1.991893
-15.994870 5.580407 2.391625
-15.984218 5.582954 2.795250
-15.976164 5.583268 3.204943
-0.441384 -0.167838 -0.292385
-3.049670 0.802632 -1.839653
-3.192660 0.856493 -1.822725
-3.386824 0.930132 -1.825932
-3.592586 1.008282 -1.826167
-3.825984 1.096137 -1.829306
-4.059329 1.184867 -1.821025
-4.336361 1.290161 -1.818726
-4.645258 1.406670 -1.815974
-4.863586 1.490351 -1.765566
-4.878517 1.497938 -1.636477
-5.176775 1.610880 -1.595997
-5.515218 1.740124 -1.552666
-5.984292 1.917579 -1.524909
-6.580541 2.144378 -1.504312
-7.117934 2.349517 -1.442657
-7.733788 2.544634 -1.364925
-8.768550 2.931320 -1.323673
-10.057759 3.415154 -1.261384
-10.398067 3.546148 -1.043339
-11.342249 3.900646 -0.854067
-16.156498 5.703678 -0.809449
-16.094343 5.686976 -0.404118
-16.088045 5.687952 -0.005174
-16.066418 5.686378 0.393158
-16.049109 5.686420 0.794177
-16.035505 5.684615 1.192517
-16.014027 5.683067 1.590856
-16.007717 5.687205 1.994898
-15.984650 5.681833 2.395230
-15.975748 5.684984 2.799776
-15.966525 5.688010 3.210113
-0.435616 -0.166810 -0.289315
-3.028411 0.814933 -1.830838
-3.187413 0.875808 -1.823658
-3.374488 0.948031 -1.823238
-3.586499 1.029913 -1.827018
-3.815992 1.117815 -1.828490
-4.043608 1.205932 -1.817942
-4.333919 1.318074 -1.821630
-4.631649 1.432379 -1.814606
-4.863626 1.522711 -1.769401
-4.866128 1.525630 -1.635882
-5.152937 1.636171 -1.592144
-5.515835 1.777020 -1.556206
-5.940318 1.940519 -1.517087
-6.557032 2.179061 -1.502241
-7.104225 2.391476 -1.443031
-7.748469 2.601332 -1.370428
-8.749624 2.982076 -1.323681
-10.032305 3.471924 -1.260934
-10.463065 3.639505 -1.052041
-11.252409 3.941427 -0.849231
-16.155090 5.809722 -0.811136
-16.085558 5.789865 -0.404781
-16.073669 5.788663 -0.005190
-16.057636 5.789118 0.393795
-16.030985 5.785487 0.794998
-16.026663 5.787179 1.194457
-16.005148 5.785493 1.593444
-15.998755 5.789576 1.998138
-15.971946 5.782622 2.398555
-15.962945 5.785703 2.803652
-15.959121 5.790756 3.215655
-0.439469 -0.162117 -0.292362
-3.026642 0.834554 -1.833769
-3.175465 0.892556 -1.820839
-3.362038 0.965853 -1.820543
-3.575237 1.049552 -1.825305
-3.805866 1.139439 -1.827674
-4.041569 1.232182 -1.821019
-4.320876 1.341977 -1.820175
-4.621415 1.459344 -1.814604
-4.861700 1.554437 -1.772597
-4.862453 1.556726 -1.638260
-5.134334 1.663367 -1.589942
-5.485577 1.802048 -1.551151
-5.945280 1.982066 -1.521692
-6.485945 2.195094 -1.489381
-7.099401 2.436961 -1.445252
-7.727778 2.644798 -1.369787
-8.739624 3.036304 -1.325077
-10.000947 3.526403 -1.259790
-10.445595 3.702173 -1.052608
-10.684155 3.796536 -0.808773
-16.143673 5.912359 -0.812362
-16.079872 5.894279 -0.405536
-16.067987 5.893023 -0.005202
-16.042627 5.889772 0.394289
-16.034603 5.893219 0.796947
-16.017212 5.889809 1.196396
-15.995637 5.888003 1.596031
-15.985457 5.890590 2.000910
-15.962293 5.884916 2.402438
-15.955028 5.888627 2.808502
-15.951068 5.893615 3.221196
-0.454519 -0.152998 -0.302544
-3.018232 0.851670 -1.832785
-3.171652 0.912434 -1.822710
-3.357855 0.986807 -1.822332
-3.563838 1.069136 -1.823591
-3.800733 1.162992 -1.829296
-4.025624 1.253052 -1.817936
-4.300759 1.363063 -1.815813
-4.609276 1.485561 -1.813920
-4.854284 1.584116 -1.773875
-4.855053 1.586420 -1.639450
-5.124565 1.693915 -1.590493
-5.483995 1.838199 -1.554186
-5.899287 2.003694 -1.513409
-6.493098 2.241392 -1.494364
-7.083330 2.478135 -1.445256
-7.719697 2.693179 -1.371410
-8.685039 3.073178 -1.319814
-9.963768 3.578458 -1.257953
-10.364732 3.740020 -1.046890
-10.617497 3.841540 -0.805598
-16.131611 6.015067 -0.813588
-16.066082 5.995893 -0.406109
-16.057920 5.996055 -0.005216
-16.041870 5.996334 0.395161
-16.022646 5.995330 0.798143
-16.001526 5.990348 1.197914
-15.987348 5.991323 1.598805
-15.982614 5.996035 2.005080
-15.957537 5.989473 2.407158
-15.948306 5.992375 2.813678
-15.936860 5.994433 3.225625
-0.479057 -0.139867 -0.318843
-3.001649 0.865480 -1.826906
-3.161142 0.929705 -1.820829
-3.351864 1.007113 -1.823224
-3.555712 1.089961 -1.823587
-3.786721 1.183792 -1.826855
-4.019865 1.277899 -1.819474
-4.289194 1.387437 -1.815084
-4.601918 1.514587 -1.815285
-4.860765 1.619414 -1.780268
-4.858109 1.620360 -1.644208
-5.116023 1.726047 -1.591594
-5.471412 1.870065 -1.554187
-5.867269 2.031716 -1.508809
-6.468645 2.276540 -1.492293
-7.053778 2.515288 -1.442676
-7.707634 2.740115 -1.372387
-8.615020 3.105160 -1.312332
-9.941089 3.636097 -1.257965
-10.403994 3.825082 -1.053189
0.000549 -0.330778 -0.013021
-16.118902 6.117845 -0.814815
-16.059071 6.100542 -0.406864
-16.049812 6.103450 -0.005230
-16.029305 6.098610 0.395749
-16.017452 6.100497 0.799715
-15.997059 6.098908 1.200413
-15.979109 6.098307 1.601764
-15.971708 6.098699 2.008318
-15.943625 6.094013 2.410761
-15.939776 6.099058 2.818852
-15.927514 6.097474 3.231165
-0.519382 -0.119908 -0.345337
-2.989643 0.881630 -1.823964
-3.148695 0.946771 -1.818010
-3.340538 1.025969 -1.821427
-3.545812 1.110041 -1.822729
-3.781316 1.207277 -1.828477
-3.999997 1.297863 -1.814851
-4.279216 1.412444 -1.815082
-4.589458 1.540685 -1.814601
-4.854716 1.649845 -1.782186
-4.853862 1.651516 -1.646587
-5.100530 1.754347 -1.590493
-5.465800 1.904801 -1.556210
-5.866160 2.070962 -1.512033
-6.450364 2.311464 -1.491466
-7.065063 2.566135 -1.448222
-7.656371 2.772760 -1.366573
-8.543704 3.134193 -1.304572
-9.910009 3.692350 -1.257053
-10.502743 3.937310 -1.065590
-11.386784 4.298913 -0.867034
-16.115507 6.228017 -0.816596
-16.053251 6.206063 -0.407666
-16.043974 6.208937 -0.005242
-16.011236 6.202247 0.396242
-16.004196 6.202786 0.800911
-15.983779 6.201072 1.202212
-15.976129 6.201345 1.605098
-15.962000 6.202189 2.011789
-15.935706 6.198057 2.415201
-15.931023 6.199530 2.823703
-15.913879 6.199122 3.235963
-0.546853 -0.104910 -0.363675
-2.981213 0.897966 -1.822980
-3.144779 0.966003 -1.819881
-3.334577 1.045593 -1.822319
-3.537693 1.130159 -1.822724
-3.765908 1.225907 -1.825223
-3.995946 1.322624 -1.817158
-4.274583 1.438769 -1.817260
-4.577203 1.565886 -1.813917
-4.850585 1.680148 -1.784743
-4.847998 1.681118 -1.648371
-5.092357 1.784598 -1.591594
-5.433570 1.927452 -1.550649
-5.874224 2.112975 -1.517558
-6.435503 2.347772 -1.491469
-7.048773 2.605871 -1.448227
-7.651682 2.821065 -1.368843
-8.573652 3.202562 -1.312072
-9.880042 3.744925 -1.256141
-10.686750 4.082093 -1.086497
-10.831511 4.144140 -0.827265
-16.098940 6.326632 -0.817638
-16.038656 6.305123 -0.408239
-16.036772 6.311007 -0.005255
-16.007750 6.305678 0.397067
-15.998829 6.305404 0.802483
-15.974694 6.302038 1.204291
-15.959641 6.299192 1.607124
-15.950947 6.302243 2.015027
-15.924591 6.297945 2.419083
-15.923463 6.300867 2.828878
-15.909819 6.301846 3.242618
-0.558242 -0.096115 -0.371819
-2.969267 0.913421 -1.820038
-3.145421 0.987821 -1.824567
-3.320002 1.062338 -1.818729
-3.527306 1.150746 -1.821866
-3.753244 1.247132 -1.823594
-3.982969 1.344498 -1.815616
-4.258863 1.462258 -1.815078
-4.567602 1.594071 -1.814599
0.000548 -0.329796 -0.012983
-4.843019 1.713143 -1.650750
-5.079715 1.815108 -1.591594
-5.420092 1.959970 -1.550650
-5.857824 2.147367 -1.517100
-6.388400 2.374393 -1.484419
-7.005365 2.638470 -1.443061
-7.638871 2.867694 -1.369820
-8.568992 3.260583 -1.314579
-9.847260 3.798242 -1.254998
-10.563839 4.103058 -1.076711
-10.721986 4.173903 -0.821042
-16.095341 6.434268 -0.819420
-16.035864 6.416013 -0.409178
-16.024721 6.418035 -0.005270
-15.991373 6.407415 0.397607
-15.981284 6.409857 0.803582
-15.968127 6.411035 1.206790
-15.951859 6.410852 1.610455
-15.940585 6.409494 2.018729
-15.925099 6.409654 2.425198
-15.917192 6.412977 2.835026
-15.900942 6.409524 3.248899
-0.561584 -0.090449 -0.374866
-2.969866 0.934749 -1.824928
-3.131043 1.004016 -1.820810
-3.313308 1.083054 -1.819621
-3.513462 1.169850 -1.819298
-3.745764 1.269774 -1.824404
-3.971266 1.367698 -1.814844
-4.244739 1.486345 -1.813624
-4.558169 1.621411 -1.815281
-4.840320 1.744191 -1.789858
-4.841331 1.746691 -1.654320
-5.069045 1.845409 -1.592145
-5.388626 1.984781 -1.545595
-5.847045 2.182912 -1.518023
-6.358339 2.405281 -1.481103
-6.986341 2.678319 -1.442696
-7.599783 2.904791 -1.366270
-8.489858 3.285366 -1.305709
-9.813438 3.853041 -1.253855
-10.398131 4.106607 -1.062673
-10.725237 4.248430 -0.823275
-16.080631 6.540980 -0.820741
-16.019464 6.521583 -0.409800
-16.005825 6.519192 -0.005289
-15.984198 6.516684 0.398429
-15.963031 6.514358 0.804682
-15.960233 6.516568 1.209148
-15.943891 6.516292 1.613600
-15.925867 6.515276 2.021964
-15.920606 6.516445 2.430475
-15.892587 6.511126 2.837599
-15.891369 6.517307 3.255180
-0.555467 -0.088946 -0.371796
-2.956125 0.949391 -1.821007
-3.115195 1.018851 -1.816115
-3.300195 1.100304 -1.816927
-3.506430 1.191096 -1.820149
-3.736486 1.291646 -1.824401
-3.959726 1.390135 -1.814071
-4.232491 1.510349 -1.812895
-4.543421 1.646441 -1.813914
-4.835233 1.775391 -1.792415
-4.834550 1.777144 -1.656104
-5.040573 1.867972 -1.587192
-5.384066 2.019978 -1.548125
-5.832484 2.216862 -1.518025
-6.346071 2.443743 -1.481937
-6.981511 2.724338 -1.445288
-7.562910 2.940999 -1.363043
-8.477968 3.338472 -1.307105
-9.778246 3.905079 -1.252481
-10.419917 4.187332 -1.067495
-10.658414 4.292993 -0.820240
-16.075630 6.648906 -0.822523
-16.007257 6.626000 -0.410511
-15.997289 6.625148 -0.005302
-15.983020 6.625696 0.399393
-15.961834 6.623246 0.806628
-15.946139 6.619869 1.211085
-15.935222 6.621878 1.616745
-15.917130 6.620732 2.025900
-15.911774 6.621831 2.435193
-15.889091 6.618694 2.844073
-15.882287 6.622447 3.261462
-0.541480 -0.090965 -0.363630
-2.953505 0.968818 -1.823939
-3.113857 1.039926 -1.819863
-3.295184 1.121044 -1.818716
-3.497615 1.211588 -1.820146
-3.723745 1.311986 -1.822772
-3.954826 1.415463 -1.816379
-4.228650 1.538020 -1.815800
-4.535386 1.674434 -1.815279
-4.824781 1.804276 -1.793055
-4.832829 1.809898 -1.659674
-5.045413 1.905076 -1.592696
-5.382823 2.056765 -1.551666
-5.821280 2.252311 -1.518948
-6.353251 2.490878 -1.487336
-6.988956 2.775992 -1.450466
-7.534917 2.980856 -1.361433
-8.429509 3.375606 -1.302952
-9.744621 3.957632 -1.251339
-10.517672 4.302161 -1.080083
-10.998625 4.516284 -0.848122
-16.066242 6.755409 -0.824121
-15.998032 6.732127 -0.411314
-15.989911 6.732028 -0.005315
-15.966457 6.728484 0.399980
-15.952586 6.729132 0.808198
-15.940510 6.727276 1.213724
-15.922247 6.725957 1.619516
-15.905904 6.725500 2.029602
-15.902239 6.727360 2.439911
-15.877675 6.723238 2.849246
-15.870726 6.726912 3.267371
-0.547958 -0.084020 -0.368716
-2.944395 0.985411 -1.822955
-3.104310 1.057436 -1.818920
-3.283513 1.138862 -1.816919
-3.483737 1.229809 -1.817577
-3.717587 1.335203 -1.824395
-3.944709 1.438538 -1.816376
-4.209306 1.558871 -1.812165
-4.520354 1.699294 -1.813912
-4.821038 1.836250 -1.796251
-4.836104 1.845062 -1.665028
-5.053506 1.943881 -1.599302
-5.356655 2.082477 -1.548128
-5.808087 2.286924 -1.519411
-6.317270 2.518915 -1.482774
-6.969172 2.815700 -1.450102
-7.530147 3.030954 -1.364027
-8.379096 3.411499 -1.298522
-9.716146 4.012385 -1.250889
-10.329027 4.290629 -1.063640
-10.349486 4.302038 -0.800859
-16.059826 6.863655 -0.825904
-15.989942 6.839199 -0.412163
-15.981834 6.839054 -0.005329
-15.954735 6.833753 0.400707
-15.942656 6.835138 0.809768
-15.923281 6.829913 1.215519
-15.908579 6.830145 1.622287
-15.895800 6.831194 2.033536
-15.892042 6.832987 2.444628
-15.869183 6.829504 2.855068
0.000544 -0.328499 -0.012932
-0.549676 -0.079122 -0.370743
-2.932000 1.000521 -1.820013
-3.099483 1.077081 -1.820792
-3.283156 1.161754 -1.821398
-3.476358 1.250908 -1.818429
-3.699309 1.353793 -1.820329
-3.937826 1.463078 -1.817914
-4.201766 1.584940 -1.813617
-4.508243 1.726400 -1.813912
-4.811938 1.865873 -1.797530
-4.830453 1.876372 -1.667408
-5.034688 1.971750 -1.597652
-5.332123 2.108781 -1.545095
-5.748217 2.301422 -1.507907
-6.280702 2.547707 -1.478214
-6.952185 2.858134 -1.450478
-7.478321 3.059921 -1.358213
-8.354953 3.460658 -1.298254
-9.678314 4.062854 -1.249285
-10.374782 4.383300 -1.071052
-10.507110 4.447891 -0.815017
-16.045410 6.968763 -0.827318
-15.981148 6.946411 -0.413013
-15.968139 6.947362 -0.005345
-15.945986 6.940763 0.401529
-15.935660 6.942932 0.811525
-15.915009 6.940348 1.218156
-15.898435 6.939641 1.625616
-15.883194 6.936187 2.037238
-15.874485 6.939033 2.448507
-15.855133 6.937037 2.860240
0.000537 -0.328180 -0.012919
-0.556000 -0.071939 -0.375829
-2.928832 1.020389 -1.822946
-3.087875 1.094296 -1.818911
-3.264518 1.177038 -1.816015
-3.467186 1.271243 -1.818425
-3.689563 1.375389 -1.820326
-3.915392 1.481319 -1.812522
-4.185613 1.607075 -1.811436
-4.503152 1.755814 -1.816644
-4.799233 1.893861 -1.797530
-4.824602 1.907692 -1.669788
-5.021356 2.001032 -1.597653
-5.332023 2.146304 -1.549142
-5.762983 2.348745 -1.515735
-6.262762 2.582242 -1.477803
-6.898620 2.880670 -1.443094
-7.445523 3.098794 -1.355957
-8.359985 3.521457 -1.302426
-9.644868 4.117208 -1.248374
-10.373768 4.457616 -1.073841
-10.359854 4.453482 -0.805881
-16.030859 7.077565 -0.828826
-15.973472 7.054592 -0.413908
-15.958638 7.054656 -0.005359
-15.938852 7.052394 0.402444
-15.920710 7.047514 0.812906
-15.905461 7.047326 1.220653
-15.888298 7.042904 1.628760
-15.878943 7.045430 2.042104
-15.870091 7.048197 2.454341
-15.848319 7.041608 2.866387
-13.296568 5.860858 2.756958
-0.537406 -0.076510 -0.364604
-2.916497 1.034850 -1.820004
-3.073495 1.108839 -1.815154
-3.262522 1.198613 -1.819597
-3.453017 1.289196 -1.815858
-3.686309 1.400034 -1.823574
-3.900204 1.501136 -1.810209
-4.172704 1.630686 -1.810707
-4.475772 1.774837 -1.810494
-4.786349 1.921793 -1.797531
-4.811643 1.935767 -1.669788
-4.999166 2.026136 -1.594901
-5.301933 2.169870 -1.544592
-5.714022 2.366443 -1.506992
-6.247166 2.620495 -1.478223
-6.911454 2.936979 -1.449750
-7.433437 3.143970 -1.357257
-8.319734 3.561476 -1.299661
-9.614485 4.168809 -1.247693
-10.343278 4.514105 -1.073486
-10.409835 4.549790 -0.811858
-16.030853 7.186808 -0.830979
-15.959656 7.160375 -0.414667
-15.946644 7.161208 -0.005375
-15.929958 7.156930 0.403266
-15.906907 7.153008 0.814380
-15.895205 7.154443 1.223150
-15.874915 7.151807 1.631902
-15.866761 7.151495 2.046038
-15.838083 7.144893 2.455986
-15.838221 7.151866 2.872533
-15.828392 7.150734 3.293234
-0.531255 -0.075222 -0.361535
-2.903651 1.050194 -1.817062
-3.064905 1.127384 -1.815150
-3.253416 1.218260 -1.819593
-3.448255 1.312312 -1.818419
-3.676313 1.421543 -1.823572
-3.894290 1.526944 -1.812517
-4.162679 1.656547 -1.811433
-4.460189 1.799289 -1.809127
-4.769509 1.948832 -1.796252
-4.815353 1.972833 -1.675738
-5.009805 2.066826 -1.602609
-5.281792 2.199096 -1.543078
-5.737046 2.418103 -1.517121
-6.212432 2.648306 -1.474077
-6.919137 2.989785 -1.455299
-7.426967 3.195112 -1.359852
-8.264976 3.594378 -1.294675
-9.578669 4.221837 -1.246551
-10.452868 4.641536 -1.087742
-11.197797 4.998144 -0.874689
-16.018446 7.297587 -0.832672
-15.947431 7.270755 -0.415519
-15.939361 7.270463 -0.005388
-15.914146 7.265423 0.403991
-15.896477 7.263965 0.816136
-15.886068 7.262527 1.225787
-15.871105 7.262335 1.635978
-15.854352 7.261285 2.050204
-15.837658 7.256848 2.462656
-15.826935 7.258634 2.878354
-15.817408 7.261015 3.300255
-0.546850 -0.063633 -0.372738
-2.900372 1.069497 -1.819994
-3.058079 1.146087 -1.816084
-3.238025 1.234181 -1.816003
-3.439054 1.331857 -1.818415
-3.666165 1.443022 -1.823569
-3.881884 1.548860 -1.811745
-4.144839 1.676827 -1.808524
-4.449544 1.826095 -1.809809
-4.758419 1.976590 -1.796892
-4.811022 2.004177 -1.678713
-5.002845 2.099325 -1.604811
-5.258896 2.224654 -1.540550
-5.714132 2.448025 -1.515283
-6.199242 2.684981 -1.474911
-6.863381 3.010648 -1.447545
-7.376322 3.223602 -1.354362
-8.236905 3.639653 -1.293852
-9.550533 4.276376 -1.246333
-10.388198 4.684680 -1.084059
0.000555 -0.326861 -0.012869
-16.001251 7.403079 -0.834087
-15.937161 7.375680 -0.416369
-15.933139 7.380762 -0.005401
-15.907960 7.375565 0.404953
-15.889807 7.370364 0.817986
-15.877985 7.371643 1.228563
-15.855355 7.364214 1.638747
-15.854613 7.370867 2.055770
-15.822225 7.362115 2.467093
-15.819804 7.364512 2.884827
-15.804817 7.364199 3.306535
-0.553101 -0.056483 -0.377824
-2.892533 1.085989 -1.819989
-3.048199 1.162707 -1.815141
-3.229247 1.252571 -1.815999
-3.422935 1.348789 -1.814992
-3.647714 1.460401 -1.819503
-3.864718 1.567581 -1.808663
-4.134905 1.701804 -1.809250
-4.433695 1.850351 -1.808442
-4.748481 2.005943 -1.798171
-4.806079 2.036385 -1.681688
-4.974994 2.121621 -1.600409
-5.257987 2.262072 -1.544597
-5.699789 2.482082 -1.515746
-6.175983 2.719452 -1.473670
-6.880471 3.069906 -1.455311
-7.335099 3.254671 -1.350488
-8.183664 3.672572 -1.289145
-9.519315 4.327353 -1.245653
-10.343939 4.735077 -1.082409
-10.671637 4.900127 -0.838808
-15.990136 7.508455 -0.835779
-15.928430 7.485280 -0.417311
-15.920816 7.488571 -0.005417
-15.904165 7.484017 0.405963
-15.881079 7.479700 0.819835
-15.862036 7.477377 1.230778
-15.845156 7.476100 1.642448
-15.838527 7.476430 2.059469
-15.814996 7.471825 2.472924
-15.796899 7.469937 2.889021
-15.797287 7.473691 3.314298
-0.539158 -0.058991 -0.369657
-2.877833 1.100366 -1.816069
-3.034566 1.178730 -1.812322
-3.223018 1.273619 -1.817788
-3.414549 1.370199 -1.815845
-3.640302 1.483978 -1.821125
-3.855072 1.591615 -1.809431
-4.119456 1.724969 -1.807795
-4.422381 1.877782 -1.809126
-4.734548 2.034407 -1.798172
-4.814193 2.076257 -1.689424
-4.956946 2.149695 -1.599309
-5.259847 2.302193 -1.549657
-5.658664 2.503978 -1.509305
-6.145561 2.750230 -1.470770
-6.851400 3.106604 -1.453470
-7.280106 3.281816 -1.344351
-8.170438 3.726665 -1.290820
-9.477297 4.377014 -1.243818
-10.315513 4.797567 -1.082611
-10.729770 5.008087 -0.845759
-15.955883 7.609755 -0.836458
-15.921179 7.599585 -0.418347
-15.908171 7.600184 -0.005433
-15.891551 7.595517 0.406829
-15.872011 7.592866 0.821777
-15.860066 7.593983 1.234255
-15.832436 7.587220 1.645962
-15.827502 7.588359 2.064099
-15.807399 7.585376 2.479035
-15.790949 7.584197 2.896465
-15.782336 7.583496 3.320946
-0.539129 -0.054767 -0.370665
-2.869588 1.117228 -1.816064
-3.027418 1.197311 -1.813256
-3.207368 1.289263 -1.814198
-3.403109 1.389350 -1.814986
-3.628186 1.504416 -1.820310
-3.842311 1.613286 -1.808659
-4.105900 1.748157 -1.807067
-4.402923 1.900132 -1.806392
-4.717502 2.060244 -1.796893
0.000532 -0.325900 -0.012831
-4.946028 2.180275 -1.600411
-5.241168 2.331023 -1.548647
-5.650949 2.541250 -1.511610
-6.131218 2.787683 -1.471604
-6.854297 3.157908 -1.458280
-7.365007 3.377206 -1.363763
-8.148736 3.774868 -1.291107
-9.444721 4.429176 -1.243138
-10.335626 4.882314 -1.087805
-10.668571 5.054865 -0.843418
-15.904572 7.699142 -0.836213
-15.910957 7.709515 -0.419290
-15.899747 7.710946 -0.005448
-15.872423 7.700787 0.407506
-15.863586 7.703417 0.823720
-15.846236 7.701749 1.236749
-15.820329 7.695736 1.649476
-15.813536 7.695909 2.068264
-15.795135 7.693654 2.484308
-15.782090 7.694116 2.903260
-15.780337 7.696854 3.330193
-0.537524 -0.051259 -0.370654
-2.864074 1.136141 -1.818018
-3.016764 1.214756 -1.812314
-3.197717 1.308596 -1.814194
-3.391264 1.409007 -1.814128
-3.611084 1.522266 -1.817057
-3.830738 1.636369 -1.808657
-4.095190 1.773645 -1.807793
-4.388354 1.924918 -1.805709
-4.703239 2.088535 -1.796894
0.000548 -0.325560 -0.012818
-4.936633 2.211687 -1.602064
-5.221873 2.360624 -1.547638
-5.634332 2.574080 -1.511613
-6.106229 2.819680 -1.469949
-6.816649 3.188643 -1.454592
-7.351706 3.425642 -1.365389
-8.144376 3.831969 -1.294170
-9.414569 4.484555 -1.242921
-10.308100 4.945678 -1.088192
-10.381639 4.985679 -0.823464
-15.840652 7.785516 -0.835414
-15.893265 7.819596 -0.420098
-15.892343 7.822794 -0.005461
-15.865439 7.816144 0.408560
-15.851203 7.815993 0.825567
-15.831677 7.809631 1.239244
-15.812840 7.807073 1.653550
-15.804522 7.809929 2.073360
-15.775093 7.798428 2.488463
-15.772470 7.804206 2.910055
-15.769134 7.809611 3.337954
-0.538997 -0.046265 -0.372682
-2.860245 1.155348 -1.820950
-3.009403 1.233245 -1.813248
-3.191426 1.328953 -1.815984
-3.387625 1.432173 -1.817545
-3.602010 1.544190 -1.817867
-3.820995 1.659587 -1.809425
-4.081360 1.796674 -1.807065
-4.366975 1.946146 -1.802292
-4.694305 2.118523 -1.798813
-4.798621 2.174999 -1.698946
-4.927069 2.243050 -1.603716
-5.220044 2.398133 -1.551686
-5.622719 2.609501 -1.512997
-6.094962 2.858731 -1.471614
-6.803262 3.231810 -1.456076
-7.349253 3.478228 -1.368955
-8.107999 3.872741 -1.292238
-9.369075 4.529877 -1.240623
-10.344735 5.040131 -1.095237
-10.504950 5.125652 -0.835547
-15.775958 7.867718 -0.834523
-15.888659 7.933465 -0.421224
-15.880646 7.932964 -0.005477
-15.855534 7.927094 0.409520
-15.841247 7.926873 0.827509
-15.825258 7.922211 1.242440
-15.806355 7.919518 1.657809
-15.789094 7.917705 2.077525
-15.778967 7.916059 2.496527
-15.760368 7.913528 2.916524
-15.749887 7.915205 3.343859
-0.529758 -0.046830 -0.367573
-2.842412 1.167246 -1.815072
-2.998816 1.250048 -1.812306
-3.175528 1.344288 -1.812394
-3.371043 1.448611 -1.814122
-3.587949 1.563523 -1.816239
-3.804613 1.679290 -1.807113
-4.067427 1.819594 -1.806337
-4.355487 1.972454 -1.802975
-4.675122 2.143188 -1.796895
-4.799328 2.210951 -1.704301
-4.907092 2.269013 -1.602066
-5.207680 2.430293 -1.552699
-5.562717 2.619397 -1.501492
-6.073052 2.892283 -1.470788
-6.812172 3.286918 -1.462364
-7.306252 3.509809 -1.365081
-8.027555 3.890240 -1.283367
-9.333911 4.580391 -1.239712
-10.385935 5.137942 -1.102838
-10.256206 5.072113 -0.818504
-11.645100 5.808259 -0.621218
-15.876219 8.043796 -0.422169
-15.869963 8.044217 -0.005492
-15.841344 8.036333 0.410385
-15.830573 8.037881 0.829450
-15.809247 8.030328 1.244933
-15.790284 8.027515 1.661136
-15.781751 8.030201 2.082854
-15.753986 8.019191 2.500124
-15.744051 8.021132 2.922343
-15.738631 8.025454 3.351620
-0.517515 -0.049114 -0.360426
-2.832229 1.183095 -1.814088
-2.983452 1.264300 -1.808548
-3.168998 1.364569 -1.814183
-3.357579 1.466618 -1.812409
-3.585058 1.588793 -1.820300
-3.791371 1.700627 -1.806341
-4.050074 1.840673 -1.804156
-4.343831 1.998716 -1.803658
-4.667511 2.173972 -1.799454
-4.791373 2.242481 -1.706682
-4.893751 2.298475 -1.602618
-5.195134 2.462394 -1.553713
-5.538805 2.648031 -1.499654
-6.021686 2.909928 -1.462907
-6.799912 3.331070 -1.464219
-7.273605 3.546572 -1.363149
-8.006651 3.938582 -1.283932
-9.302008 4.632515 -1.239264
-10.305092 5.171760 -1.097675
-10.187978 5.111700 -0.815608
-11.630739 5.886833 -0.622347
-15.866555 8.156151 -0.423205
-15.855008 8.153725 -0.005509
-15.838745 8.152304 0.411581
-15.819133 8.149053 0.831391
-15.799568 8.142289 1.247987
-15.785796 8.142175 1.665768
-15.770115 8.141027 2.087717
-15.749290 8.133545 2.507070
-15.739175 8.135365 2.930436
-15.731823 8.138641 3.360494
-0.526507 -0.040080 -0.367551
-2.832709 1.204671 -1.819958
-2.972704 1.280931 -1.807606
-3.157651 1.382258 -1.813283
-3.351995 1.488811 -1.814971
-3.562405 1.604252 -1.814609
-3.774781 1.720108 -1.804029
-4.034258 1.862510 -1.802702
-4.331614 2.025675 -1.804341
-4.666376 2.208357 -1.804570
-4.788272 2.276718 -1.710848
-4.873034 2.325032 -1.600968
-5.172195 2.488896 -1.551692
-5.539867 2.691405 -1.504722
-6.071104 2.983366 -1.479514
-6.785011 3.375433 -1.465704
-7.266818 3.597158 -1.366068
-7.965535 3.977863 -1.281445
-9.271552 4.685385 -1.239047
-10.371362 5.284389 -1.108051
-10.922348 5.587376 -0.876242
-15.612722 8.129572 -0.833603
-15.852597 8.266781 -0.424150
-15.843112 8.268948 -0.005526
-15.828336 8.264679 0.412587
-15.806923 8.260385 0.833331
-15.791124 8.259087 1.251321
-15.773764 8.256964 1.669839
-15.761229 8.253885 2.093045
-15.738842 8.248960 2.513456
-15.721636 8.246881 2.936578
-15.717336 8.248260 3.367883
-0.518785 -0.039947 -0.363462
-2.831228 1.225968 -1.824848
-2.964665 1.299723 -1.808540
-3.144331 1.399569 -1.811487
-3.336725 1.505814 -1.812403
-3.556036 1.627704 -1.817045
-3.765817 1.744571 -1.805568
-4.023243 1.886914 -1.803428
-4.314721 2.049086 -1.802975
-4.646718 2.232782 -1.802653
-4.781566 2.309187 -1.713825
-4.850969 2.349653 -1.598768
-5.161011 2.521743 -1.553212
-5.530938 2.728276 -1.507027
-6.119337 3.054419 -1.495705
-6.767678 3.415497 -1.466450
-7.231283 3.633916 -1.363813
-7.944093 4.025900 -1.282010
-9.243415 4.741581 -1.239293
-10.397261 5.378715 -1.114359
0.000537 -0.323944 -0.012755
0.000537 -0.323944 -0.012755
-15.848421 8.383295 -0.425370
-15.835410 8.383513 -0.005540
-15.812129 8.378057 0.413497
-15.802734 8.376649 0.835741
-15.778116 8.370445 1.254234
-15.762215 8.365444 1.673725
-15.753319 8.367871 2.098606
-15.722142 8.357994 2.518727
-15.718442 8.359693 2.944997
0.000537 -0.323944 -0.012755
-0.514171 -0.038387 -0.361411
-0.510390 -0.040255 -0.340702
-2.950911 1.314011 -1.805722
-3.136224 1.418287 -1.812380
-3.327713 1.526200 -1.813255
-3.539950 1.645803 -1.814604
-3.755811 1.766795 -1.806336
-4.012066 1.911280 -1.804153
-4.297688 2.072394 -1.801608
-4.628607 2.257975 -1.801375
-4.779664 2.344444 -1.718586
-4.843882 2.382560 -1.601522
-5.154665 2.557410 -1.556249
-5.506457 2.756616 -1.505189
-6.114541 3.099600 -1.499446
-6.741944 3.453985 -1.465719
-7.205634 3.672629 -1.363174
-7.910245 4.067102 -1.280633
-9.208035 4.789589 -1.238382
-10.466204 5.493131 -1.125105
-10.449002 5.488449 -0.844096
0.000530 -0.323625 -0.012742
-15.829464 8.492252 -0.426225
-15.826924 8.498268 -0.005554
-15.801714 8.487972 0.414503
-15.789008 8.488283 0.837681
-15.771321 8.485830 1.257709
-15.750362 8.481493 1.677982
-15.742881 8.481083 2.103934
-15.716804 8.473890 2.525951
-15.702800 8.473399 2.951788
-15.698129 8.474570 3.385258
-0.521477 -0.029963 -0.367518
-0.523908 -0.028360 -0.350481
-2.944222 1.333543 -1.807594
-3.118031 1.432812 -1.807893
-3.315099 1.545349 -1.812398
-3.530134 1.667382 -1.815415
-3.736920 1.785728 -1.803255
-3.993868 1.932618 -1.801973
-4.282187 2.096498 -1.800925
-4.611571 2.284770 -1.800737
-4.778694 2.381552 -1.723943
-4.818169 2.405057 -1.598220
-5.129053 2.583506 -1.553723
-5.493699 2.791486 -1.506573
-6.144065 3.163084 -1.511488
-6.793572 3.534810 -1.481616
-7.188667 3.719517 -1.364477
-8.041927 4.201270 -1.305902
-9.177531 4.844464 -1.238397
-10.464480 5.574020 -1.128639
-10.382336 5.530239 -0.841479
-11.398176 6.108305 -0.617905
-15.820387 8.610947 -0.427400
-15.819400 8.614182 -0.005568
-15.790906 8.605542 0.415601
-15.772943 8.602821 0.839619
-15.758540 8.598454 1.260761
-15.742711 8.596928 1.682612
-15.728367 8.596242 2.109027
-15.712407 8.590966 2.533454
-15.696495 8.589361 2.960204
-15.690072 8.593151 3.394872
-0.521276 -0.025789 -0.368526
-0.528257 -0.021563 -0.354386
-2.933103 1.349913 -1.806652
