# This PCD file was generated using the MATLAB® pcwrite function
# from Computer Vision Toolbox®.
# .PCD v.7 - Point Cloud Data file format
VERSION .7
FIELDS x y z
SIZE 4 4 4
TYPE F F F
COUNT 1 1 1
WIDTH 1628
HEIGHT 1
VIEWPOINT 0 0 0 1 0 0 0
POINTS 1628
DATA ascii
3.901219 -1.890131 -1.909437
4.155890 -2.004591 -1.908542
4.458375 -2.141398 -1.914473
4.805703 -2.298544 -1.923886
5.176731 -2.465475 -1.924253
5.637109 -2.673728 -1.935462
6.138700 -2.900847 -1.937318
6.788305 -3.193307 -1.956164
7.551359 -3.538541 -1.970094
7.973386 -3.731250 -1.867021
8.086460 -3.785439 -1.679609
8.132157 -3.763467 -1.471177
8.134454 -3.767889 -1.260342
8.142038 -3.773013 -1.049728
23.822853 -10.759521 -2.448282
34.018021 -15.314045 -2.623639
0.000371 -0.150752 -0.006024
0.000371 -0.150752 -0.006024
0.000371 -0.150752 -0.006024
18.020708 -8.206156 0.445258
18.052551 -8.228014 0.909229
0.000371 -0.150752 -0.006024
0.000371 -0.150752 -0.006024
54.233109 -24.474016 6.923374
17.626812 -8.063615 2.702396
0.000371 -0.150752 -0.006024
0.000371 -0.150752 -0.006024
2.908534 -1.462347 -1.899583
3.050908 -1.527868 -1.888177
3.223202 -1.606356 -1.887965
3.429606 -1.701083 -1.897247
3.642966 -1.798327 -1.900151
3.889462 -1.911505 -1.908609
4.146509 -2.029649 -1.909299
4.455305 -2.170580 -1.918100
4.794973 -2.326633 -1.924556
5.171932 -2.498853 -1.927443
5.620758 -2.705031 -1.934851
6.126278 -2.937409 -1.938407
6.770665 -3.232035 -1.956149
7.544121 -3.587296 -1.973311
7.963931 -3.780281 -1.869504
8.080319 -3.836765 -1.682561
8.130372 -3.820258 -1.474735
8.131518 -3.822521 -1.263117
8.136697 -3.828298 -1.051806
23.803024 -10.920073 -2.452737
0.000389 -0.150413 -0.006011
0.000389 -0.150413 -0.006011
0.000389 -0.150413 -0.006011
17.994732 -8.315033 -0.013004
0.000389 -0.150413 -0.006011
53.880028 -24.631721 2.732833
0.000389 -0.150413 -0.006011
0.000389 -0.150413 -0.006011
17.603704 -8.167557 2.249060
17.678261 -8.209039 2.717408
0.000389 -0.150413 -0.006011
0.000389 -0.150413 -0.006011
2.898037 -1.476815 -1.897528
3.044734 -1.545308 -1.889144
3.216623 -1.624750 -1.888891
3.416015 -1.717659 -1.894539
3.635051 -1.819720 -1.900993
3.882584 -1.935073 -1.910223
4.135941 -2.052463 -1.909285
4.443595 -2.195886 -1.918086
4.778934 -2.352331 -1.923172
5.160050 -2.529064 -1.928069
5.609398 -2.738657 -1.936029
6.120587 -2.977169 -1.941703
6.759827 -3.273905 -1.958162
7.531269 -3.633633 -1.975143
7.960015 -3.835358 -1.873654
8.070792 -3.890102 -1.685142
8.124106 -3.871858 -1.477319
8.126448 -3.876389 -1.265612
8.135881 -3.882478 -1.054349
23.787748 -11.073287 -2.457377
33.966179 -15.761721 -2.633264
0.000385 -0.150095 -0.005999
17.803663 -8.344393 -0.467951
0.000385 -0.150095 -0.005999
0.000385 -0.150095 -0.005999
53.692799 -24.920361 2.730555
18.724670 -8.796286 1.428854
16.988941 -8.002043 1.733380
17.200222 -8.103395 2.203223
17.737608 -8.359469 2.733809
0.000385 -0.150095 -0.005999
0.000385 -0.150095 -0.005999
2.888535 -1.492958 -1.896494
3.037994 -1.563753 -1.890110
3.210996 -1.645000 -1.890756
3.406664 -1.737571 -1.894525
3.618537 -1.837873 -1.897554
3.872232 -1.957089 -1.910209
4.119555 -2.074315 -1.906956
4.424630 -2.218739 -1.915159
4.772976 -2.382685 -1.925896
5.144113 -2.558529 -1.927414
5.599140 -2.773992 -1.937803
6.109429 -3.014495 -1.943344
6.744675 -3.315283 -1.959161
7.511068 -3.676641 -1.975128
7.951046 -3.886648 -1.876553
8.079350 -3.950422 -1.691434
8.114403 -3.925504 -1.479578
8.120996 -3.930341 -1.268108
8.129802 -3.937912 -1.056428
23.780252 -11.240869 -2.463324
33.958874 -15.995561 -2.639688
17.656122 -8.395899 -0.921616
0.000381 -0.149778 -0.005986
0.000381 -0.149778 -0.005986
0.000381 -0.149778 -0.005986
53.534012 -25.233101 2.730032
18.069366 -8.619965 1.382373
16.934429 -8.095193 1.732473
18.174053 -8.684643 2.334790
17.634464 -8.435048 2.725222
0.000381 -0.149778 -0.005986
48.048889 -22.766327 9.980125
2.891644 -1.514385 -1.903625
3.031373 -1.581654 -1.891076
3.203929 -1.663900 -1.891682
3.397465 -1.756842 -1.894511
3.613941 -1.860066 -1.900109
3.866714 -1.981384 -1.912637
4.113416 -2.100049 -1.909256
4.418057 -2.245489 -1.917328
4.770240 -2.414635 -1.929990
5.132304 -2.587700 -1.928040
5.591288 -2.808183 -1.940174
6.098035 -3.051792 -1.944985
6.735626 -3.356737 -1.961681
7.504685 -3.726216 -1.978806
7.949474 -3.939936 -1.881119
8.120065 -4.024800 -1.704402
8.092520 -3.971854 -1.479562
8.057909 -3.957262 -1.261674
8.125804 -3.992844 -1.058738
23.757383 -11.396910 -2.467590
33.933765 -16.222145 -2.644849
0.000376 -0.149460 -0.005973
17.505779 -8.452289 -0.462632
0.000376 -0.149460 -0.005973
0.000376 -0.149460 -0.005973
17.881554 -8.649831 0.910324
17.890587 -8.661822 1.372399
17.335728 -8.401580 1.778394
17.998781 -8.725003 2.318367
17.634739 -8.559146 2.732738
0.000376 -0.149460 -0.005973
47.905872 -23.026335 9.976831
2.877763 -1.527228 -1.899528
3.023314 -1.598253 -1.891062
3.190379 -1.679716 -1.888849
3.386814 -1.774704 -1.893599
3.605648 -1.881323 -1.900951
3.859396 -2.004882 -1.914251
4.103767 -2.124195 -1.910013
4.410946 -2.273003 -1.919498
4.755409 -2.440945 -1.929290
5.121151 -2.619444 -1.929307
5.577134 -2.841822 -1.940755
6.081206 -3.086555 -1.944970
6.718212 -3.397174 -1.962173
7.490329 -3.773759 -1.980638
7.933206 -3.991519 -1.882769
8.066859 -4.058025 -1.698079
8.021218 -3.992786 -1.470447
8.051916 -4.010992 -1.264169
8.123909 -4.047297 -1.061281
23.737278 -11.549781 -2.472043
33.914364 -16.452419 -2.650571
0.000373 -0.149143 -0.005961
52.932514 -25.629395 -1.390572
0.000373 -0.149143 -0.005961
0.000373 -0.149143 -0.005961
53.196583 -25.825665 2.727791
17.988581 -8.835543 1.383802
17.209354 -8.466707 1.770455
17.706179 -8.714518 2.287122
17.465078 -8.605488 2.714156
0.000373 -0.149143 -0.005961
47.693233 -23.272976 9.960972
2.878568 -1.548976 -1.905639
3.020670 -1.619429 -1.894969
3.186002 -1.700618 -1.891654
3.383252 -1.798169 -1.897176
3.592075 -1.900765 -1.899223
3.851578 -2.029052 -1.915865
4.093642 -2.148993 -1.910770
4.396597 -2.297996 -1.918755
4.746792 -2.471277 -1.931329
5.110243 -2.650240 -1.930573
5.566655 -2.876115 -1.942529
6.065392 -3.123114 -1.945505
6.704602 -3.438049 -1.963678
7.465850 -3.814788 -1.979697
7.934452 -4.046651 -1.888166
8.061863 -4.112757 -1.701772
7.995799 -4.040540 -1.470106
8.041322 -4.064449 -1.266105
8.141018 -4.116540 -1.066615
23.708355 -11.714323 -2.476306
33.874390 -16.681061 -2.655027
53.102249 -26.088341 -2.782803
0.000368 -0.148825 -0.005948
17.258427 -8.590426 -0.012708
0.000368 -0.148825 -0.005948
53.020916 -26.118084 2.726447
17.933153 -8.940030 1.383547
17.484774 -8.724087 1.803977
17.537062 -8.757381 2.271627
0.000368 -0.148825 -0.005948
0.000368 -0.148825 -0.005948
47.559296 -23.546896 9.961012
2.870704 -1.564710 -1.905624
3.013980 -1.636719 -1.895935
3.177279 -1.718072 -1.891639
3.375591 -1.817507 -1.898059
3.585153 -1.922717 -1.900921
3.832517 -2.046811 -1.911778
4.084041 -2.172339 -1.911526
4.390805 -2.326286 -1.921652
4.733342 -2.498251 -1.931313
5.099136 -2.681004 -1.931839
5.549157 -2.906948 -1.941916
6.053335 -3.160236 -1.947145
6.683816 -3.475424 -1.963154
7.455064 -3.862610 -1.982450
7.928688 -4.102074 -1.892314
8.050495 -4.166358 -1.704351
7.973939 -4.084811 -1.470088
8.029284 -4.115645 -1.267762
8.191753 -4.197701 -1.076136
23.691595 -11.870056 -2.481313
33.857281 -16.914507 -2.661161
0.000363 -0.148507 -0.005935
0.000363 -0.148507 -0.005935
0.000363 -0.148507 -0.005935
0.000363 -0.148507 -0.005935
17.326159 -8.758659 0.889495
62.263485 -31.117889 4.832212
17.594042 -8.907219 1.820659
53.076111 -26.583143 6.906958
0.000363 -0.148507 -0.005935
0.000363 -0.148507 -0.005935
0.000363 -0.148507 -0.005935
2.862260 -1.581389 -1.905609
2.992626 -1.648010 -1.888078
3.167909 -1.736577 -1.891624
3.364019 -1.836396 -1.897147
3.579396 -1.946083 -1.903475
3.823138 -2.069365 -1.912578
4.068671 -2.194551 -1.909968
4.374486 -2.350297 -1.920180
4.723067 -2.526861 -1.932667
5.082335 -2.710034 -1.931182
5.542909 -2.944673 -1.945478
6.039312 -3.196468 -1.948232
6.662214 -3.513848 -1.962630
7.442215 -3.909569 -1.984742
7.919747 -4.154416 -1.895628
8.041263 -4.219423 -1.707301
7.971628 -4.142331 -1.473969
8.024013 -4.170368 -1.270534
8.108991 -4.216517 -1.068440
23.678577 -12.038696 -2.487252
33.838615 -17.148296 -2.667295
52.492962 -26.543243 -2.766563
0.000359 -0.148189 -0.005923
0.000359 -0.148189 -0.005923
0.000359 -0.148189 -0.005923
17.285465 -8.866391 0.890073
62.066292 -31.466619 4.830880
17.671282 -9.072718 1.834010
52.914776 -26.895479 6.906542
0.000359 -0.148189 -0.005923
0.000359 -0.148189 -0.005923
0.000359 -0.148189 -0.005923
2.866224 -1.603760 -1.913761
2.985500 -1.665682 -1.889043
3.158717 -1.754467 -1.891609
3.355827 -1.856238 -1.898030
3.573826 -1.968797 -1.906029
3.816900 -2.093513 -1.915004
4.060104 -2.219306 -1.911495
4.370022 -2.379372 -1.923805
4.715981 -2.557123 -1.935390
5.075929 -2.743255 -1.934370
5.525018 -2.975353 -1.944865
6.028502 -3.234381 -1.950423
6.659947 -3.560653 -1.967684
7.423896 -3.953818 -1.985647
7.917436 -4.210350 -1.900608
8.038655 -4.276124 -1.711735
7.999506 -4.213788 -1.483374
8.103097 -4.268262 -1.286700
8.106668 -4.273642 -1.071213
23.648720 -12.194450 -2.491327
33.821922 -17.384239 -2.673709
52.263550 -26.805767 -2.762478
0.000377 -0.147851 -0.005910
0.000377 -0.147851 -0.005910
0.000377 -0.147851 -0.005910
52.593452 -27.055687 2.728347
0.000377 -0.147851 -0.005910
0.000377 -0.147851 -0.005910
52.758114 -27.198509 6.906360
0.000377 -0.147851 -0.005910
0.000377 -0.147851 -0.005910
0.000377 -0.147851 -0.005910
0.512540 -0.411442 -0.347860
2.984447 -1.686534 -1.893930
3.149405 -1.772318 -1.891594
3.349116 -1.876848 -1.899811
3.558453 -1.986547 -1.903445
3.804011 -2.114301 -1.914175
4.049746 -2.243183 -1.912251
4.355427 -2.403341 -1.923061
4.705372 -2.585644 -1.936743
5.064263 -2.773867 -1.935636
5.512024 -3.008570 -1.946041
6.012330 -3.269616 -1.950958
6.635038 -3.595950 -1.966145
7.408768 -3.999773 -1.987477
7.916460 -4.267305 -1.906004
8.032181 -4.331105 -1.715426
8.082948 -4.314637 -1.503176
8.089795 -4.319984 -1.288356
8.103949 -4.330878 -1.073987
23.603733 -12.342908 -2.493908
33.796524 -17.616899 -2.679562
52.128677 -27.116089 -2.763462
0.000373 -0.147533 -0.005897
0.000373 -0.147533 -0.005897
0.000373 -0.147533 -0.005897
0.000373 -0.147533 -0.005897
0.000373 -0.147533 -0.005897
0.000373 -0.147533 -0.005897
52.673698 -27.539150 6.915905
0.000373 -0.147533 -0.005897
0.000373 -0.147533 -0.005897
0.000373 -0.147533 -0.005897
0.523193 -0.420444 -0.356014
2.970888 -1.700955 -1.890974
3.150945 -1.795832 -1.898156
3.340683 -1.896610 -1.900693
3.549399 -2.007525 -1.904285
3.797105 -2.139076 -1.916602
4.039247 -2.266997 -1.913006
4.342371 -2.428052 -1.923045
4.694151 -2.614941 -1.938096
5.050722 -2.803551 -1.936260
5.492071 -3.038167 -1.944832
6.002189 -3.309401 -1.953700
6.623611 -3.638299 -1.968663
7.392667 -4.046967 -1.989305
7.917808 -4.327590 -1.912233
8.080190 -4.416933 -1.730989
8.085051 -4.374503 -1.508031
8.082439 -4.376767 -1.291128
8.097307 -4.386376 -1.076295
23.524281 -12.473701 -2.492945
33.762947 -17.853859 -2.685133
0.000365 -0.147212 -0.005884
0.000365 -0.147212 -0.005884
0.000365 -0.147212 -0.005884
0.000365 -0.147212 -0.005884
0.000365 -0.147212 -0.005884
0.000365 -0.147212 -0.005884
0.000365 -0.147212 -0.005884
0.000365 -0.147212 -0.005884
0.000365 -0.147212 -0.005884
0.000365 -0.147212 -0.005884
0.000365 -0.147212 -0.005884
0.529160 -0.427248 -0.361104
2.972405 -1.723946 -1.897821
3.137981 -1.812528 -1.896262
3.331809 -1.916930 -1.901576
3.543082 -2.030782 -1.906839
3.785573 -2.160589 -1.916586
4.024969 -2.289740 -1.912219
4.335328 -2.456969 -1.925942
4.678205 -2.640727 -1.937395
5.039876 -2.835837 -1.938166
5.481557 -3.073978 -1.947200
5.987278 -3.345397 -1.954787
6.604497 -3.678121 -1.969153
7.375222 -4.091920 -1.990673
7.907417 -4.380168 -1.915546
8.022541 -4.445449 -1.723921
8.112118 -4.449830 -1.517761
8.084189 -4.436847 -1.295295
8.093067 -4.445203 -1.079068
23.491169 -12.634240 -2.497205
33.741447 -18.090780 -2.691545
0.000360 -0.146893 -0.005872
0.000360 -0.146893 -0.005872
0.000360 -0.146893 -0.005872
53.522728 -28.695261 1.381344
0.000360 -0.146893 -0.005872
0.000360 -0.146893 -0.005872
0.000360 -0.146893 -0.005872
0.000360 -0.146893 -0.005872
0.000360 -0.146893 -0.005872
0.000360 -0.146893 -0.005872
46.592571 -25.125212 9.935412
0.522987 -0.427528 -0.358029
2.960191 -1.739077 -1.895846
3.126789 -1.829408 -1.895307
3.323135 -1.936614 -1.902459
3.530585 -2.049975 -1.905967
3.772316 -2.181159 -1.915756
4.014168 -2.313455 -1.912975
4.315402 -2.478031 -1.923013
4.672031 -2.671775 -1.940802
5.027647 -2.866292 -1.939432
5.459580 -3.102445 -1.945394
5.977203 -3.384089 -1.957530
6.589140 -3.718554 -1.970657
7.357501 -4.136802 -1.992040
7.891484 -4.430000 -1.917610
8.018366 -4.502526 -1.728355
8.059382 -4.481211 -1.512543
8.071549 -4.489587 -1.297229
8.090911 -4.503665 -1.082074
23.471445 -12.797347 -2.502769
33.716549 -18.327105 -2.697816
0.000356 -0.146576 -0.005859
0.000356 -0.146576 -0.005859
0.000356 -0.146576 -0.005859
53.130554 -28.879997 1.375498
0.000356 -0.146576 -0.005859
0.000356 -0.146576 -0.005859
0.000356 -0.146576 -0.005859
0.000356 -0.146576 -0.005859
0.000356 -0.146576 -0.005859
0.000356 -0.146576 -0.005859
46.415134 -25.374947 9.928436
0.524384 -0.431856 -0.360057
2.949435 -1.754948 -1.894851
3.117047 -1.847067 -1.895292
3.308055 -1.952844 -1.899750
3.517975 -2.069093 -1.905096
3.763736 -2.204288 -1.917369
4.001627 -2.336212 -1.912959
4.305171 -2.504315 -1.924453
4.659044 -2.699234 -1.941471
5.020208 -2.899434 -1.942619
5.454179 -3.139949 -1.949552
5.960154 -3.419054 -1.958064
6.575231 -3.759860 -1.972668
7.337814 -4.180658 -1.992945
7.890682 -4.488255 -1.923423
8.005193 -4.554952 -1.730933
8.058555 -4.540445 -1.517073
8.074231 -4.550843 -1.301674
8.081375 -4.558435 -1.084149
23.408680 -12.937726 -2.503857
33.697083 -18.567541 -2.704648
53.108139 -29.203424 -2.849983
0.000352 -0.146258 -0.005846
52.868950 -29.108829 -0.026755
0.000352 -0.146258 -0.005846
0.000352 -0.146258 -0.005846
0.000352 -0.146258 -0.005846
0.000352 -0.146258 -0.005846
0.000352 -0.146258 -0.005846
0.000352 -0.146258 -0.005846
0.000352 -0.146258 -0.005846
0.000352 -0.146258 -0.005846
0.533270 -0.440368 -0.367190
2.946238 -1.774949 -1.898757
3.108738 -1.865530 -1.896216
3.302288 -1.974138 -1.902428
3.509995 -2.090760 -1.906793
3.753412 -2.226500 -1.918168
3.987338 -2.358003 -1.912172
4.296391 -2.531473 -1.926622
4.644255 -2.725712 -1.941455
5.000947 -2.926148 -1.941321
5.431841 -3.168207 -1.947746
5.951278 -3.458620 -1.961358
6.561067 -3.801116 -1.974679
7.324655 -4.228216 -1.995697
7.882630 -4.542833 -1.927569
8.001987 -4.613106 -1.735736
8.053829 -4.597927 -1.520954
8.064309 -4.605593 -1.304167
8.074957 -4.615153 -1.086689
23.381651 -13.098063 -2.508861
33.670689 -18.805477 -2.711058
0.000347 -0.145940 -0.005834
0.000347 -0.145940 -0.005834
62.779537 -35.009258 -0.030692
0.000347 -0.145940 -0.005834
0.000347 -0.145940 -0.005834
0.000347 -0.145940 -0.005834
0.000347 -0.145940 -0.005834
0.000347 -0.145940 -0.005834
0.000347 -0.145940 -0.005834
0.000347 -0.145940 -0.005834
46.061428 -25.873638 9.915598
0.524064 -0.438907 -0.362073
2.933752 -1.789876 -1.896781
3.097243 -1.882220 -1.895262
3.293269 -1.993675 -1.903311
3.495583 -2.108854 -1.905065
3.745767 -2.251110 -1.920594
3.979354 -2.383325 -1.914471
4.285836 -2.557677 -1.928062
4.628873 -2.752896 -1.941438
4.989790 -2.957385 -1.943227
5.415992 -3.200072 -1.948326
5.931519 -3.493551 -1.961341
6.543276 -3.840425 -1.975675
7.303687 -4.273204 -1.996603
7.875114 -4.599816 -1.932131
7.995861 -4.671806 -1.740169
8.048718 -4.655487 -1.524833
8.063616 -4.667573 -1.308334
8.071604 -4.673898 -1.089694
23.341404 -13.251677 -2.512559
33.642857 -19.051537 -2.717749
0.000365 -0.145602 -0.005821
0.000365 -0.145602 -0.005821
62.120190 -35.126671 -0.030451
0.000365 -0.145602 -0.005821
0.000365 -0.145602 -0.005821
0.000365 -0.145602 -0.005821
0.000365 -0.145602 -0.005821
0.000365 -0.145602 -0.005821
0.000365 -0.145602 -0.005821
0.000365 -0.145602 -0.005821
0.000365 -0.145602 -0.005821
0.525286 -0.443405 -0.364101
2.928492 -1.809517 -1.899707
3.088399 -1.901138 -1.896186
3.280692 -2.011978 -1.902398
3.483875 -2.129238 -1.905049
3.728833 -2.269599 -1.918136
3.965992 -2.406590 -1.914455
4.266582 -2.579985 -1.925861
4.621941 -2.783848 -1.944845
4.974663 -2.987562 -1.943851
5.412697 -3.240352 -1.953676
5.922142 -3.533072 -1.964635
6.536345 -3.887517 -1.980222
7.289917 -4.320689 -1.999355
7.869699 -4.656448 -1.937110
7.993524 -4.731154 -1.745344
8.042412 -4.714539 -1.528713
8.052943 -4.722414 -1.310825
8.067037 -4.734160 -1.092699
23.365316 -13.447759 -2.523529
33.618370 -19.293034 -2.724579
0.000361 -0.145284 -0.005808
0.000361 -0.145284 -0.005808
0.000361 -0.145284 -0.005808
52.390350 -30.070316 1.374161
0.000361 -0.145284 -0.005808
0.000361 -0.145284 -0.005808
0.000361 -0.145284 -0.005808
0.000361 -0.145284 -0.005808
0.000361 -0.145284 -0.005808
68.421082 -39.386673 12.924953
0.000361 -0.145284 -0.005808
0.517604 -0.442666 -0.360005
2.920359 -1.826914 -1.900672
3.079777 -1.919444 -1.897110
3.269870 -2.030537 -1.902382
3.478667 -2.152550 -1.908459
3.722860 -2.294377 -1.921377
3.956105 -2.430913 -1.915982
4.257329 -2.606992 -1.928030
4.606659 -2.810111 -1.944829
4.959859 -3.016787 -1.944475
5.399728 -3.274033 -1.955448
5.895879 -3.562946 -1.962409
6.514698 -3.924765 -1.980203
7.262387 -4.360325 -1.998412
7.863895 -4.713157 -1.942089
8.029844 -4.813340 -1.759050
8.060415 -4.786074 -1.537142
8.052196 -4.783218 -1.314991
8.055958 -4.789155 -1.094773
23.484945 -13.695230 -2.544755
33.597382 -19.537876 -2.731829
34.565273 -20.112722 -1.881094
0.000357 -0.144966 -0.005795
0.000357 -0.144966 -0.005795
52.744915 -30.676746 1.388165
0.000357 -0.144966 -0.005795
0.000357 -0.144966 -0.005795
0.000357 -0.144966 -0.005795
0.000357 -0.144966 -0.005795
70.156647 -40.887505 11.367621
0.000357 -0.144966 -0.005795
70.886879 -41.378162 15.415806
0.520338 -0.447917 -0.363054
2.907622 -1.841618 -1.898696
3.074075 -1.939507 -1.899914
3.262053 -2.050811 -1.904163
3.467028 -2.172247 -1.908443
3.710402 -2.315477 -1.921361
3.946060 -2.455202 -1.917509
4.241482 -2.630198 -1.927285
4.592854 -2.837228 -1.945497
4.939976 -3.043059 -1.943177
5.375033 -3.300891 -1.953045
5.884373 -3.601402 -1.965152
6.497812 -3.964855 -1.981707
7.243032 -4.404709 -1.999778
7.861049 -4.771948 -1.947900
7.979119 -4.845222 -1.753837
8.060823 -4.848009 -1.542321
8.057837 -4.848171 -1.320274
8.054792 -4.850194 -1.098244
23.447777 -13.854057 -2.549197
29.023149 -17.120789 -2.368536
29.951515 -17.677917 -1.636191
28.426031 -16.798315 -0.781981
0.000353 -0.144648 -0.005783
61.695164 -36.333309 1.630253
0.000353 -0.144648 -0.005783
0.000353 -0.144648 -0.005783
0.000353 -0.144648 -0.005783
0.000353 -0.144648 -0.005783
73.058311 -43.136818 11.878044
72.110710 -42.613270 13.713942
0.000353 -0.144648 -0.005783
0.517107 -0.449706 -0.362020
2.897794 -1.858020 -1.898681
3.059119 -1.954173 -1.897080
3.247935 -2.067432 -1.902351
3.458398 -2.193708 -1.910140
3.695899 -2.336189 -1.920531
3.931098 -2.476629 -1.916721
4.227084 -2.654276 -1.927269
4.583269 -2.867942 -1.948219
4.928086 -3.074045 -1.945082
5.368253 -3.338305 -1.957203
5.870366 -3.639869 -1.967342
6.472388 -3.999905 -1.980674
7.217610 -4.447307 -1.999760
7.853613 -4.830217 -1.952879
7.973009 -4.905274 -1.758641
8.026813 -4.890011 -1.541002
8.038296 -4.900633 -1.321649
8.044662 -4.906291 -1.100550
23.325607 -13.963169 -2.544502
28.369312 -16.964750 -2.323355
29.604324 -17.704056 -1.622732
0.000348 -0.144330 -0.005770
0.000348 -0.144330 -0.005770
0.000348 -0.144330 -0.005770
0.000348 -0.144330 -0.005770
0.000348 -0.144330 -0.005770
0.000348 -0.144330 -0.005770
0.000348 -0.144330 -0.005770
74.365166 -44.501644 12.133295
73.625000 -44.095184 14.051495
0.000348 -0.144330 -0.005770
0.521187 -0.455981 -0.366090
2.889066 -1.875765 -1.899646
3.052878 -1.974687 -1.899883
3.239528 -2.088192 -1.904132
3.443446 -2.211403 -1.908412
3.684767 -2.358071 -1.921329
3.918772 -2.500543 -1.917476
4.218940 -2.682102 -1.930165
4.573939 -2.897856 -1.950941
4.911113 -3.102074 -1.945065
5.348119 -3.367876 -1.956589
5.858377 -3.678255 -1.970083
6.455032 -4.039804 -1.982177
7.206048 -4.496517 -2.003435
7.847410 -4.885825 -1.957857
7.959764 -4.957526 -1.761588
8.020500 -4.950438 -1.545206
8.039659 -4.963826 -1.326373
8.038392 -4.966920 -1.103555
23.190275 -14.069237 -2.538689
28.362629 -17.181965 -2.330747
28.465460 -17.257334 -1.566008
0.000343 -0.144012 -0.005757
67.900742 -41.014744 -0.032847
27.948528 -16.980001 0.740596
0.000343 -0.144012 -0.005757
0.000343 -0.144012 -0.005757
0.000343 -0.144012 -0.005757
0.000343 -0.144012 -0.005757
0.000343 -0.144012 -0.005757
75.243050 -45.632587 14.408791
0.000343 -0.144012 -0.005757
0.513539 -0.455010 -0.361994
2.880850 -1.892447 -1.900611
3.044115 -1.992305 -1.900807
3.228616 -2.105937 -1.904116
3.436472 -2.233105 -1.910965
3.678588 -2.382090 -1.924569
3.916575 -2.528796 -1.922861
4.209474 -2.708209 -1.932333
4.552052 -2.919140 -1.948186
4.899367 -3.132096 -1.946971
5.344699 -3.406322 -1.961939
5.838544 -3.710600 -1.970065
6.448039 -4.084547 -1.986723
7.183284 -4.537392 -2.003877
7.844160 -4.943557 -1.963668
7.961249 -5.019032 -1.767875
8.017155 -5.009165 -1.549735
8.036303 -5.022730 -1.330259
8.036805 -5.026879 -1.107024
23.067894 -14.171321 -2.533808
0.000339 -0.143695 -0.005745
29.727745 -18.242697 -1.640672
0.000339 -0.143695 -0.005745
27.969788 -17.192616 -0.016916
27.852375 -17.134441 0.740589
0.000339 -0.143695 -0.005745
0.000339 -0.143695 -0.005745
0.000339 -0.143695 -0.005745
0.000339 -0.143695 -0.005745
0.000339 -0.143695 -0.005745
0.000339 -0.143695 -0.005745
76.882820 -47.248905 16.950457
0.498505 -0.449607 -0.352793
2.867440 -1.907368 -1.898635
3.037596 -2.012789 -1.903610
3.218441 -2.125667 -1.904998
3.423650 -2.253725 -1.910949
3.659032 -2.399707 -1.921297
3.892929 -2.545854 -1.918215
4.192151 -2.732563 -1.931588
4.537117 -2.946747 -1.948853
4.884256 -3.163621 -1.948235
5.323046 -3.437576 -1.961325
5.820529 -3.746891 -1.971151
6.417259 -4.119463 -1.984676
7.168646 -4.586803 -2.007090
7.836304 -5.004457 -1.969062
7.958035 -5.083828 -1.773790
8.015036 -5.072865 -1.554913
8.022394 -5.079337 -1.332750
8.026295 -5.085608 -1.109563
22.969015 -14.298204 -2.532095
28.212038 -17.536201 -2.334595
28.677906 -17.837282 -1.588641
0.000354 -0.143353 -0.005732
28.724003 -17.886641 -0.017219
0.000354 -0.143353 -0.005732
0.000354 -0.143353 -0.005732
0.000354 -0.143353 -0.005732
0.000354 -0.143353 -0.005732
0.000354 -0.143353 -0.005732
0.000354 -0.143353 -0.005732
0.000354 -0.143353 -0.005732
0.000354 -0.143353 -0.005732
0.511321 -0.461252 -0.362988
2.872028 -1.932752 -1.908422
3.022291 -2.027125 -1.900776
3.213029 -2.147638 -1.908575
3.411444 -2.273082 -1.910933
3.652172 -2.424294 -1.924537
3.882142 -2.569884 -1.919742
4.177155 -2.756356 -1.931571
4.516101 -2.969535 -1.946782
4.871591 -3.194402 -1.950140
5.297513 -3.463804 -1.958921
5.807826 -3.785136 -1.973892
6.402446 -4.161178 -1.987193
7.146241 -4.629757 -2.007994
7.826405 -5.060629 -1.973623
7.952722 -5.143922 -1.778964
8.008305 -5.132173 -1.559117
8.010641 -5.135611 -1.335520
8.024665 -5.148249 -1.113265
22.858383 -14.412015 -2.528891
27.979410 -17.615641 -2.323622
28.628038 -18.034657 -1.591511
0.000349 -0.143035 -0.005719
28.592529 -18.033403 -0.017168
27.589094 -17.419031 0.738974
28.945522 -18.282566 1.575651
28.795240 -18.195452 2.359206
0.000349 -0.143035 -0.005719
0.000349 -0.143035 -0.005719
0.000349 -0.143035 -0.005719
0.000349 -0.143035 -0.005719
0.000349 -0.143035 -0.005719
0.503671 -0.460189 -0.358892
2.857259 -1.946143 -1.905466
3.014365 -2.046072 -1.902639
3.195401 -2.161958 -1.904967
3.400640 -2.293345 -1.911773
3.637003 -2.444649 -1.923707
3.869659 -2.592869 -1.920497
4.166761 -2.783035 -1.933739
4.504021 -2.998971 -1.948819
4.850726 -3.220068 -1.948841
5.292803 -3.503149 -1.964271
5.790976 -3.822310 -1.975530
6.385736 -4.201808 -1.989202
7.121128 -4.672812 -2.008437
7.818521 -5.120335 -1.979018
7.974292 -5.223437 -1.790444
8.071215 -5.235827 -1.576967
8.019390 -5.207055 -1.341917
8.019220 -5.208909 -1.116501
22.721972 -14.509049 -2.522890
27.062645 -17.266827 -2.256011
29.598106 -18.878496 -1.651155
29.441990 -18.794123 -0.826683
27.398071 -17.512758 -0.016692
27.354076 -17.491623 0.735354
32.126408 -20.534233 1.755862
28.406387 -18.186995 2.336060
0.000345 -0.142717 -0.005706
0.000345 -0.142717 -0.005706
0.000345 -0.142717 -0.005706
0.000345 -0.142717 -0.005706
0.000345 -0.142717 -0.005706
0.514821 -0.471184 -0.368065
2.843553 -1.960882 -1.903490
3.000037 -2.061708 -1.900745
3.186368 -2.182494 -1.906747
3.391243 -2.314522 -1.913470
3.628313 -2.468182 -1.926133
3.858173 -2.617446 -1.922023
4.151488 -2.806665 -1.933722
4.489065 -3.025571 -1.949487
4.832934 -3.247622 -1.948824
5.268548 -3.530155 -1.962464
5.771316 -3.856308 -1.976063
6.372002 -4.244491 -1.992227
7.104750 -4.719738 -2.011187
7.820209 -5.182663 -1.986494
7.932584 -5.259046 -1.787455
8.014251 -5.266298 -1.571748
8.011768 -5.266715 -1.345524
8.015775 -5.273227 -1.120203
22.602798 -14.621808 -2.519127
27.553162 -17.799921 -2.305178
29.905155 -19.322021 -1.674481
0.000340 -0.142399 -0.005693
28.167641 -18.228624 -0.017003
27.171581 -17.602501 0.733242
29.425385 -19.058121 1.613746
0.000340 -0.142399 -0.005693
0.000340 -0.142399 -0.005693
0.000340 -0.142399 -0.005693
0.000340 -0.142399 -0.005693
0.000340 -0.142399 -0.005693
0.000340 -0.142399 -0.005693
0.507188 -0.470005 -0.363969
2.837741 -1.979258 -1.906416
2.990749 -2.079076 -1.901669
3.173422 -2.198968 -1.905833
3.377151 -2.332721 -1.912597
3.619449 -2.491708 -1.928559
3.848934 -2.641646 -1.924321
4.139187 -2.832250 -1.935161
4.472388 -3.051053 -1.949470
4.816544 -3.276130 -1.949448
5.252138 -3.562213 -1.963639
5.754644 -3.892330 -1.977701
6.341791 -4.276571 -1.990179
7.083149 -4.763456 -2.012553
7.811458 -5.242558 -1.991888
7.923470 -5.319681 -1.792257
7.998759 -5.319235 -1.574326
8.002074 -5.325366 -1.348852
8.008677 -5.331624 -1.123206
22.489840 -14.726905 -2.515549
27.042683 -17.692968 -2.270933
28.447033 -18.611557 -1.598804
28.465694 -18.637867 -0.805266
27.806494 -18.223398 -0.016859
28.603891 -18.749081 0.775050
29.490105 -19.340284 1.623407
0.000336 -0.142081 -0.005681
0.000336 -0.142081 -0.005681
0.000336 -0.142081 -0.005681
0.000336 -0.142081 -0.005681
0.000336 -0.142081 -0.005681
0.000336 -0.142081 -0.005681
0.509542 -0.475520 -0.367018
2.826785 -1.995748 -1.906400
2.979209 -2.096462 -1.901653
3.165641 -2.220385 -1.908511
3.364085 -2.352408 -1.912581
3.607375 -2.513206 -1.929357
3.837100 -2.666164 -1.925848
4.126276 -2.858479 -1.936601
4.455573 -3.076431 -1.949452
4.805772 -3.309547 -1.952634
5.231760 -3.592990 -1.963621
5.740971 -3.930385 -1.980442
6.320380 -4.315935 -1.991174
7.056421 -4.803848 -2.012533
7.812939 -5.307657 -1.999781
7.923019 -5.384429 -1.798914
7.991010 -5.381428 -1.578854
7.998590 -5.388421 -1.353295
7.999313 -5.392919 -1.126210
22.394583 -14.854305 -2.514582
22.034479 -14.623294 -1.858334
28.667429 -18.997076 -1.617343
0.000332 -0.141763 -0.005668
27.852240 -18.481903 -0.016879
28.459583 -18.896158 0.774175
28.233212 -18.761164 1.560090
27.847260 -18.513660 2.315911
0.000332 -0.141763 -0.005668
0.000332 -0.141763 -0.005668
0.000332 -0.141763 -0.005668
0.000332 -0.141763 -0.005668
0.000332 -0.141763 -0.005668
0.504743 -0.476227 -0.364964
2.820423 -2.014564 -1.909325
2.966419 -2.112299 -1.900698
3.153608 -2.238270 -1.908496
3.354321 -2.373415 -1.914278
3.590613 -2.531598 -1.927712
3.817903 -2.684820 -1.923517
4.112103 -2.882919 -1.937312
4.441703 -3.103826 -1.950804
4.787453 -3.336847 -1.952617
5.218139 -3.626990 -1.965989
5.714262 -3.959860 -1.978768
6.302666 -4.356249 -1.993183
7.037527 -4.849514 -2.014822
7.807444 -5.368568 -2.006007
7.915564 -5.444956 -1.804086
7.985365 -5.443412 -1.583707
7.988038 -5.447225 -1.356622
7.995414 -5.456168 -1.129911
22.277979 -14.961760 -2.511004
21.748091 -14.614776 -1.841197
28.400408 -19.056324 -1.608386
31.458529 -21.109013 -0.896072
27.032274 -18.165703 -0.016550
27.146963 -18.255903 0.741094
27.562283 -18.546995 1.528775
28.047899 -18.878448 2.341638
0.000327 -0.141446 -0.005655
0.000327 -0.141446 -0.005655
0.000327 -0.141446 -0.005655
0.000327 -0.141446 -0.005655
0.000327 -0.141446 -0.005655
0.492829 -0.472076 -0.357805
2.808148 -2.029477 -1.908329
2.956492 -2.130011 -1.901622
3.141491 -2.256066 -1.908479
3.342910 -2.393386 -1.915118
3.580908 -2.555609 -1.930138
3.807777 -2.709545 -1.925814
4.094689 -2.905205 -1.936567
4.424062 -3.129795 -1.950787
4.778379 -3.370419 -1.956444
5.207478 -3.663070 -1.969549
5.697869 -3.997693 -1.980957
6.279880 -4.393250 -1.993672
7.009477 -4.890859 -2.014802
7.797338 -5.428755 -2.011400
7.906704 -5.506977 -1.809259
7.979251 -5.505518 -1.588560
7.989281 -5.516317 -1.362182
7.991048 -5.519543 -1.133612
22.008915 -14.966027 -2.490273
21.458332 -14.606092 -1.823920
28.236334 -19.182402 -1.605248
28.264549 -19.215836 -0.808721
28.398291 -19.320583 -0.017105
27.250933 -18.552670 0.746899
27.785177 -18.927788 1.547223
0.000323 -0.141128 -0.005643
0.000323 -0.141128 -0.005643
0.000323 -0.141128 -0.005643
0.000323 -0.141128 -0.005643
0.000323 -0.141128 -0.005643
0.000323 -0.141128 -0.005643
0.495102 -0.477594 -0.360854
2.809863 -2.054617 -1.917136
2.946090 -2.148198 -1.902545
3.130363 -2.275355 -1.909361
3.331369 -2.413306 -1.915958
3.568464 -2.576889 -1.930936
3.795507 -2.733865 -1.927341
4.084864 -2.932616 -1.939462
4.409874 -3.157028 -1.952139
4.758148 -3.396485 -1.955786
5.188669 -3.693774 -1.970127
5.677163 -4.031196 -1.981490
6.266468 -4.436674 -1.997202
6.994841 -4.939637 -2.018476
7.801546 -5.495152 -2.020126
7.983542 -5.624157 -1.833721
9.061348 -6.311106 -1.810445
9.112096 -6.347991 -1.558860
7.980309 -5.581108 -1.136615
21.830105 -15.034304 -2.479982
21.152229 -14.577263 -1.804960
28.055208 -19.303091 -1.601359
0.000341 -0.140789 -0.005630
28.150335 -19.389788 -0.017007
26.963005 -18.591751 0.741999
27.709480 -19.109756 1.549115
27.752838 -19.153708 2.335474
0.000341 -0.140789 -0.005630
0.000341 -0.140789 -0.005630
0.000341 -0.140789 -0.005630
0.000341 -0.140789 -0.005630
0.000341 -0.140789 -0.005630
0.498894 -0.483918 -0.364924
0.488332 -0.476894 -0.338905
2.940651 -2.168303 -1.906287
3.124269 -2.296551 -1.912937
3.324179 -2.436238 -1.919367
3.548358 -2.592930 -1.927663
3.779440 -2.753658 -1.926552
4.065651 -2.953657 -1.937989
4.389339 -3.179917 -1.950752
4.745532 -3.427845 -1.958331
5.168135 -3.723264 -1.970109
5.662546 -4.069000 -1.984231
6.238432 -4.470176 -1.996169
6.963889 -4.977303 -2.017533
7.938310 -5.658245 -2.063834
7.958930 -5.676723 -1.835555
8.087545 -5.714015 -1.622632
8.088228 -5.718662 -1.389761
7.975974 -5.643307 -1.140316
20.979710 -14.626158 -2.392689
20.950542 -14.616878 -1.794833
28.488440 -19.832884 -1.632186
56.432564 -39.178493 -1.621590
27.734793 -19.340668 -0.016841
26.833241 -18.723505 0.741308
27.777136 -19.391584 1.559148
27.575680 -19.266266 2.329823
0.000337 -0.140472 -0.005617
0.000337 -0.140472 -0.005617
0.000337 -0.140472 -0.005617
0.000337 -0.140472 -0.005617
0.000337 -0.140472 -0.005617
0.486969 -0.479665 -0.357765
0.479165 -0.474487 -0.333991
2.924218 -2.182369 -1.903453
3.104086 -2.309622 -1.908432
3.303083 -2.450430 -1.915069
3.544660 -2.620330 -1.933345
3.762364 -2.774652 -1.925764
4.056503 -2.982766 -1.941613
4.379437 -3.210235 -1.954159
4.733699 -3.461062 -1.961518
5.156137 -3.760148 -1.973669
5.638260 -4.100114 -1.983660
6.223719 -4.514575 -1.999699
6.947054 -5.024849 -2.020745
7.856804 -5.668655 -2.050902
7.872283 -5.683671 -1.822921
7.955610 -5.692694 -1.602792
7.969907 -5.704740 -1.374953
7.975739 -5.712977 -1.144947
20.795473 -14.681602 -2.381468
20.901165 -14.760977 -1.797741
28.470926 -20.071140 -1.637867
56.383362 -39.640800 -1.626790
30.935423 -21.820698 -0.018140
30.661093 -21.644449 0.851444
28.009081 -19.799070 1.578801
27.848783 -19.693874 2.362495
0.000332 -0.140154 -0.005605
0.000332 -0.140154 -0.005605
0.000332 -0.140154 -0.005605
0.000332 -0.140154 -0.005605
0.000332 -0.140154 -0.005605
0.484991 -0.482154 -0.357752
0.482940 -0.480929 -0.337898
2.913850 -2.199876 -1.904377
3.093011 -2.328162 -1.909313
3.288245 -2.468052 -1.914197
3.527322 -2.638283 -1.931700
3.751652 -2.799151 -1.928062
4.040081 -3.005745 -1.941595
4.360171 -3.233979 -1.953456
4.712955 -3.486847 -1.960859
5.138314 -3.791675 -1.974843
5.620046 -4.135555 -1.985297
6.196842 -4.548908 -1.999172
6.928326 -5.071222 -2.023495
7.786595 -5.686254 -2.040885
7.864212 -5.745725 -1.828464
7.939626 -5.749477 -1.606019
7.957137 -5.763939 -1.378279
7.966222 -5.774551 -1.148182
20.758524 -14.834158 -2.386839
20.696119 -14.795471 -1.787332
28.285572 -20.184790 -1.633788
28.334497 -20.234369 -0.823569
30.503391 -21.780605 -0.017969
26.915747 -19.249468 0.749858
26.996401 -19.320972 1.527781
27.200697 -19.473301 2.316857
0.000327 -0.139835 -0.005592
0.000327 -0.139835 -0.005592
0.000327 -0.139835 -0.005592
0.000327 -0.139835 -0.005592
0.000327 -0.139835 -0.005592
0.492802 -0.491617 -0.364884
0.485201 -0.486437 -0.340826
2.899055 -2.214250 -1.902482
3.083256 -2.347700 -1.911093
3.276256 -2.487671 -1.915036
3.517339 -2.661413 -1.934125
3.734765 -2.819319 -1.927273
4.018964 -3.025383 -1.939393
4.357523 -3.269691 -1.960285
4.695135 -3.514717 -1.961481
5.120309 -3.823097 -1.976017
5.603198 -4.172005 -1.987485
6.176055 -4.587589 -2.000674
6.896634 -5.108453 -2.022550
7.746583 -5.724965 -2.038781
7.855702 -5.807846 -1.834006
7.934471 -5.814302 -1.611521
7.948768 -5.826637 -1.382442
7.946565 -5.829254 -1.150020
20.699448 -14.971701 -2.389785
20.802717 -15.051245 -1.803836
28.228104 -20.388952 -1.637120
55.845070 -40.229813 -1.624331
30.456247 -22.011570 -0.017952
27.651161 -20.011789 0.773744
27.894323 -20.201376 1.585365
26.860540 -19.465002 2.297323
0.000320 -0.139514 -0.005579
0.000320 -0.139514 -0.005579
0.000320 -0.139514 -0.005579
0.000320 -0.139514 -0.005579
0.000320 -0.139514 -0.005579
0.479632 -0.486047 -0.356705
0.490257 -0.494013 -0.345714
2.889920 -2.232661 -1.904345
3.073380 -2.367197 -1.912872
3.262677 -2.506182 -1.915019
3.505705 -2.683460 -1.935737
3.728233 -2.846965 -1.931885
4.003772 -3.049267 -1.940104
4.333344 -3.289994 -1.957528
4.674087 -3.540266 -1.960823
5.102086 -3.854462 -1.977191
5.581422 -4.205031 -1.988018
6.151887 -4.623914 -2.001161
6.877352 -5.154635 -2.025300
7.760115 -5.802603 -2.050837
7.843562 -5.867740 -1.838807
7.927229 -5.878102 -1.616697
7.938344 -5.888256 -1.386326
7.942599 -5.895601 -1.154186
20.776484 -15.208433 -2.408579
20.532410 -15.036908 -1.787820
28.269445 -20.665894 -1.646271
27.669294 -20.244921 -0.810909
0.000315 -0.139197 -0.005566
26.989754 -19.772802 0.758320
27.684650 -20.293158 1.580044
26.727825 -19.603777 2.295561
0.000315 -0.139197 -0.005566
0.000315 -0.139197 -0.005566
0.000315 -0.139197 -0.005566
0.000315 -0.139197 -0.005566
0.000315 -0.139197 -0.005566
0.481788 -0.491529 -0.359754
0.492424 -0.499599 -0.348641
2.879252 -2.249981 -1.905268
3.060480 -2.384556 -1.912856
3.250428 -2.525701 -1.915860
3.493475 -2.706074 -1.937348
3.709594 -2.865892 -1.930325
3.992950 -3.076369 -1.942999
4.320638 -3.319776 -1.960249
4.665096 -3.574675 -1.965290
5.080599 -3.883468 -1.977173
5.560292 -4.240040 -1.989103
6.135309 -4.665830 -2.004184
6.855280 -5.200831 -2.027589
7.745234 -5.862196 -2.055813
7.845778 -5.940734 -1.847317
7.916342 -5.939660 -1.621224
7.924850 -5.950166 -1.389931
7.926930 -5.953854 -1.156723
20.721464 -15.351077 -2.412271
20.390594 -15.119171 -1.783158
28.326223 -20.957003 -1.656452
50.181858 -37.046841 -1.472258
0.000333 -0.138858 -0.005553
27.066217 -20.067490 0.763764
29.937284 -22.197618 1.716358
26.515509 -19.690657 2.287272
0.000333 -0.138858 -0.005553
0.000333 -0.138858 -0.005553
0.000333 -0.138858 -0.005553
0.000333 -0.138858 -0.005553
0.000333 -0.138858 -0.005553
0.475528 -0.491000 -0.356678
0.495865 -0.506355 -0.352549
2.869509 -2.268814 -1.907131
3.045679 -2.401279 -1.911942
3.240573 -2.547848 -1.918412
3.472768 -2.721471 -1.934075
3.697794 -2.890836 -1.932622
3.972457 -3.097469 -1.941526
4.306746 -3.347673 -1.962286
4.640072 -3.598576 -1.963350
5.058303 -3.913217 -1.977154
5.544282 -4.277424 -1.991843
6.111430 -4.704158 -2.005178
6.826024 -5.239898 -2.027568
7.713714 -5.907555 -2.056208
7.843703 -6.009053 -1.854714
7.951505 -6.037960 -1.635497
7.954866 -6.042596 -1.401069
7.913018 -6.015863 -1.159725
20.710732 -15.532850 -2.421556
20.360010 -15.277711 -1.788028
28.346457 -21.231720 -1.664850
49.334949 -36.876709 -1.453781
0.000329 -0.138540 -0.005541
26.710238 -20.050545 0.757034
27.258163 -20.473848 1.569217
0.000329 -0.138540 -0.005541
0.000329 -0.138540 -0.005541
0.000329 -0.138540 -0.005541
0.000329 -0.138540 -0.005541
0.000329 -0.138540 -0.005541
0.000329 -0.138540 -0.005541
0.480372 -0.498568 -0.361769
0.497932 -0.512012 -0.355476
2.854369 -2.282863 -1.905236
3.035446 -2.420616 -1.913722
3.228512 -2.566674 -1.919251
3.460763 -2.743297 -1.935686
3.681881 -2.911766 -1.932605
3.967781 -3.128247 -1.947333
4.288204 -3.372093 -1.962268
4.623689 -3.626410 -1.964613
5.041715 -3.944536 -1.978925
5.517275 -4.306658 -1.990720
6.090467 -4.741397 -2.006680
6.804295 -5.284671 -2.029856
7.681383 -5.950216 -2.056186
7.815484 -6.056016 -1.855805
7.892143 -6.064381 -1.630277
7.901719 -6.073727 -1.397699
7.912381 -6.086083 -1.164587
20.801540 -15.786827 -2.442586
20.304358 -15.418394 -1.790794
28.347395 -21.486835 -1.672028
48.603615 -36.755493 -1.438222
26.780003 -20.328476 -0.016470
27.192087 -20.654104 0.774197
27.077198 -20.574881 1.565377
0.000324 -0.138222 -0.005528
0.000324 -0.138222 -0.005528
0.000324 -0.138222 -0.005528
0.000324 -0.138222 -0.005528
0.000324 -0.138222 -0.005528
0.000324 -0.138222 -0.005528
0.475620 -0.498834 -0.359714
0.494434 -0.513424 -0.354483
2.849356 -2.303811 -1.909917
3.025503 -2.439371 -1.915501
3.220206 -2.589303 -1.922660
3.450058 -2.766190 -1.938112
3.670720 -2.935336 -1.934902
3.950485 -3.150738 -1.947316
4.270989 -3.397568 -1.962935
4.592979 -3.644615 -1.960109
5.025770 -3.977833 -1.981291
5.494715 -4.339202 -1.991252
6.065397 -4.777247 -2.007167
6.774531 -5.323462 -2.029835
7.652967 -6.000136 -2.057830
7.805190 -6.121095 -1.861718
7.884084 -6.127125 -1.635452
7.894194 -6.139201 -1.402420
7.904339 -6.149096 -1.168287
20.781958 -15.954294 -2.450565
20.323956 -15.616946 -1.800288
28.234070 -21.649345 -1.672356
47.838612 -36.612583 -1.421770
26.904963 -20.666452 -0.016524
0.000320 -0.137904 -0.005515
28.199024 -21.677301 1.637678
0.000320 -0.137904 -0.005515
0.000320 -0.137904 -0.005515
0.000320 -0.137904 -0.005515
0.000320 -0.137904 -0.005515
0.000320 -0.137904 -0.005515
0.000320 -0.137904 -0.005515
0.472109 -0.500277 -0.358680
0.494978 -0.518136 -0.356430
2.837849 -2.321439 -1.910841
3.013195 -2.458065 -1.916383
3.201325 -2.604722 -1.920074
3.431966 -2.783468 -1.936467
3.658442 -2.960125 -1.937200
3.932527 -3.173815 -1.947298
4.247682 -3.418345 -1.960863
4.572090 -3.671486 -1.960091
4.999865 -4.004940 -1.980080
5.474978 -4.373995 -1.992889
6.037749 -4.812847 -2.007147
6.750703 -5.366842 -2.031661
7.620613 -6.045003 -2.058224
7.792356 -6.182477 -1.866888
7.874988 -6.193944 -1.640953
7.884623 -6.203559 -1.406861
7.895289 -6.216171 -1.172219
20.761889 -16.134121 -2.459289
20.239212 -15.737072 -1.800671
31.551317 -24.473682 -1.876638
47.102184 -36.494762 -1.406260
0.000316 -0.137586 -0.005503
0.000316 -0.137586 -0.005503
0.000316 -0.137586 -0.005503
0.000316 -0.137586 -0.005503
0.000316 -0.137586 -0.005503
0.000316 -0.137586 -0.005503
0.000316 -0.137586 -0.005503
0.000316 -0.137586 -0.005503
0.000316 -0.137586 -0.005503
0.468636 -0.501627 -0.357646
0.494140 -0.521741 -0.357397
2.825242 -2.337411 -1.910824
2.998374 -2.473960 -1.915468
3.181353 -2.618360 -1.916633
3.416216 -2.803455 -1.936450
3.634843 -2.975160 -1.933325
3.916445 -3.197238 -1.948009
4.234076 -3.447789 -1.963583
4.548684 -3.695097 -1.958791
4.983534 -4.038046 -1.982446
5.455809 -4.410818 -1.995077
6.015287 -4.850805 -2.008648
6.714969 -5.402878 -2.030255
7.585428 -6.089794 -2.058202
7.776428 -6.244082 -1.871689
7.866452 -6.259483 -1.646454
7.875054 -6.270601 -1.411582
7.889923 -6.284414 -1.176616
20.700834 -16.277584 -2.462979
20.317751 -15.990338 -1.815911
28.396381 -22.301876 -1.697028
46.368896 -36.356461 -1.390562
52.033764 -40.810730 -0.026845
31.858118 -25.048861 0.920356
28.088436 -22.116922 1.646192
0.000311 -0.137269 -0.005490
0.000311 -0.137269 -0.005490
0.000311 -0.137269 -0.005490
0.000311 -0.137269 -0.005490
0.000311 -0.137269 -0.005490
0.000311 -0.137269 -0.005490
0.466461 -0.504084 -0.357633
0.490489 -0.523257 -0.356403
2.813504 -2.354927 -1.911748
2.985868 -2.492487 -1.916350
3.175085 -2.643594 -1.921754
3.405095 -2.826170 -1.938875
3.622287 -2.999786 -1.935622
3.901137 -3.222417 -1.949447
4.216391 -3.472984 -1.964250
4.539370 -3.731119 -1.963899
4.958803 -4.066043 -1.981831
5.431090 -4.441862 -1.995057
5.997832 -4.894502 -2.012178
6.696721 -5.450825 -2.033927
7.560213 -6.140358 -2.060678
7.762678 -6.305555 -1.876859
7.854797 -6.325263 -1.651629
7.862928 -6.333924 -1.415744
7.876699 -6.349257 -1.180082
20.357721 -16.204895 -2.433486
20.302834 -16.167353 -1.822740
31.380617 -24.931934 -1.883476
28.108906 -22.362787 -0.848996
28.111219 -22.372637 -0.017031
28.034927 -22.328253 0.813107
0.000307 -0.136951 -0.005477
28.519653 -22.736311 2.527229
0.000307 -0.136951 -0.005477
0.000307 -0.136951 -0.005477
17.098232 -13.710083 3.055416
0.000307 -0.136951 -0.005477
0.000307 -0.136951 -0.005477
0.463003 -0.505361 -0.356598
0.486876 -0.524680 -0.355410
2.799313 -2.369663 -1.910792
2.970849 -2.508215 -1.915435
3.159184 -2.660389 -1.920880
3.382405 -2.839723 -1.934788
3.601414 -3.016824 -1.933290
3.877494 -3.239849 -1.946517
4.197115 -3.496885 -1.964232
4.518607 -3.756872 -1.963881
4.939053 -4.096622 -1.983005
5.409223 -4.475139 -1.996141
5.970330 -4.928647 -2.012157
6.665999 -5.488990 -2.033906
7.527038 -6.184703 -2.061073
7.762245 -6.378169 -1.885368
7.900806 -6.435281 -1.668825
7.893686 -6.431880 -1.427718
7.873405 -6.420208 -1.184943
20.680277 -16.653358 -2.483222
20.323957 -16.374603 -1.832933
28.001081 -22.524460 -1.688864
44.969585 -36.117287 -1.361099
32.228233 -25.931969 -0.018730
28.136068 -22.672758 0.819885
18.083370 -14.631147 1.067823
28.108854 -22.675186 2.502281
0.000303 -0.136633 -0.005465
16.976938 -13.768717 2.533561
0.000303 -0.136633 -0.005465
0.000303 -0.136633 -0.005465
16.879099 -13.714457 4.068696
0.454181 -0.502297 -0.351481
0.481928 -0.524958 -0.353436
2.794646 -2.392085 -1.916413
2.957135 -2.524970 -1.915419
3.143191 -2.677086 -1.920008
3.371050 -2.862277 -1.937213
3.587633 -3.039521 -1.934816
3.862454 -3.264152 -1.947956
4.179149 -3.521868 -1.964899
4.510907 -3.793270 -1.969630
4.920615 -4.128285 -1.984775
5.393086 -4.513183 -1.999433
5.945636 -4.965071 -2.013151
6.644135 -5.534326 -2.036655
7.493605 -6.228860 -2.061466
7.742926 -6.436104 -1.889426
7.841352 -6.461778 -1.663929
7.841881 -6.464485 -1.424905
7.867988 -6.490093 -1.189573
20.671543 -16.841957 -2.493623
20.200632 -16.467224 -1.830231
28.500734 -23.193909 -1.726807
44.286106 -35.990368 -1.346628
31.794710 -25.886477 -0.018559
30.731960 -25.043573 0.900280
18.280449 -14.962506 1.084607
17.831839 -14.603867 1.592846
16.672331 -13.672771 1.991161
0.000298 -0.136316 -0.005452
0.000298 -0.136316 -0.005452
0.000298 -0.136316 -0.005452
0.000298 -0.136316 -0.005452
0.462722 -0.513286 -0.359634
0.479670 -0.527414 -0.353423
2.785703 -2.411178 -1.919215
2.946103 -2.543898 -1.917198
3.135504 -2.700544 -1.924272
3.360957 -2.885947 -1.940452
3.570866 -3.059803 -1.934798
3.844374 -3.286026 -1.947938
4.158134 -3.544363 -1.964195
4.489781 -3.818858 -1.969611
4.899028 -4.157441 -1.985352
5.366317 -4.542618 -1.998861
5.925202 -5.005053 -2.015666
6.618938 -5.577134 -2.038481
7.459891 -6.272851 -2.061860
7.729292 -6.498994 -1.894966
7.827729 -6.525227 -1.668779
7.842121 -6.539285 -1.431578
7.858963 -6.557593 -1.193736
20.516424 -16.912497 -2.486499
20.351788 -16.783813 -1.852476
31.088234 -25.584576 -1.891853
43.616413 -35.865650 -1.332486
31.874823 -26.256462 -0.018599
18.146679 -15.017153 0.531917
16.305973 -13.517184 0.971480
16.412790 -13.609653 1.472616
0.000316 -0.135977 -0.005439
0.000316 -0.135977 -0.005439
0.000316 -0.135977 -0.005439
0.000316 -0.135977 -0.005439
0.000316 -0.135977 -0.005439
0.461853 -0.516722 -0.360641
0.470700 -0.524278 -0.348508
2.771205 -2.425720 -1.918258
2.930800 -2.559366 -1.916283
3.117897 -2.715927 -1.922542
3.344573 -2.905521 -1.940434
3.563911 -3.088235 -1.940181
3.834759 -3.314933 -1.952288
4.137837 -3.568648 -1.964177
4.475783 -3.850380 -1.972796
4.880179 -4.188931 -1.987121
5.343026 -4.576517 -1.999945
5.903000 -5.043728 -2.017674
6.589524 -5.618477 -2.039382
7.424853 -6.317927 -2.062254
7.706490 -6.557005 -1.898652
7.818184 -6.592499 -1.674603
7.832996 -6.609344 -1.436854
7.850934 -6.626471 -1.198132
15.987050 -13.362767 -1.947898
16.006689 -13.388467 -1.465207
0.000308 -0.135655 -0.005426
16.039335 -13.429694 -0.495723
16.057604 -13.454300 -0.012066
16.061832 -13.462562 0.472479
16.084160 -13.490564 0.962818
16.097769 -13.511378 1.451403
16.108669 -13.529998 1.942352
16.141735 -13.562275 2.443084
16.142303 -13.572277 2.939471
16.162622 -13.598771 3.443639
16.172388 -13.611725 3.953830
0.454318 -0.514709 -0.356545
0.468374 -0.526752 -0.348494
2.764322 -2.447482 -1.922940
2.919099 -2.578696 -1.918063
3.105747 -2.735851 -1.924238
3.327161 -2.923247 -1.939603
3.539259 -3.103080 -1.936306
3.814971 -3.335435 -1.951542
4.119442 -3.593304 -1.964843
4.464466 -3.884308 -1.977263
4.856770 -4.216635 -1.987102
5.324713 -4.613086 -2.002684
5.871681 -5.074826 -2.016639
6.559340 -5.657257 -2.039822
7.396200 -6.364012 -2.063897
7.697562 -6.622416 -1.905306
7.806996 -6.661230 -1.680428
7.825959 -6.679444 -1.442411
7.841217 -6.696850 -1.202528
20.601295 -17.387114 -2.520905
20.236786 -17.087900 -1.859823
0.000304 -0.135337 -0.005414
31.209280 -26.307686 -0.963989
27.289892 -23.037092 -0.016716
29.960369 -25.296062 0.890506
17.697269 -15.002699 1.065101
0.000304 -0.135337 -0.005414
0.000304 -0.135337 -0.005414
0.000304 -0.135337 -0.005414
0.000304 -0.135337 -0.005414
0.000304 -0.135337 -0.005414
0.000304 -0.135337 -0.005414
0.449561 -0.514700 -0.354490
0.464850 -0.527912 -0.347501
0.481505 -0.542137 -0.340803
2.908142 -2.596944 -1.919842
3.089346 -2.752199 -1.923365
3.315231 -2.945586 -1.942028
3.525432 -3.124878 -1.937832
3.792201 -3.353433 -1.949340
4.100883 -3.617874 -1.965510
4.452919 -3.918214 -1.981730
4.836082 -4.246701 -1.988275
5.301774 -4.645840 -2.003768
5.846070 -5.110758 -2.017632
6.533357 -5.699667 -2.041648
7.359107 -6.407472 -2.063874
7.685849 -6.690615 -1.911960
7.797545 -6.727350 -1.686252
7.809309 -6.741993 -1.446293
7.833261 -6.764598 -1.206923
20.507666 -17.504150 -2.521237
20.257538 -17.304453 -1.870715
27.879766 -23.773233 -1.721539
41.673855 -35.493908 -1.291570
30.729609 -26.226528 -0.018149
18.408068 -15.770146 0.547688
17.731613 -15.206265 1.072448
17.573332 -15.082314 1.600491
0.000300 -0.135020 -0.005401
0.000300 -0.135020 -0.005401
0.000300 -0.135020 -0.005401
0.000300 -0.135020 -0.005401
0.000300 -0.135020 -0.005401
0.451212 -0.520401 -0.357539
0.465165 -0.532602 -0.349448
0.479071 -0.544673 -0.340790
2.894830 -2.615009 -1.920724
3.073759 -2.770166 -1.923348
3.300359 -2.965516 -1.942825
3.504818 -3.143030 -1.936272
3.775878 -3.377971 -1.950779
4.087882 -3.647238 -1.968915
4.431828 -3.945484 -1.982352
4.811603 -4.275002 -1.988256
5.275687 -4.675998 -2.003749
5.822308 -5.150088 -2.019640
6.499725 -5.735614 -2.041165
7.331734 -6.457109 -2.066351
7.674734 -6.757575 -1.918614
7.828763 -6.833485 -1.701498
7.826812 -6.834173 -1.456592
7.822451 -6.835192 -1.211320
20.425396 -17.643362 -2.523808
20.212837 -17.467274 -1.875721
27.761742 -23.957451 -1.722898
41.395035 -35.681641 -1.289387
0.000295 -0.134702 -0.005388
18.090576 -15.685857 0.540948
16.686184 -14.488758 1.014092
16.974306 -14.741754 1.553446
17.165047 -14.916381 2.100762
0.000295 -0.134702 -0.005388
0.000295 -0.134702 -0.005388
0.000295 -0.134702 -0.005388
0.000295 -0.134702 -0.005388
0.448986 -0.522668 -0.357526
