# This PCD file was generated using the MATLAB® pcwrite function
# from Computer Vision Toolbox®.
# .PCD v.7 - Point Cloud Data file format
VERSION .7
FIELDS x y z
SIZE 4 4 4
TYPE F F F
COUNT 1 1 1
WIDTH 1627
HEIGHT 1
VIEWPOINT 0 0 0 1 0 0 0
POINTS 1627
DATA ascii
-0.612603 1.437760 -0.816024
-1.394268 3.617238 -1.734573
-1.485400 3.875538 -1.729432
-1.589704 4.168736 -1.726201
-1.699536 4.480261 -1.715167
-1.834306 4.862204 -1.711405
-1.976948 5.263961 -1.696113
-2.153583 5.764592 -1.688777
-2.356159 6.335435 -1.673519
-2.611253 7.058088 -1.665859
-2.926857 7.952246 -1.657214
-3.338630 8.985538 -1.630015
-3.455773 9.315194 -1.445735
-3.955117 10.711441 -1.377419
-4.607692 12.536516 -1.285300
-5.649528 15.439600 -1.184446
-7.981799 21.947433 -1.121219
-11.016317 30.425774 -0.781659
-12.562856 34.752834 -0.026692
-4.479153 12.232270 0.292324
-0.001059 -0.264156 -0.009867
-3.632511 9.885787 0.739050
-3.813243 10.402368 1.041754
-0.001059 -0.264156 -0.009867
-4.205284 11.518082 1.742519
-8.931896 24.791142 4.347922
-0.001059 -0.264156 -0.009867
-0.195204 0.284051 -0.354940
-0.201149 0.301432 -0.347135
-0.221863 0.360294 -0.362258
-0.241013 0.415140 -0.371828
-0.321119 0.642816 -0.465501
-0.600958 1.436398 -0.813565
-1.372489 3.627258 -1.735323
-1.462156 3.886080 -1.730138
-1.566014 4.183438 -1.728233
-1.670930 4.486693 -1.713862
-1.801578 4.863989 -1.708397
-1.944442 5.273742 -1.695535
-2.117555 5.773536 -1.687735
-2.316191 6.343677 -1.672105
-2.568389 7.071465 -1.665411
-2.879496 7.969262 -1.657181
-3.293215 9.027232 -1.633880
-3.406498 9.352038 -1.448212
-3.905762 10.773654 -1.382269
-4.546501 12.598814 -1.288802
-5.570294 15.504150 -1.186780
-7.918221 22.176083 -1.130273
-10.817451 30.426786 -0.780003
-12.308498 34.675873 -0.026515
-4.132374 11.477283 0.273522
-3.680511 10.204514 0.502606
-3.620960 10.040473 0.748930
-3.732635 10.369946 1.036432
-0.001051 -0.263848 -0.009856
-4.149154 11.576037 1.747556
-0.001051 -0.263848 -0.009856
-4.220514 11.806007 2.393235
-0.189225 0.277335 -0.349824
-0.200177 0.309467 -0.351045
-0.214216 0.350177 -0.355667
-0.238848 0.421885 -0.374510
-0.311747 0.632996 -0.459492
-0.587286 1.429861 -0.808664
-1.349457 3.633651 -1.734530
-1.437003 3.891220 -1.728659
-1.535309 4.180515 -1.723416
-1.644150 4.498338 -1.714479
-1.773879 4.879997 -1.710162
-1.913415 5.290946 -1.697165
-2.082102 5.784119 -1.687200
-2.275685 6.353920 -1.671152
-2.522913 7.081326 -1.664130
-2.826112 7.973505 -1.654549
-3.239006 9.044479 -1.633520
-3.353287 9.383601 -1.449850
-3.831052 10.764368 -1.378270
-4.486067 12.664577 -1.292677
-5.502101 15.610753 -1.192201
-7.818265 22.306578 -1.134433
-10.617645 30.422741 -0.778253
-12.073531 34.669193 -0.026370
-4.246804 12.028479 0.286268
-3.968145 11.234338 0.551919
-3.667674 10.375196 0.771981
-3.668179 10.388432 1.036103
-3.752469 10.639135 1.333284
-4.232055 12.046537 1.813635
-0.001066 -0.263560 -0.009845
-4.290656 12.237553 2.474184
-0.187675 0.283631 -0.352874
-0.196771 0.310942 -0.351032
-0.208855 0.346728 -0.352835
-0.233630 0.420200 -0.372701
-0.309496 0.643623 -0.463762
-0.576922 1.431797 -0.807834
-1.324521 3.636655 -1.732194
-1.411862 3.896192 -1.727181
-1.510285 4.191370 -1.724078
-1.615487 4.504436 -1.713173
-1.741796 4.883181 -1.707751
-1.878333 5.293054 -1.694378
-2.045387 5.790805 -1.685651
-2.236903 6.365383 -1.670661
-2.481238 7.093740 -1.663683
-2.775064 7.974548 -1.651547
-3.181796 9.058241 -1.632507
-3.310463 9.440536 -1.455397
-3.780910 10.832344 -1.383816
-4.402859 12.672422 -1.290763
-5.409953 15.640583 -1.192007
-7.721482 22.462580 -1.139815
-10.407337 30.385208 -0.775700
-11.834882 34.628597 -0.026213
-4.190466 12.103003 0.287497
-3.767304 10.859909 0.532582
-3.553908 10.241472 0.760653
-3.593962 10.365659 1.031889
-3.697876 10.685329 1.336332
-8.422403 24.705530 3.681588
-3.781896 10.952847 1.929387
-0.001058 -0.263252 -0.009834
-0.186241 0.289873 -0.355924
-0.190800 0.304059 -0.346118
-0.209371 0.359896 -0.359401
-0.231517 0.426866 -0.375383
-0.301411 0.637110 -0.459466
-0.566572 1.433658 -0.807005
-1.303900 3.647781 -1.733716
-1.385516 3.897501 -1.724245
-1.483425 4.196724 -1.722685
-1.586205 4.508573 -1.711226
-1.711529 4.891612 -1.707130
-1.845683 5.302269 -1.693800
-2.009273 5.799112 -1.684609
-2.198680 6.378467 -1.670632
-2.435078 7.101211 -1.661985
-2.724904 7.987438 -1.650771
-3.132821 9.085524 -1.634098
-3.284691 9.549885 -1.468763
-3.724565 10.870534 -1.385872
-4.343811 12.736761 -1.294639
-5.317647 15.669879 -1.191813
-7.638080 22.636395 -1.146235
-10.216763 30.403200 -0.774566
-11.596503 34.584496 -0.026056
-4.221056 12.426265 0.294734
-3.803937 11.185091 0.547389
-3.501524 10.286674 0.762494
-3.782056 11.145115 1.106076
-3.664757 10.797246 1.347481
-9.041264 27.059278 4.021847
-0.001051 -0.262943 -0.009823
-8.968020 26.883831 5.363641
-0.183489 0.292903 -0.356933
-0.189595 0.312112 -0.350027
-0.205655 0.361439 -0.359388
-0.229625 0.435335 -0.378963
-0.297746 0.644336 -0.462022
-0.553947 1.428513 -0.802918
-1.280092 3.654002 -1.732923
-1.361390 3.907711 -1.724951
-1.455383 4.198351 -1.719923
-1.559039 4.521803 -1.712484
-1.679730 4.898349 -1.705912
-1.812420 5.309443 -1.692670
-1.972670 5.809386 -1.684074
-2.159198 6.387613 -1.669680
-2.387185 7.098677 -1.658204
-2.680358 8.012652 -1.652593
-3.071761 9.087370 -1.631135
-0.001043 -0.262635 -0.009812
-3.662767 10.905952 -1.387460
-4.253578 12.722872 -1.290672
-5.253714 15.785876 -1.198076
-7.541179 22.801243 -1.152086
-10.014138 30.400866 -0.772909
-11.373294 34.582550 -0.025920
-3.714978 11.130184 0.263128
-3.559040 10.664434 0.521037
-3.484548 10.441663 0.772377
-3.430041 10.286331 1.020134
-0.001043 -0.262635 -0.009812
-8.861744 27.043365 4.011942
-8.745238 26.715525 4.636768
-0.001043 -0.262635 -0.009812
-0.179242 0.290963 -0.354879
-0.185219 0.310168 -0.348054
-0.203153 0.366256 -0.361256
-0.226686 0.440351 -0.380747
-0.292509 0.646340 -0.462009
-0.544752 1.433715 -0.803717
-1.256385 3.658099 -1.731358
-1.335646 3.910464 -1.722744
-1.428518 4.203384 -1.718530
-1.530296 4.527404 -1.711178
-1.649965 4.908250 -1.705887
-1.779119 5.316439 -1.691540
-1.935900 5.815424 -1.682525
-2.118500 6.392825 -1.667803
-2.345348 7.114465 -1.658591
-2.627891 8.013274 -1.649591
-3.019066 9.108970 -1.631749
-3.245470 9.817663 -1.502753
-3.605071 10.947968 -1.389980
-4.206718 12.834676 -1.299212
-5.168528 15.838953 -1.199707
-7.421637 22.886456 -1.154081
-9.818487 30.399292 -0.771350
-11.127919 34.508732 -0.025751
-0.001035 -0.262327 -0.009801
-3.531304 10.795423 0.526429
-3.589628 10.984562 0.810543
-3.398261 10.397276 1.029049
-0.001035 -0.262327 -0.009801
-0.001035 -0.262327 -0.009801
-3.901786 12.013060 2.100579
-0.001035 -0.262327 -0.009801
-0.177603 0.297207 -0.357929
-0.182426 0.313198 -0.349022
-0.198449 0.364363 -0.359363
-0.221039 0.436818 -0.378040
-0.288892 0.653483 -0.464565
-0.534138 1.435468 -0.802887
-1.233229 3.663813 -1.730565
-1.310462 3.914847 -1.721266
-1.401442 4.210282 -1.717823
-1.501552 4.532824 -1.709873
-1.618463 4.912492 -1.704073
-1.745996 5.327187 -1.691514
-1.900855 5.826782 -1.682498
-2.078978 6.405572 -1.667774
-2.299803 7.122938 -1.657310
-2.578162 8.027143 -1.649186
-2.962679 9.118962 -1.630413
-3.227293 9.969254 -1.522259
-3.520744 10.906325 -1.382257
-4.150362 12.919760 -1.305139
-5.078879 15.888672 -1.201056
-7.316944 23.020594 -1.158522
-9.620787 30.388861 -0.769602
-10.901073 34.509548 -0.025616
-3.397606 10.579408 0.249044
-3.462779 10.800629 0.525732
-3.578176 11.183068 0.823479
-0.001050 -0.262039 -0.009791
-0.001050 -0.262039 -0.009791
-0.001050 -0.262039 -0.009791
-0.001050 -0.262039 -0.009791
-0.001050 -0.262039 -0.009791
-0.170222 0.285398 -0.349750
-0.177987 0.311231 -0.347049
-0.192660 0.359064 -0.355592
-0.217396 0.440136 -0.378925
-0.282919 0.653755 -0.463695
-0.522208 1.431827 -0.799615
-1.209362 3.669607 -1.729772
-1.285117 3.921060 -1.720515
-1.377295 4.223986 -1.719854
-1.471410 4.536516 -1.707926
-1.587719 4.922315 -1.704047
-1.712653 5.333775 -1.690384
-1.864706 5.838243 -1.682471
-2.039968 6.415880 -1.667283
-2.256649 7.134501 -1.656862
-2.527508 8.032763 -1.647297
-2.905205 9.131032 -1.629401
-3.209830 10.122313 -1.542044
-3.474913 10.993755 -1.390363
-4.076185 12.957769 -1.306399
-4.995180 15.948462 -1.203248
-7.202760 23.142189 -1.162303
-9.413497 30.363518 -0.767474
-10.660126 34.440128 -0.025452
-0.001043 -0.261731 -0.009780
-3.336784 10.624529 0.516266
-0.001043 -0.261731 -0.009780
-3.153977 10.046487 0.991219
-3.215902 10.261740 1.272194
-0.001043 -0.261731 -0.009780
-3.748780 12.028215 2.095493
-3.567170 11.446904 2.290832
-0.168555 0.291611 -0.352800
-0.173666 0.309213 -0.345075
-0.191632 0.368913 -0.360278
-0.211810 0.436534 -0.376218
-0.277640 0.655667 -0.463682
-0.509794 1.426371 -0.795528
-1.186184 3.675026 -1.728979
-1.261546 3.930474 -1.721222
-1.350364 4.228539 -1.718462
-1.443203 4.543399 -1.707261
-1.557290 4.929843 -1.703426
-1.680400 5.343845 -1.690359
-1.827875 5.843626 -1.680921
-2.002051 6.429671 -1.667717
-2.212333 7.142056 -1.655582
-2.478585 8.043704 -1.646523
-2.849346 9.142244 -1.628390
-3.191853 10.279305 -1.562387
-3.419233 11.044302 -1.394047
-4.046601 13.135742 -1.321470
-4.907505 15.996360 -1.204598
-7.093219 23.267748 -1.166367
-9.206408 30.316065 -0.764875
-10.429560 34.399742 -0.025304
-3.663624 11.926858 0.280244
-0.001035 -0.261423 -0.009769
-3.624969 11.820360 0.866823
-3.068843 9.978929 0.982936
-0.001035 -0.261423 -0.009769
-0.001035 -0.261423 -0.009769
-0.001035 -0.261423 -0.009769
-3.492392 11.443044 2.286071
-0.168285 0.302776 -0.358913
-0.170378 0.310499 -0.345063
-0.188982 0.373705 -0.362145
-0.208288 0.439758 -0.377103
-0.272865 0.659283 -0.464525
-0.502360 1.438422 -0.799584
-1.165046 3.687414 -1.731272
-1.238436 3.941542 -1.722656
-1.323159 4.234978 -1.717754
-1.414438 4.548298 -1.705955
-1.525204 4.931711 -1.701015
-1.645470 5.348500 -1.688676
-1.793232 5.856206 -1.681402
-1.962856 6.443602 -1.668150
-2.166716 7.149725 -1.654301
-2.424296 8.041596 -1.643148
-2.792903 9.151225 -1.627054
-3.173696 10.448363 -1.584404
-3.351248 11.054584 -1.392843
-3.981810 13.201126 -1.325530
-4.786081 15.941314 -1.198366
-6.997192 23.442625 -1.172875
-9.008120 30.294071 -0.762940
-10.199994 34.380737 -0.025162
-3.586587 11.925042 0.279740
-3.226966 10.716485 0.518930
-3.408262 11.348016 0.831091
-0.001027 -0.261114 -0.009758
-0.001027 -0.261114 -0.009758
-0.001027 -0.261114 -0.009758
-0.001027 -0.261114 -0.009758
-0.001027 -0.261114 -0.009758
-0.164946 0.304052 -0.358901
-0.167458 0.313479 -0.346031
-0.183247 0.368330 -0.358374
-0.204616 0.442999 -0.377989
-0.267047 0.659408 -0.463655
-0.495082 1.450373 -0.803640
-1.140065 3.689237 -1.728936
-1.214208 3.948907 -1.722634
-1.295698 4.237395 -1.715677
-1.385674 4.553017 -1.704650
-1.494223 4.937036 -1.699798
-1.612076 5.354488 -1.687546
-1.756374 5.861151 -1.679853
-1.923652 6.453245 -1.667659
-2.123678 7.156371 -1.653021
-2.376810 8.051529 -1.642374
-2.734252 9.158458 -1.625392
-3.174292 10.681700 -1.615913
-3.293434 11.107009 -1.396759
-3.893553 13.196130 -1.322683
-4.715416 16.047478 -1.204068
-6.872500 23.539686 -1.175526
-8.813150 30.280430 -0.761241
-9.969868 34.333496 -0.025013
-0.001042 -0.260827 -0.009748
-3.120049 10.583515 0.511677
-3.326467 11.315977 0.827389
-2.982567 10.125198 0.993738
-0.001042 -0.260827 -0.009748
-0.001042 -0.260827 -0.009748
-0.001042 -0.260827 -0.009748
-3.510186 12.017938 2.390716
-0.158952 0.295350 -0.352763
-0.163788 0.313012 -0.345039
-0.180222 0.371329 -0.359301
-0.199234 0.439258 -0.375282
-0.264364 0.669878 -0.467924
-0.489000 1.465709 -0.809324
-1.117475 3.694077 -1.728143
-1.189151 3.950557 -1.720428
-1.272582 4.252108 -1.718393
-1.358244 4.559167 -1.703985
-1.465687 4.947437 -1.700370
-1.581215 5.365554 -1.688073
-1.720052 5.863729 -1.677797
-1.885609 6.462304 -1.667169
-2.082230 7.168410 -1.652991
-2.327711 8.055505 -1.640486
-2.683223 9.179581 -1.626332
-3.107188 10.678596 -1.612803
-3.245634 11.180929 -1.403470
-3.833533 13.271611 -1.327863
-4.648181 16.158318 -1.210191
-6.730788 23.547232 -1.173950
-8.629423 30.283283 -0.760017
-9.888408 34.785439 -0.025087
-9.831632 34.629597 0.816565
-2.943018 10.187601 0.491866
-3.068937 10.648988 0.777924
-0.001034 -0.260518 -0.009737
-0.001034 -0.260518 -0.009737
-0.001034 -0.260518 -0.009737
-0.001034 -0.260518 -0.009737
-0.001034 -0.260518 -0.009737
-0.157491 0.303215 -0.356834
-0.158970 0.309249 -0.342084
-0.176467 0.372693 -0.359288
-0.197924 0.451077 -0.380657
-0.259648 0.675255 -0.469623
-0.481678 1.479440 -0.814194
-1.094483 3.702722 -1.728893
-1.164398 3.961637 -1.721861
-1.244789 4.256259 -1.717000
-1.330280 4.573167 -1.705884
-1.432322 4.951086 -1.698555
-1.545252 5.365882 -1.685286
-1.682621 5.874419 -1.677769
-1.843107 6.464305 -1.664830
-2.032685 7.166203 -1.649626
-2.276344 8.067986 -1.640081
-2.626091 9.191851 -1.625645
-3.042758 10.699055 -1.613041
-3.197315 11.271122 -1.412041
-3.743609 13.259886 -1.324456
-4.551725 16.189775 -1.210415
-6.556956 23.469587 -1.168140
-8.424623 30.270187 -0.758314
-9.518145 34.255745 -0.024726
-0.001030 -0.260206 -0.009726
-2.866446 10.159439 0.489689
-2.889948 10.251751 0.748010
-3.023254 10.751452 1.050781
-3.096159 11.032089 1.354561
-0.001030 -0.260206 -0.009726
-0.001030 -0.260206 -0.009726
-0.001030 -0.260206 -0.009726
-0.153354 0.301080 -0.354780
-0.158419 0.320553 -0.347954
-0.173280 0.375698 -0.360216
-0.192891 0.449052 -0.378848
-0.250954 0.664820 -0.463615
-0.472601 1.486013 -0.815807
-1.071646 3.709256 -1.728872
-1.139092 3.964979 -1.720383
-1.218742 4.263668 -1.716977
-1.301459 4.577371 -1.704579
-1.401800 4.957698 -1.697934
-1.511842 5.371264 -1.684157
-1.646745 5.882456 -1.677234
-1.802341 6.467586 -1.662954
-1.989890 7.178079 -1.649596
-2.229871 8.086951 -1.641162
-2.569547 9.199498 -1.624309
-2.966612 10.668928 -1.606022
-3.145908 11.345256 -1.418750
-3.666215 13.283433 -1.324597
-4.458493 16.221781 -1.210783
-6.418107 23.499537 -1.167691
-8.260110 30.360973 -0.759263
-9.302561 34.248482 -0.024597
-3.230036 11.735888 0.273532
-9.390072 34.667542 1.661835
-2.837648 10.299344 0.750267
-2.911797 10.590103 1.033620
-0.001022 -0.259898 -0.009715
-0.001022 -0.259898 -0.009715
-0.001022 -0.259898 -0.009715
-0.001022 -0.259898 -0.009715
-0.153202 0.313892 -0.361914
-0.154639 0.320056 -0.346962
-0.169596 0.377003 -0.360203
-0.187430 0.445269 -0.376141
-0.245627 0.666543 -0.463602
-0.460358 1.482030 -0.812534
-1.048772 3.715659 -1.728851
-1.115222 3.973567 -1.721089
-1.192839 4.274751 -1.718324
-1.273090 4.583262 -1.703914
-1.370265 4.960455 -1.696119
-1.477911 5.378578 -1.683578
-1.609872 5.886524 -1.675685
-1.762392 6.478461 -1.662925
-1.946703 7.193847 -1.650398
-2.179302 8.096540 -1.640386
-2.515037 9.214430 -1.624274
-2.898684 10.675139 -1.604307
-0.001015 -0.259589 -0.009704
-3.608014 13.379701 -1.331828
-4.374880 16.302259 -1.214657
-4.847111 18.102682 -0.903212
-0.001015 -0.259589 -0.009704
-4.826251 18.074055 -0.017549
-3.193973 11.880262 0.276537
-4.809329 18.047277 0.865130
-2.776958 10.324018 0.750861
-2.852914 10.628675 1.035695
-2.872330 10.710128 1.311587
-0.001015 -0.259589 -0.009704
-0.001015 -0.259589 -0.009704
-0.001015 -0.259589 -0.009704
-0.146331 0.301782 -0.353734
-0.149870 0.316211 -0.344008
-0.164928 0.374878 -0.358311
-0.182802 0.444931 -0.375231
-0.238471 0.661249 -0.460163
-0.452141 1.492027 -0.815776
-1.026537 3.727480 -1.731144
-1.090341 3.978433 -1.720339
-1.166230 4.280035 -1.717617
-1.244695 4.588988 -1.703249
-1.339707 4.966710 -1.695498
-1.444449 5.383586 -1.682448
-1.573968 5.894122 -1.675151
-1.722587 6.485036 -1.661972
-1.904067 7.201125 -1.649535
-2.129691 8.097456 -1.638127
-2.456796 9.221848 -1.622937
-2.831669 10.676635 -1.602034
-3.127327 11.835714 -1.473601
-3.542935 13.462877 -1.337752
-4.317804 16.476223 -1.225408
-6.118927 23.492315 -1.163595
-7.864524 30.290085 -0.755065
-8.852621 34.177299 -0.024316
-8.928620 34.521881 0.809229
-0.001030 -0.259302 -0.009693
-0.001030 -0.259302 -0.009693
-2.844922 10.851143 1.055524
-2.811578 10.736395 1.312784
-0.001030 -0.259302 -0.009693
-0.001030 -0.259302 -0.009693
-0.001030 -0.259302 -0.009693
-0.145746 0.312873 -0.359848
-0.147501 0.320723 -0.345957
-0.162682 0.381220 -0.361117
-0.179288 0.447983 -0.376116
-0.231846 0.657643 -0.457581
-0.439822 1.486040 -0.811690
-1.003349 3.729881 -1.729580
-1.065471 3.983130 -1.719589
-1.138242 4.279684 -1.714855
-1.218129 4.601894 -1.705149
-1.310982 4.980191 -1.697264
-1.410998 5.388380 -1.681319
-1.538989 5.905248 -1.675632
-1.683717 6.495146 -1.661944
-1.857883 7.204993 -1.647838
-2.081025 8.114054 -1.638836
-2.402349 9.229989 -1.621927
-2.763788 10.673862 -1.599203
-3.130254 12.132555 -1.507311
-3.481837 13.544530 -1.343677
-4.209156 16.452761 -1.221845
-0.001022 -0.258993 -0.009682
-7.678217 30.294458 -0.753982
-8.633718 34.146526 -0.024181
-3.012096 11.750063 0.272701
-0.001022 -0.258993 -0.009682
-2.921537 11.422394 0.827361
-2.839229 11.109649 1.078686
-2.710212 10.600434 1.294535
-0.001022 -0.258993 -0.009682
-0.001022 -0.258993 -0.009682
-15.729917 63.015293 12.247091
-0.139043 0.300676 -0.351668
-0.144057 0.321885 -0.345944
-0.156766 0.373904 -0.356406
-0.174659 0.447599 -0.375205
-0.228553 0.668079 -0.461849
-0.428889 1.485297 -0.810046
-0.980991 3.741430 -1.731873
-1.039823 3.987881 -1.718838
-1.112530 4.288290 -1.715517
-1.187470 4.601972 -1.702561
-1.277605 4.978909 -1.694256
-1.377537 5.392982 -1.680189
-1.500534 5.907073 -1.673575
-1.642948 6.497473 -1.660068
-1.816253 7.221571 -1.649057
-2.031832 8.122389 -1.638061
-2.342704 9.230957 -1.619616
-0.001014 -0.258685 -0.009672
-3.127908 12.440534 -1.542181
-3.419355 13.644537 -1.351279
-4.139979 16.587458 -1.229789
-5.816861 23.447346 -1.157905
-7.486806 30.298992 -0.752897
-8.417382 34.122139 -0.024050
-8.539310 34.671555 0.810572
-8.788694 35.744816 1.703530
-2.815908 11.282324 0.816167
-2.795858 11.217044 1.087421
-2.674838 10.736291 1.308928
-8.871531 36.243954 5.254211
-0.001014 -0.258685 -0.009672
-15.611565 64.169899 12.452717
-0.137423 0.308458 -0.355739
-0.140317 0.321295 -0.344952
-0.153531 0.376810 -0.357334
-0.170176 0.447148 -0.374294
-0.222777 0.667933 -0.460979
-0.419685 1.491593 -0.811659
-0.959637 3.754505 -1.734938
-1.014055 3.988662 -1.716632
-1.085893 4.293090 -1.714810
-1.160777 4.614558 -1.704460
-1.247415 4.986487 -1.694232
-1.344088 5.397371 -1.679060
-1.464569 5.914016 -1.673041
-1.602229 6.499537 -1.658192
-1.771330 7.224602 -1.647360
-1.982190 8.128504 -1.636915
-2.287546 9.242681 -1.619255
-2.635375 10.695937 -1.597729
-3.085803 12.588045 -1.557733
-3.342493 13.677839 -1.352539
-4.046608 16.626842 -1.230857
-5.672812 23.449659 -1.156329
-7.296767 30.283558 -0.751390
-8.200661 34.092533 -0.023917
-8.351444 34.776855 0.811997
-8.534945 35.600777 1.694398
-2.778013 11.418993 0.824808
-0.001007 -0.258377 -0.009661
-2.623386 10.802067 1.314986
-8.744745 36.647404 5.305108
-0.001007 -0.258377 -0.009661
-0.001007 -0.258377 -0.009661
-0.134938 0.312890 -0.357769
-0.137766 0.325789 -0.346900
-0.153098 0.391723 -0.364839
-0.166117 0.448405 -0.374282
-0.215392 0.660691 -0.456684
-0.408352 1.488944 -0.809201
-0.472954 1.769056 -0.879999
-0.991685 4.003806 -1.720251
-1.058798 4.295922 -1.713417
-1.131839 4.617772 -1.703155
-1.216331 4.990160 -1.693014
-1.312350 5.409074 -1.680138
-1.427238 5.915125 -1.670985
-1.563711 6.510859 -1.658625
-1.727336 7.231162 -1.646497
-1.930756 8.126688 -1.634285
-2.231442 9.250230 -1.618245
-2.565003 10.680390 -1.593223
-3.016730 12.627194 -1.560248
-3.275309 13.753399 -1.357903
-3.955655 16.677364 -1.232767
-5.531664 23.462770 -1.155317
-7.108059 30.270853 -0.749978
-7.981866 34.049877 -0.023781
-8.183923 34.972683 0.815566
-8.247066 35.299297 1.677876
-0.000999 -0.258069 -0.009650
-12.048427 51.810272 4.954819
-2.572165 10.871481 1.321508
-8.543642 36.747620 5.312431
-8.560891 36.879810 6.236189
-0.000999 -0.258069 -0.009650
-0.130507 0.308915 -0.354694
-0.134787 0.328570 -0.347868
-0.147375 0.384301 -0.360127
-0.161639 0.447914 -0.373371
-0.210883 0.665751 -0.458384
-0.398274 1.491574 -0.809185
-0.462895 1.779250 -0.883070
-0.967137 4.009734 -1.720230
-1.032154 4.300397 -1.712710
-1.103736 4.624513 -1.703132
-1.186072 4.997390 -1.692990
-1.279267 5.414962 -1.679561
-1.392516 5.927314 -1.671973
-1.525552 6.523852 -1.659521
-1.684179 7.241282 -1.646467
-1.882449 8.137959 -1.634253
-2.176194 9.261312 -1.617884
-2.499332 10.683687 -1.591509
-2.939822 12.633037 -1.558808
-3.224605 13.904370 -1.370543
-3.886811 16.826624 -1.241832
-5.382131 23.438036 -1.152520
-6.921089 30.262815 -0.748708
-7.841157 34.347198 -0.023784
-8.062953 35.382263 0.824154
-8.133261 35.749893 1.697100
-0.001014 -0.257781 -0.009639
-0.001014 -0.257781 -0.009639
-2.516309 10.923230 1.325947
-8.436375 37.268009 5.380261
-8.401330 37.171421 6.277051
-0.001014 -0.257781 -0.009639
-0.127218 0.309974 -0.354681
-0.132544 0.334736 -0.350797
-0.142150 0.378534 -0.356357
-0.159122 0.456106 -0.376951
-0.204795 0.663704 -0.456658
-0.389065 1.499560 -0.811612
-0.449559 1.774978 -0.879967
-0.941342 4.010078 -1.718023
-1.005071 4.306760 -1.712687
-1.074381 4.625536 -1.701185
-1.154982 5.000695 -1.691772
-1.245173 5.420876 -1.678983
-1.356451 5.933649 -1.671438
-1.484047 6.527376 -1.658106
-1.639653 7.251443 -1.646436
-1.829666 8.135841 -1.631622
-2.119635 9.266272 -1.616549
-2.432638 10.690903 -1.590353
-2.867276 12.657792 -1.559695
-3.232166 14.325435 -1.409116
-3.803476 16.931494 -1.247669
-5.253763 23.506010 -1.154233
-6.722790 30.200953 -0.746163
-7.549616 34.002789 -0.023523
-7.938393 35.795513 0.832835
-0.001006 -0.257473 -0.009628
-11.759564 53.325066 3.804573
-11.372342 51.644684 4.926255
-8.332426 37.799580 4.530627
-8.300270 37.714352 5.437272
-11.330672 51.663830 8.699885
-0.001006 -0.257473 -0.009628
-0.123121 0.307655 -0.352627
-0.129023 0.335813 -0.350785
-0.139109 0.383123 -0.358223
-0.154501 0.455594 -0.376040
-0.200456 0.670509 -0.459214
-0.380106 1.507412 -0.814040
-0.437874 1.779715 -0.880722
-0.915994 4.015898 -1.718001
-0.979163 4.314610 -1.713349
-1.045371 4.632142 -1.701161
-1.123751 5.007766 -1.691747
-1.211254 5.422608 -1.677301
-1.318090 5.934309 -1.669382
-1.443737 6.530398 -1.656693
-1.595963 7.259161 -1.645989
-1.779673 8.138845 -1.630105
-2.059315 9.261640 -1.613587
-2.367873 10.697289 -1.589197
-2.788067 12.663240 -1.558253
-3.346819 15.279039 -1.498620
-0.000999 -0.257164 -0.009617
-5.104275 23.498007 -1.152280
-5.094976 23.493942 -0.583155
-7.353456 34.051857 -0.023426
-7.800035 36.196186 0.841202
-11.296826 52.628170 2.490957
-0.000999 -0.257164 -0.009617
-8.248446 38.451557 3.667096
-8.158956 38.095413 4.560143
-10.811464 50.606571 7.277658
-0.000999 -0.257164 -0.009617
-13.305066 62.548481 12.060059
-0.121995 0.318743 -0.358740
-0.124876 0.333443 -0.348811
-0.133602 0.375576 -0.353512
-0.149283 0.451534 -0.373333
-0.194001 0.666636 -0.456631
-0.371421 1.517033 -0.817281
-0.428394 1.793340 -0.885336
-0.890984 4.019582 -1.717250
-0.951670 4.314952 -1.711272
-1.015664 4.630954 -1.698574
-1.093410 5.014452 -1.691723
-1.179291 5.433566 -1.678380
-1.283189 5.945895 -1.670370
-1.403428 6.533195 -1.655278
-1.552245 7.266620 -1.645542
-1.732458 8.155051 -1.631186
-2.003657 9.269774 -1.612902
-2.302319 10.699401 -1.587484
-0.000991 -0.256856 -0.009606
-3.256046 15.292527 -1.498009
-3.996138 18.843607 -1.381820
-4.926546 23.331747 -1.142813
-4.786324 22.699152 -0.563210
-4.785099 22.712202 -0.018781
-0.000991 -0.256856 -0.009606
-10.938902 52.436375 2.479000
-10.880690 52.199421 3.715526
-8.034662 38.543564 3.671462
-10.705721 51.532444 6.153844
-10.654157 51.325840 7.371897
-10.212636 49.272720 8.278690
-12.946728 62.641666 12.063558
-0.118332 0.318056 -0.357707
-0.121812 0.336174 -0.349779
-0.132782 0.390472 -0.361017
-0.147702 0.464934 -0.379607
-0.187599 0.662731 -0.454049
-0.362339 1.526670 -0.820522
-0.419507 1.810548 -0.891492
-0.867080 4.028602 -1.718685
-0.924517 4.320833 -1.711249
-0.987860 4.638897 -1.699191
-1.063034 5.020967 -1.691699
-1.144758 5.436993 -1.677250
-1.247073 5.951585 -1.669836
-1.363879 6.545525 -1.656173
-1.507965 7.277921 -1.645928
-1.679840 8.151983 -1.628555
-1.945597 9.265996 -1.610267
-2.236062 10.707373 -1.586606
-2.630739 12.654229 -1.553278
-3.170810 15.332790 -1.500010
-0.000987 -0.256544 -0.009595
-4.817236 23.491203 -1.149036
-4.529084 22.109322 -0.548273
-4.502141 22.015158 -0.018422
-8.182294 40.258900 0.933978
-0.000987 -0.256544 -0.009595
-10.322872 51.038898 3.628825
-10.331563 51.172264 4.863788
-10.028117 49.704239 5.929404
-10.065846 49.980427 7.170799
-9.934449 49.412075 8.292095
-10.075806 50.161903 9.656898
-0.111903 0.303871 -0.348507
-0.116942 0.330340 -0.345845
-0.127235 0.382881 -0.356306
-0.143059 0.464353 -0.378696
-0.183537 0.671218 -0.457461
-0.352768 1.532611 -0.822135
-0.407940 1.816925 -0.893019
-0.840913 4.030323 -1.717206
-0.897432 4.322680 -1.709857
-0.958808 4.644959 -1.699168
-1.031334 5.025609 -1.691077
-1.111930 5.443809 -1.677224
-1.209457 5.955393 -1.668794
-1.321331 6.536386 -1.651988
-1.463804 7.282939 -1.645065
-1.633609 8.173412 -1.630749
-1.888284 9.273812 -1.609580
-2.171744 10.714527 -1.585730
-2.557549 12.687453 -1.555328
-3.074799 15.334038 -1.498280
-3.740154 18.725201 -1.369916
-4.683169 23.554966 -1.150654
-4.276130 21.523964 -0.533479
-4.248707 21.403168 -0.018103
-4.362026 22.020992 0.508682
-0.001001 -0.256257 -0.009585
-10.169139 51.824287 3.680441
-0.001001 -0.256257 -0.009585
-9.731890 49.765083 5.929777
-9.769938 50.004791 7.166220
-9.573459 49.083160 8.227860
-9.703600 49.844784 9.584980
-0.107700 0.299738 -0.345432
-0.113899 0.333004 -0.346813
-0.124198 0.387384 -0.358173
-0.136890 0.454933 -0.373294
-0.176500 0.663679 -0.453166
-0.341081 1.527742 -0.818863
-0.398054 1.830423 -0.897632
-0.815507 4.031744 -1.715728
-0.870342 4.324386 -1.708465
-0.930214 4.648838 -1.698504
-1.000176 5.028022 -1.689860
-1.079082 5.450420 -1.677199
-1.173674 5.962548 -1.668768
-1.285432 6.561394 -1.656116
-1.419648 7.287690 -1.644202
-1.582876 8.171377 -1.628491
-1.833013 9.282876 -1.609221
-2.107395 10.721330 -1.584854
-2.479599 12.684712 -1.553189
-2.972987 15.289212 -1.492260
-3.631145 18.748695 -1.369996
-4.056572 21.014956 -1.027718
-3.999234 20.753031 -0.514301
-4.010716 20.832232 -0.017805
-4.109509 21.391890 0.493546
-0.000994 -0.255948 -0.009574
-0.000994 -0.255948 -0.009574
-0.000994 -0.255948 -0.009574
-9.418635 49.687840 5.914170
-9.430099 49.793842 7.128329
-9.262165 48.994217 8.204059
-0.000994 -0.255948 -0.009574
-0.106084 0.309088 -0.350524
-0.109551 0.328805 -0.343860
-0.119862 0.384899 -0.356282
-0.133440 0.459525 -0.375078
-0.170524 0.661438 -0.451440
-0.330130 1.526390 -0.817219
-0.387387 1.840222 -0.900702
-0.789788 4.031176 -1.713522
-0.843935 4.329635 -1.708442
-0.901932 4.654432 -1.698480
-0.969383 5.032118 -1.689239
-1.046213 5.456829 -1.677174
-1.137482 5.967612 -1.668234
-1.242303 6.547930 -1.651008
-1.376514 7.297982 -1.644588
-1.536054 8.190339 -1.630313
-1.776597 9.285820 -1.607885
-2.042333 10.723851 -1.583420
-2.401050 12.677590 -1.550586
-2.882691 15.302458 -1.491836
-3.512561 18.720549 -1.366430
-3.800096 20.313351 -0.992993
-3.778130 20.233311 -0.501214
-3.799729 20.369444 -0.017552
-3.886811 20.882557 0.481238
-0.000986 -0.255640 -0.009563
-0.000986 -0.255640 -0.009563
-9.145500 49.725883 4.711382
-8.941362 48.703838 5.791358
-9.734993 53.099628 7.591770
-8.973780 49.021786 8.199989
-9.057375 49.576672 9.513193
-0.103114 0.311697 -0.351532
-0.107405 0.336596 -0.347769
-0.116169 0.385878 -0.356269
-0.128389 0.455286 -0.372372
-0.167465 0.675158 -0.457421
-0.318895 1.523169 -0.814761
-0.375618 1.844548 -0.901457
-0.764430 4.032288 -1.712044
-0.817850 4.336565 -1.709105
-0.872991 4.656103 -1.697175
-0.938924 5.037907 -1.689215
-1.012293 5.457383 -1.675492
-1.100609 5.968647 -1.666685
-1.203099 6.555274 -1.650980
-1.333338 7.308002 -1.644975
-1.485363 8.187717 -1.628055
-1.720210 9.288432 -1.606550
-1.976962 10.724037 -1.581706
-2.322314 12.668040 -1.547750
-2.789168 15.297549 -1.489734
-3.397244 18.707373 -1.363987
-3.610917 19.939905 -0.974051
-3.586331 19.841671 -0.491244
-0.000979 -0.255332 -0.009552
-0.000979 -0.255332 -0.009552
-0.000979 -0.255332 -0.009552
-0.000979 -0.255332 -0.009552
-0.000979 -0.255332 -0.009552
-8.785758 49.470787 5.876240
-9.001396 50.740353 7.248250
-8.880231 50.153629 8.379989
-8.916593 50.460693 9.672243
-0.100439 0.315966 -0.353562
-0.105197 0.344364 -0.351678
-0.113367 0.392064 -0.359075
-0.125207 0.461596 -0.375053
-0.159338 0.660369 -0.449701
-0.307727 1.521715 -0.813118
-0.367293 1.868783 -0.910700
-0.740691 4.042411 -1.714207
-0.789324 4.334221 -1.706343
-0.844361 4.659490 -1.696511
-0.908739 5.045414 -1.689787
-0.980303 5.474973 -1.678778
-1.065404 5.978993 -1.667673
-1.161698 6.556828 -1.649566
-1.286795 7.306442 -1.642862
-1.434897 8.194757 -1.627651
-1.663194 9.286809 -1.604566
-1.909066 10.720265 -1.579434
-2.245116 12.665856 -1.545844
-2.696162 15.294025 -1.487818
-3.279915 18.699968 -1.361963
-0.000971 -0.255024 -0.009541
-0.000971 -0.255024 -0.009541
-0.000971 -0.255024 -0.009541
-3.467907 19.907742 0.457756
-0.000971 -0.255024 -0.009541
-8.640138 50.192963 3.550164
-8.551107 49.774994 4.706480
-8.340782 48.592640 5.766619
-8.416557 49.137424 7.012986
-8.424153 49.283436 8.226792
-8.665195 50.751759 9.718208
-0.096774 0.315142 -0.352529
-0.099615 0.333243 -0.344803
-0.109529 0.393019 -0.359063
-0.121830 0.467918 -0.377734
-0.155690 0.672292 -0.454826
-0.296880 1.520160 -0.811474
-0.354372 1.869412 -0.909912
-0.715165 4.047041 -1.714185
-0.762866 4.339006 -1.706321
-0.814875 4.662844 -1.695846
-0.876643 5.047253 -1.688570
-0.945412 5.469444 -1.675441
-1.027145 5.977863 -1.665617
-1.122444 6.563711 -1.649538
-1.243537 7.315964 -1.643248
-1.386218 8.203175 -1.627619
-1.606220 9.294868 -1.604205
-1.842885 10.713793 -1.576884
-2.164799 12.657702 -1.543240
-2.599261 15.282550 -1.485156
-3.165442 18.687357 -1.359661
-0.000986 -0.254736 -0.009530
-3.332398 19.770411 -0.488431
-3.346105 19.873190 -0.017150
-3.339718 19.876966 0.456631
-0.000986 -0.254736 -0.009530
-8.549293 51.450802 3.635506
-8.209028 49.497536 4.675900
-8.027231 48.498478 5.749853
-8.014326 48.470058 6.911517
-8.061384 48.860073 8.148640
-0.000986 -0.254736 -0.009530
-0.094036 0.319387 -0.354558
-0.097047 0.339281 -0.347732
-0.106645 0.399161 -0.361869
-0.116805 0.463617 -0.375027
-0.701559 4.097788 -2.098117
-0.285465 1.516786 -0.809016
-0.342422 1.873541 -0.910667
-0.690080 4.049555 -1.713435
-0.736181 4.347468 -1.707667
-0.786231 4.665898 -1.695182
-0.845201 5.046852 -1.686756
-0.911135 5.473346 -1.674864
-0.991825 5.987812 -1.666605
-1.081959 6.570558 -1.649509
-1.197679 7.317709 -1.641968
-1.336301 8.213504 -1.627957
-1.551816 9.308166 -1.604820
-1.774909 10.707255 -1.574333
-2.086916 12.648685 -1.540637
-2.503068 15.256289 -1.481189
-3.047906 18.674604 -1.357356
-3.229096 19.821239 -0.965319
-3.222400 19.823128 -0.489171
-3.225985 19.889034 -0.017085
-3.226882 19.915905 0.457150
-0.000978 -0.254428 -0.009520
-8.168935 51.039845 3.603178
-8.257744 51.711040 4.879776
-0.000978 -0.254428 -0.009520
-7.859859 49.367996 7.032416
-7.757502 48.829346 8.135837
-7.802824 49.168781 9.398437
-0.089562 0.313440 -0.350463
-0.093261 0.338415 -0.346739
-0.103571 0.405320 -0.364675
-0.111720 0.459296 -0.372321
-0.678121 4.112794 -2.103233
-0.274992 1.516882 -0.808187
-0.331473 1.886779 -0.915280
-0.665575 4.055591 -1.714142
-0.709393 4.350065 -1.706960
-0.758458 4.674388 -1.696441
-0.815811 5.059483 -1.689118
-0.878420 5.480705 -1.675390
-0.954986 5.987978 -1.665057
-1.042942 6.578887 -1.649943
-1.154782 7.320715 -1.641106
-1.288409 8.217241 -1.627184
-1.494758 9.315543 -1.604460
-1.709615 10.703896 -1.572341
-2.008180 12.647402 -1.538964
-2.405200 15.233772 -1.477594
-2.932429 18.650736 -1.354353
-3.112970 19.860090 -0.966195
-3.108556 19.853510 -0.489393
-0.000970 -0.254119 -0.009509
-3.111084 19.960695 0.457807
-0.000970 -0.254119 -0.009509
-7.884597 51.159290 3.608452
-8.000285 51.971203 4.900084
-7.605032 49.503368 5.858032
-7.792195 50.844025 7.235490
-7.664564 50.062378 8.333312
-7.583925 49.646515 9.480989
-0.088185 0.326131 -0.357596
-0.090967 0.346134 -0.350648
-0.098567 0.397465 -0.359965
-0.107725 0.460216 -0.372308
-0.123646 0.568482 -0.403407
-0.266964 1.531353 -0.813870
-0.319774 1.890730 -0.916035
-0.640736 4.059660 -1.714120
-0.683672 4.354253 -1.706938
-0.729242 4.673344 -1.694495
-0.784640 5.060615 -1.687901
-0.846366 5.485834 -1.675365
-0.919576 5.997511 -1.666045
-1.004762 6.584909 -1.649916
-1.110564 7.323679 -1.640243
-1.239030 8.220936 -1.626410
-1.440103 9.316251 -1.603125
-1.645755 10.695938 -1.569792
-1.934916 12.650863 -1.537991
-2.315432 15.225598 -1.475494
-2.822093 18.635550 -1.352052
-3.003540 19.897224 -0.967074
-2.997125 19.901031 -0.490039
-0.000962 -0.253811 -0.009498
-2.998728 19.982012 0.457958
-7.793946 52.474392 2.456610
-7.833373 52.801582 3.721003
-7.222659 48.779694 4.596178
-7.340610 49.697952 5.875998
-0.000962 -0.253811 -0.009498
-7.302314 49.611912 8.251598
-7.172558 48.841656 9.319985
-0.084830 0.326937 -0.357584
-0.087763 0.348668 -0.351616
-0.096321 0.408806 -0.365590
-0.103623 0.461109 -0.372296
-0.104799 0.471082 -0.356297
-0.254566 1.520535 -0.808156
-0.307935 1.896492 -0.917562
-0.614834 4.056202 -1.711186
-0.657098 4.364120 -1.708970
-0.700585 4.675886 -1.693831
-0.753476 5.061574 -1.686684
-0.811491 5.485342 -1.673684
-0.882759 5.997249 -1.664497
-0.963881 6.589137 -1.649425
-1.063949 7.318815 -1.637713
-1.188982 8.230397 -1.626748
-1.384697 9.322722 -1.602766
-1.579624 10.697974 -1.568637
-1.858882 12.650282 -1.536553
-2.223417 15.219267 -1.473580
-2.706555 18.628576 -1.350310
-2.891678 19.944157 -0.968421
-2.884394 19.942011 -0.490544
-0.000978 -0.253523 -0.009487
-2.887507 20.036837 0.458887
-0.000978 -0.253523 -0.009487
-7.446291 52.337734 3.685343
-6.983125 49.186760 4.630552
-6.955694 49.051212 5.795082
-6.805474 48.104687 6.835706
-7.087793 50.235119 8.347824
-6.889700 48.882431 9.320119
-0.080913 0.324319 -0.355530
-0.083467 0.344299 -0.348663
-0.091917 0.406156 -0.363698
-0.096924 0.444324 -0.363302
-0.095579 0.436178 -0.339158
-0.000970 -0.253214 -0.009476
-0.296685 1.909537 -0.922175
-0.589737 4.063781 -1.712620
-0.629427 4.366383 -1.708262
-0.670555 4.674629 -1.691885
-0.721660 5.064368 -1.686063
-0.777947 5.494159 -1.674762
-0.846692 6.010342 -1.666499
-0.922486 6.589250 -1.648011
-1.017440 7.313660 -1.635184
-1.137847 8.231751 -1.625602
-1.327291 9.327176 -1.602080
-1.514345 10.705491 -1.568319
-1.782284 12.661386 -1.536509
-2.128580 15.210791 -1.471478
-2.590136 18.612972 -1.348007
-2.777492 20.002817 -0.970330
-2.768568 19.988792 -0.491188
-0.000970 -0.253214 -0.009476
-2.770577 20.079664 0.459544
-0.000970 -0.253214 -0.009476
-3.995183 29.219488 2.059521
-0.000970 -0.253214 -0.009476
-6.669150 49.137177 5.800545
-6.549367 48.374149 6.868324
-6.716654 49.744495 8.259965
-0.000970 -0.253214 -0.009476
-0.077812 0.326784 -0.356538
-0.080706 0.350262 -0.351591
-0.087654 0.403478 -0.361807
-0.091503 0.434545 -0.357901
-0.090887 0.431657 -0.336576
-0.093168 0.449880 -0.325347
-0.283252 1.904209 -0.919072
-0.566326 4.078481 -1.716967
-0.603628 4.370124 -1.708240
-0.642400 4.680603 -1.692502
-0.691026 5.068742 -1.686038
-0.745348 5.494906 -1.673634
-0.809365 6.005829 -1.663936
-0.884267 6.594595 -1.647984
-0.976167 7.327289 -1.636821
-1.090432 8.238294 -1.625571
-1.271331 9.329088 -1.601071
-1.453110 10.714096 -1.568281
-1.707867 12.671756 -1.536465
-2.037128 15.205352 -1.469749
-2.481096 18.599756 -1.345987
-2.665454 20.054451 -0.971959
-2.656628 20.040380 -0.491975
-0.000966 -0.252903 -0.009465
-2.658079 20.131279 0.460429
-0.000966 -0.252903 -0.009465
-0.000966 -0.252903 -0.009465
-6.421915 49.331638 4.637112
-6.562716 50.554188 5.962793
-6.392724 49.302090 6.994500
-6.433299 49.750206 8.254920
-0.000966 -0.252903 -0.009465
-0.074903 0.330933 -0.358568
-0.077452 0.352740 -0.352559
-0.082325 0.392008 -0.355217
-0.085765 0.421165 -0.350705
-0.085155 0.418108 -0.329713
-0.089007 0.450708 -0.325334
-0.269464 1.895106 -0.914428
-0.540440 4.074588 -1.714033
-0.575950 4.372062 -1.707533
-0.614432 4.688291 -1.693760
-0.660379 5.072921 -1.686015
-0.710507 5.493817 -1.671952
-0.773999 6.016464 -1.665431
-0.843840 6.601969 -1.648417
-0.929983 7.323540 -1.634708
-1.039087 8.237101 -1.624054
-1.216124 9.336555 -1.601036
-1.387764 10.720860 -1.567963
-1.630926 12.661963 -1.534096
-1.947841 15.215135 -1.469514
-2.363980 18.572868 -1.342983
-2.553937 20.113367 -0.973963
-2.543424 20.085417 -0.492621
-0.000958 -0.252594 -0.009454
-2.550768 20.227900 0.462364
-3.674827 29.338299 1.370453
-0.000958 -0.252594 -0.009454
-6.279862 50.602444 4.752737
-6.149938 49.617435 5.848521
-6.138707 49.665756 7.040726
-6.166057 50.028709 8.294854
-6.569198 53.389610 10.152875
-0.071649 0.333368 -0.359576
-0.073645 0.351760 -0.351566
-0.077422 0.384037 -0.350507
-0.079628 0.404225 -0.341712
-0.079779 0.406329 -0.323706
-0.084722 0.449706 -0.324507
-0.256279 1.893300 -0.912868
-0.516161 4.083486 -1.716195
-0.549075 4.373748 -1.706826
-0.586206 4.693916 -1.694379
-0.629907 5.078846 -1.686587
-0.677404 5.498113 -1.671927
-0.737880 6.021122 -1.665405
-0.803677 6.601213 -1.647004
-0.887196 7.325039 -1.633846
-0.990298 8.231355 -1.621797
-1.159445 9.345858 -1.601326
-1.323594 10.721107 -1.566809
-1.552601 12.657917 -1.532423
-1.854836 15.216842 -1.468531
-2.253857 18.572613 -1.341944
-2.439202 20.180038 -0.976341
-2.430277 20.133778 -0.493361
-0.000950 -0.252286 -0.009443
-0.000950 -0.252286 -0.009443
-0.000950 -0.252286 -0.009443
-0.000950 -0.252286 -0.009443
-6.140234 51.863197 4.867620
-0.000950 -0.252286 -0.009443
-6.224144 52.885422 7.490372
-5.883333 50.046959 8.292397
-6.387657 54.520126 10.360003
-0.067765 0.328950 -0.356501
-0.070075 0.350723 -0.350574
-0.073678 0.382992 -0.349555
-0.073522 0.383657 -0.330923
-0.074750 0.396307 -0.318556
-0.080058 0.445037 -0.322053
-0.242608 1.880350 -0.906680
-0.490770 4.082978 -1.714718
-0.522624 4.379010 -1.707488
-0.557689 4.697530 -1.694355
-0.598551 5.076999 -1.684774
-0.644702 5.506042 -1.673006
-0.701735 6.025570 -1.665378
-0.764192 6.606030 -1.646976
-0.841798 7.326573 -1.632983
-0.940148 8.239346 -1.622136
-1.104907 9.344656 -1.599992
-1.259463 10.720988 -1.565655
-1.478900 12.652869 -1.530753
-1.768408 15.227271 -1.468483
-2.140896 18.545935 -1.339083
-2.334324 20.275021 -0.980130
-2.317563 20.189455 -0.494289
-2.320048 20.273407 -0.016684
-0.000943 -0.251978 -0.009432
-0.000943 -0.251978 -0.009432
-3.322820 29.372282 2.064576
-5.849710 52.067215 4.883496
-5.806548 51.758522 6.091975
-5.487579 49.052612 6.944927
-5.652690 50.693275 8.393483
-0.000943 -0.251978 -0.009432
-0.065256 0.338181 -0.361593
-0.066500 0.351424 -0.350562
-0.069135 0.376704 -0.345784
-0.068216 0.370160 -0.323727
-0.069942 0.388042 -0.314262
-0.076446 0.449402 -0.323669
-0.231133 1.893057 -0.911293
-0.464633 4.082420 -1.713240
-0.495948 4.382242 -1.707466
-0.528118 4.699161 -1.693691
-0.567127 5.082651 -1.685346
-0.611130 5.506131 -1.671877
-0.664472 6.029925 -1.665352
-0.724889 6.612553 -1.647411
-0.798529 7.335504 -1.633786
-0.891230 8.244921 -1.622104
-1.047738 9.349377 -1.599632
-1.195174 10.718517 -1.564222
-1.400802 12.647893 -1.529081
-1.674825 15.221947 -1.466941
-2.029608 18.530481 -1.337063
-2.235356 20.501360 -0.990110
-2.200502 20.242903 -0.495169
-2.206896 20.334469 -0.016639
-0.000957 -0.251690 -0.009422
-0.000957 -0.251690 -0.009422
-0.000957 -0.251690 -0.009422
-5.563621 52.244904 4.897147
-5.331956 50.221783 5.907988
-5.203349 49.081699 6.944781
-0.000957 -0.251690 -0.009422
-5.810312 55.197613 10.474880
-0.060797 0.328580 -0.355456
-0.061599 0.338220 -0.342707
-0.064256 0.365092 -0.339195
-0.063166 0.356627 -0.316530
-0.065884 0.385140 -0.312537
-0.071091 0.437425 -0.317957
-0.422258 3.899327 -1.753738
-0.439674 4.085317 -1.713218
-0.469626 4.389065 -1.708813
-0.500152 4.708088 -1.695590
-0.536195 5.084239 -1.684725
-0.577563 5.506043 -1.670748
-0.628094 6.032024 -1.664818
-0.684951 6.613050 -1.646459
-0.755021 7.342217 -1.634173
-0.840733 8.234570 -1.619104
-0.991613 9.347704 -1.598298
-1.131789 10.723536 -1.563905
-1.325075 12.642209 -1.527410
-1.583653 15.211831 -1.465028
-1.918158 18.510408 -1.334762
-2.114387 20.500277 -0.989391
-2.086676 20.297318 -0.496097
-2.093767 20.400850 -0.016597
-4.316348 42.478020 0.972818
-0.000950 -0.251382 -0.009411
-0.000950 -0.251382 -0.009411
-5.166170 51.327202 4.808626
-5.006679 49.906002 5.867590
-4.928384 49.203762 6.957963
-2.804802 27.986958 4.642729
-2.789567 27.930599 5.316159
-0.056960 0.324078 -0.352381
-0.057863 0.335394 -0.340734
-0.060014 0.358727 -0.335424
-0.058120 0.341267 -0.308436
-0.060296 0.366031 -0.303105
-0.066665 0.434485 -0.316316
-0.067208 0.441409 -0.300248
-0.414682 4.088086 -1.713197
-0.441742 4.388316 -1.707421
-0.471579 4.711189 -1.695567
-0.506014 5.093227 -1.686491
-0.543565 5.511589 -1.671275
-0.591366 6.030047 -1.663271
-0.644040 6.615344 -1.645970
-0.709769 7.344917 -1.633726
-0.789637 8.231883 -1.617588
-0.935350 9.343743 -1.596639
-1.066073 10.724450 -1.563030
-1.249260 12.634116 -1.525506
-1.492462 15.199200 -1.462928
-1.804330 18.495934 -1.332882
-2.270424 23.382013 -1.124761
-1.972126 20.349079 -0.496978
-2.785553 28.954472 -0.019482
-2.775665 28.901516 0.660429
-2.763180 28.874903 1.344887
-2.749788 28.838688 2.023736
-2.735880 28.796701 2.702508
-2.724239 28.724087 3.383832
-2.724084 28.828093 4.085078
-2.711824 28.803194 4.774503
-2.703792 28.768448 5.471484
-0.054015 0.329842 -0.355431
-0.053888 0.330834 -0.337780
-0.054646 0.340019 -0.325076
-0.054125 0.336555 -0.305729
-0.055931 0.357662 -0.298811
-0.061563 0.422423 -0.310605
-0.062262 0.432912 -0.296377
-0.389187 4.085136 -1.710989
-0.415180 4.392957 -1.708082
-0.442832 4.712229 -1.694902
-0.475550 5.100170 -1.687657
-0.510537 5.516840 -1.671799
-0.555514 6.037512 -1.664256
-0.604470 6.619253 -1.645939
-0.666997 7.345164 -1.632862
-0.742249 8.236463 -1.617554
-0.878219 9.347465 -1.596275
-1.001404 10.714932 -1.560756
-1.171516 12.627763 -1.523830
-1.399504 15.194202 -1.461567
-1.693280 18.472536 -1.330435
-2.127812 23.369516 -1.123462
-2.557215 28.190668 -0.682120
-2.643889 29.267139 -0.019491
-0.000935 -0.250765 -0.009389
-3.908205 43.636459 2.030303
-0.000935 -0.250765 -0.009389
-4.543137 51.060532 4.778746
-4.326578 48.803276 5.732374
-0.000935 -0.250765 -0.009389
-4.335705 49.191006 8.127423
-0.000935 -0.250765 -0.009389
-0.050030 0.321870 -0.350314
-0.050344 0.327947 -0.335807
-0.049547 0.319500 -0.313789
-0.050386 0.331807 -0.303022
-0.052888 0.363669 -0.301367
-0.056001 0.403037 -0.301637
-0.059234 0.442723 -0.300222
-0.363753 4.082028 -1.708782
-0.388110 4.391834 -1.706688
-0.414709 4.720667 -1.696800
-0.444729 5.103117 -1.687631
-0.476999 5.516150 -1.670668
-0.519283 6.040915 -1.664228
-0.564890 6.622926 -1.645909
-0.622055 7.351255 -1.633245
-0.691235 8.233187 -1.616035
-0.823941 9.344646 -1.594939
-0.937061 10.707001 -1.558761
-1.098400 12.620548 -1.522156
-1.311715 15.184220 -1.459836
-1.584249 18.468361 -1.329391
-1.992865 23.345486 -1.121698
-2.401774 28.304827 -0.684385
-0.000949 -0.250478 -0.009378
-0.000949 -0.250478 -0.009378
-3.162260 37.733383 1.755181
-3.145831 37.691341 2.639950
-4.096092 49.360199 4.617857
-0.000949 -0.250478 -0.009378
-4.069017 49.336357 6.965894
-4.029742 49.062698 8.102338
-4.130377 50.396683 9.546965
-0.045534 0.308741 -0.342135
-0.045672 0.312888 -0.326972
-0.045318 0.309529 -0.308139
-0.046921 0.332402 -0.303009
-0.048811 0.358870 -0.298785
-0.050823 0.387278 -0.294296
-0.054675 0.437854 -0.297894
-0.338754 4.093703 -1.712399
-0.360120 4.388735 -1.704610
-0.385064 4.721447 -1.696133
-0.412950 5.105965 -1.687605
-0.443366 5.526843 -1.672848
-0.482083 6.046120 -1.664706
-0.524101 6.626451 -1.645878
-0.576654 7.351202 -1.632380
-0.641465 8.245287 -1.617483
-0.766201 9.339837 -1.593276
-0.871386 10.704782 -1.557602
-1.020114 12.603387 -1.519316
-1.218541 15.172182 -1.457916
-1.471271 18.453871 -1.327644
-1.849071 23.309395 -1.119367
-2.242878 28.454430 -0.687495
-2.289578 29.180988 -0.019263
-0.000942 -0.250169 -0.009367
-0.000942 -0.250169 -0.009367
-4.079837 52.780563 3.691958
-3.833747 49.802876 4.657070
-3.745486 48.755985 5.721555
-3.739118 48.891853 6.900237
-3.732609 49.026974 8.092783
-3.856740 50.777298 9.614397
-0.041830 0.304159 -0.339060
-0.041426 0.301285 -0.320097
-0.042259 0.313601 -0.310005
-0.044112 0.341879 -0.307486
-0.045200 0.359441 -0.298772
-0.046503 0.378736 -0.290213
-0.049929 0.429259 -0.294024
-0.313364 4.101520 -1.714559
-0.333517 4.392923 -1.705270
-0.355564 4.723940 -1.696108
-0.380746 5.102918 -1.685789
-0.409679 5.523849 -1.671165
-0.444044 6.039515 -1.662141
-0.484621 6.631603 -1.646309
-0.533142 7.358600 -1.633180
-0.592539 8.249133 -1.617448
-0.708858 9.338602 -1.592263
-0.806974 10.692143 -1.555050
-0.943250 12.601590 -1.518338
-1.124978 15.151641 -1.455251
-1.361069 18.428505 -1.325197
-1.706921 23.288387 -1.117787
-2.084037 28.627062 -0.691169
-2.128101 29.305685 -0.019208
-0.000935 -0.249860 -0.009355
-0.000935 -0.249860 -0.009355
-0.000935 -0.249860 -0.009355
-3.492845 49.081482 4.587985
-3.461757 48.878704 5.733520
-3.442727 48.723179 6.873727
-3.459938 49.207390 8.119141
-3.519940 50.311306 9.522511
-0.038637 0.304689 -0.339047
-0.037666 0.293112 -0.315183
-0.038998 0.314147 -0.309992
-0.040112 0.333498 -0.302984
-0.041800 0.361801 -0.299616
-0.044333 0.401170 -0.299969
-0.045035 0.415106 -0.287839
-0.287801 4.096126 -1.711623
-0.306911 4.396928 -1.705931
-0.326411 4.718650 -1.693519
-0.349920 5.105317 -1.685763
-0.376411 5.526424 -1.671138
-0.407806 6.042277 -1.662112
-0.444611 6.628750 -1.644894
-0.489178 7.359903 -1.632731
-0.543089 8.244854 -1.615930
-0.653626 9.342827 -1.592225
-0.741791 10.665304 -1.550544
-0.868298 12.593225 -1.516663
-1.035603 15.148225 -1.454264
-1.251999 18.414450 -1.323592
-1.569342 23.268227 -1.116303
-0.000927 -0.249552 -0.009344
-1.904766 28.515501 -0.018849
-0.000927 -0.249552 -0.009344
-1.880118 28.438152 1.321857
-1.873799 28.413834 1.989763
-0.000927 -0.249552 -0.009344
-1.853027 28.394125 3.337734
-1.848049 28.390226 4.014452
-3.172029 49.179508 8.111524
-3.260005 50.821404 9.615078
-0.035546 0.305195 -0.339035
-0.034646 0.293606 -0.315171
-0.035629 0.311136 -0.308100
-0.036861 0.334011 -0.302971
-0.038600 0.365942 -0.301315
-0.040581 0.401721 -0.299956
-0.041093 0.411973 -0.286283
-0.263533 4.097967 -1.711600
-0.280242 4.400818 -1.706591
-0.298872 4.724498 -1.694776
-0.319437 5.097970 -1.682755
-0.343134 5.528808 -1.671110
-0.373012 6.050550 -1.663605
-0.404984 6.631511 -1.644863
-0.445135 7.358983 -1.631866
-0.493812 8.242267 -1.614782
-0.599671 9.340733 -1.591213
-0.678441 10.661785 -1.549387
-0.795211 12.576376 -1.514058
-0.948000 15.128242 -1.451788
-1.140840 18.361912 -1.319324
-1.437990 23.276924 -1.116228
-0.000923 -0.249240 -0.009332
-2.065615 33.932457 -0.020528
-0.000923 -0.249240 -0.009332
-0.000923 -0.249240 -0.009332
-0.000923 -0.249240 -0.009332
-2.884526 48.445110 4.525522
-3.105255 52.318336 6.131329
-2.861865 48.477402 6.834311
-2.854770 48.639656 8.020096
-2.983788 50.994106 9.644431
-0.031560 0.293689 -0.331876
-0.031222 0.290624 -0.313197
-0.032415 0.313386 -0.309027
-0.033086 0.329177 -0.300264
-0.034767 0.362833 -0.299590
-0.036726 0.400421 -0.299129
-0.037379 0.416179 -0.287813
-0.237539 4.096027 -1.710121
-0.253149 4.397027 -1.704513
-0.269665 4.732156 -1.696673
-0.287713 5.100063 -1.682729
-0.310783 5.548259 -1.676050
-0.334894 6.039442 -1.660026
-0.365239 6.632094 -1.644371
-0.400996 7.355865 -1.630584
-0.444689 8.241351 -1.614005
-0.541961 9.330644 -1.588900
-0.615806 10.669774 -1.549903
-0.717872 12.559351 -1.511451
-0.856752 15.133887 -1.451733
-1.031087 18.322666 -1.316037
-1.296952 23.259407 -1.114931
-0.000938 -0.248952 -0.009322
-1.869274 33.954067 -0.020425
-0.000938 -0.248952 -0.009322
-0.000938 -0.248952 -0.009322
-0.000938 -0.248952 -0.009322
-2.645194 49.230774 4.597317
-2.649913 49.636257 5.816203
-2.615864 49.148029 6.926378
-2.571331 48.620071 8.014418
-2.675385 50.928734 9.629063
