# This PCD file was generated using the MATLAB® pcwrite function
# from Computer Vision Toolbox®.
# .PCD v.7 - Point Cloud Data file format
VERSION .7
FIELDS x y z
SIZE 4 4 4
TYPE F F F
COUNT 1 1 1
WIDTH 1565
HEIGHT 1
VIEWPOINT 0 0 0 1 0 0 0
POINTS 1565
DATA ascii
-5.183259 -15.685978 -1.923108
-4.783270 -14.463624 -1.416932
-4.803056 -14.514670 -1.066204
-4.811491 -14.523062 -0.712025
-5.288566 -15.947312 -0.389988
-0.000140 -0.065123 -0.002405
-5.136359 -15.454210 0.375285
-5.598110 -16.827833 0.822865
-12.574349 -37.673740 2.773058
-12.507229 -37.451099 3.678046
-11.935669 -35.701054 4.394876
-12.013879 -35.892822 5.310824
-14.228866 -42.473602 7.349663
-0.000140 -0.065123 -0.002405
-0.000131 -0.064815 -0.002394
-0.183077 -0.606707 -0.323692
-0.204251 -0.668757 -0.341312
-0.220586 -0.716704 -0.347846
-0.238399 -0.768564 -0.354024
-0.260554 -0.833120 -0.363525
-0.283025 -0.898438 -0.370032
-0.315810 -0.994507 -0.385713
-1.757368 -5.234026 -1.989190
-1.906658 -5.666720 -2.001476
-2.084521 -6.182270 -2.018604
-2.286862 -6.772270 -2.033951
-2.534445 -7.489962 -2.055775
-2.835693 -8.363041 -2.079648
-3.225804 -9.493837 -2.119979
-3.713526 -10.913274 -2.162036
-4.295270 -12.793732 -2.208663
-5.202394 -15.464231 -2.285766
-5.268495 -15.650832 -1.922415
-4.873815 -14.466566 -1.419905
-4.895796 -14.514816 -1.068298
-4.905569 -14.526961 -0.713609
-5.514227 -16.311993 -0.399668
-5.556151 -16.416670 -0.001317
-5.161162 -15.236684 0.370673
-5.706491 -16.820499 0.824166
-12.806818 -37.647614 2.776524
-12.744909 -37.423042 3.682670
-12.158477 -35.663162 4.399037
-12.244204 -35.873089 5.318598
-14.498796 -42.442303 7.359041
-0.000131 -0.064815 -0.002394
-0.000123 -0.064507 -0.002382
-0.192044 -0.621749 -0.333477
-0.206121 -0.662240 -0.338485
-0.223984 -0.713358 -0.346938
-0.241390 -0.763418 -0.352303
-0.268089 -0.839893 -0.367581
-0.291597 -0.906917 -0.374646
-0.325588 -1.004642 -0.390795
-1.786793 -5.219669 -1.987817
-1.936405 -5.648186 -1.998910
-2.123472 -6.180684 -2.022172
-2.326620 -6.758281 -2.033946
-2.579073 -7.480427 -2.057290
-2.884725 -8.349956 -2.080567
-3.278400 -9.475367 -2.119976
-3.776575 -10.893250 -2.162405
-4.372942 -12.766960 -2.208664
-5.293687 -15.432800 -2.285770
-5.381741 -15.670654 -1.928911
-4.975357 -14.475773 -1.423807
-4.991889 -14.515403 -1.070531
-4.999780 -14.521843 -0.714821
-5.475848 -15.889442 -0.390134
-5.651781 -16.379347 -0.001322
-5.790275 -16.760206 0.408976
-5.815330 -16.822914 0.825935
-13.049216 -37.627190 2.780689
-12.978806 -37.403275 3.688037
-12.381558 -35.644775 4.405523
-12.462597 -35.837212 5.323867
-14.577615 -41.884468 7.276624
-0.000123 -0.064507 -0.002382
-0.000137 -0.064220 -0.002371
-0.196881 -0.625302 -0.336405
-0.210019 -0.662427 -0.339413
-0.225231 -0.705048 -0.343338
-0.244220 -0.758313 -0.350581
-0.270609 -0.832925 -0.365131
-0.296896 -0.906704 -0.375406
-0.329134 -0.997176 -0.388602
-1.817416 -5.214614 -1.989862
-1.970418 -5.641996 -2.000824
-2.154199 -6.155447 -2.017997
-2.365888 -6.750319 -2.035595
-2.623047 -7.468812 -2.058299
-2.932907 -8.338926 -2.081947
-3.333856 -9.459722 -2.120805
-3.840849 -10.876577 -2.163514
-4.446412 -12.749481 -2.209961
-5.383351 -15.413902 -2.287442
-5.485897 -15.688768 -1.934941
-5.067644 -14.481280 -1.427151
-5.081771 -14.513341 -1.072484
-5.093051 -14.529207 -0.716591
-5.580185 -15.895060 -0.391064
-5.748791 -16.364206 -0.001325
-5.902723 -16.781986 0.410322
-5.924392 -16.824631 0.827703
-0.000137 -0.064220 -0.002371
-0.000137 -0.064220 -0.002371
-12.599552 -35.610046 4.410149
-12.680060 -35.817173 5.331364
-14.833388 -41.842285 7.284056
-0.000137 -0.064220 -0.002371
-0.000129 -0.063912 -0.002360
-0.200125 -0.623873 -0.336395
-0.214069 -0.662584 -0.340342
-0.232535 -0.713542 -0.348711
-0.248810 -0.758287 -0.351426
-0.274556 -0.829293 -0.364307
-0.299868 -0.899463 -0.373084
-0.338902 -1.007232 -0.393683
-1.847953 -5.203448 -1.989856
-2.001873 -5.628478 -2.000178
-2.193767 -6.155210 -2.022161
-2.404875 -6.734062 -2.035039
-2.665628 -7.453266 -2.058294
-2.982606 -8.322899 -2.082404
-3.389531 -9.439460 -2.120803
-3.903605 -10.849605 -2.162773
-4.522050 -12.730803 -2.211259
-5.476335 -15.386985 -2.288280
-5.678141 -15.942821 -1.970416
-0.000129 -0.063912 -0.002360
-5.179532 -14.516441 -1.074996
-5.187059 -14.529425 -0.718082
-5.682084 -15.892482 -0.391809
-5.842697 -16.321980 -0.001330
-6.007029 -16.769999 0.410875
-6.030294 -16.816257 0.829004
-23.171444 -64.365158 4.781145
-0.000129 -0.063912 -0.002360
-12.820903 -35.583302 4.415937
-12.904770 -35.776402 5.336630
-13.359056 -36.993050 6.452047
-0.000129 -0.063912 -0.002360
-0.000121 -0.063604 -0.002348
-0.203437 -0.622369 -0.336384
-0.217617 -0.661003 -0.340331
-0.233924 -0.705121 -0.345111
-0.254787 -0.761594 -0.353982
-0.279579 -0.829110 -0.365110
-0.306728 -0.902577 -0.375386
-0.347055 -1.011905 -0.396582
-1.880097 -5.199472 -1.992585
-2.036148 -5.619750 -2.001452
-2.229872 -6.141786 -2.022156
-2.442578 -6.717990 -2.034483
-2.710105 -7.438845 -2.058797
-3.030800 -8.307119 -2.082862
-3.445507 -9.425001 -2.122048
-3.967697 -10.832180 -2.163883
-4.600492 -12.712709 -2.212880
-5.544837 -15.300907 -2.280215
-5.578459 -15.376577 -1.904346
-5.291129 -14.571977 -1.442194
-5.277039 -14.525430 -1.077925
-5.288563 -14.541249 -0.720225
-5.784824 -15.882595 -0.392415
-5.936237 -16.287766 -0.001334
-6.055156 -16.594826 0.407427
-6.104132 -16.710470 0.825548
-0.000121 -0.063604 -0.002348
-0.000121 -0.063604 -0.002348
-13.050641 -35.558517 4.422421
-13.132097 -35.760662 5.345520
-13.557866 -36.878166 6.445537
-0.000121 -0.063604 -0.002348
-0.000135 -0.063317 -0.002338
-0.207247 -0.622516 -0.337353
-0.222270 -0.662742 -0.342198
-0.238864 -0.706821 -0.346896
-0.258680 -0.759861 -0.353972
-0.282711 -0.823762 -0.363473
-0.308835 -0.893630 -0.372292
-0.347162 -0.995698 -0.390753
-1.907448 -5.185080 -1.991211
-2.068466 -5.611539 -2.002726
-2.262452 -6.125368 -2.020959
-2.483075 -6.712960 -2.037234
-2.753280 -7.428729 -2.060311
-3.076775 -8.289753 -2.082858
-3.495666 -9.399810 -2.120798
-4.027966 -10.815779 -2.164992
-4.674647 -12.689420 -2.213529
-5.649016 -15.313001 -2.286895
-5.623728 -15.228414 -1.889975
-5.360983 -14.512030 -1.439226
-5.372738 -14.528163 -1.080437
-5.384385 -14.543959 -0.721902
-6.007626 -16.211420 -0.401355
-0.000135 -0.063317 -0.002338
-6.133419 -16.522982 0.406492
-6.127876 -16.490513 0.816309
-0.000135 -0.063317 -0.002338
-0.000135 -0.063317 -0.002338
-13.261243 -35.537327 4.428677
-13.350676 -35.738411 5.353295
-0.000135 -0.063317 -0.002338
-0.000135 -0.063317 -0.002338
-0.000127 -0.063009 -0.002326
-0.209672 -0.619470 -0.336363
-0.222508 -0.652936 -0.337493
-0.241705 -0.703542 -0.345987
-0.261924 -0.756411 -0.353105
-0.288884 -0.826993 -0.365902
-0.314915 -0.894989 -0.373823
-0.359621 -1.012612 -0.398744
-1.936900 -5.173698 -1.991204
-2.103069 -5.606319 -2.005281
-2.300027 -6.119067 -2.023336
-2.522681 -6.701830 -2.038331
-2.795656 -7.412455 -2.060307
-3.125535 -8.271051 -2.082855
-3.551003 -9.378604 -2.120796
-4.092381 -10.793213 -2.165361
-4.744952 -12.669168 -2.214502
-5.749454 -15.321692 -2.293020
-5.712002 -15.214203 -1.892064
-0.000127 -0.063009 -0.002326
-5.468932 -14.538680 -1.083506
-5.481418 -14.556338 -0.724045
-5.956197 -15.803316 -0.392098
-5.941348 -15.747461 -0.001371
-6.240869 -16.520739 0.407325
-6.257848 -16.548056 0.820968
-24.270561 -63.966053 4.781556
-0.000127 -0.063009 -0.002326
-13.489877 -35.505997 4.434696
-13.584697 -35.717499 5.362182
-0.000127 -0.063009 -0.002326
-14.040589 -36.855736 7.419696
-0.000119 -0.062701 -0.002315
-0.213065 -0.617877 -0.336352
-0.227269 -0.654603 -0.339360
-0.248816 -0.710093 -0.350463
-0.266813 -0.756194 -0.353951
-0.292888 -0.823208 -0.365078
-0.321846 -0.897980 -0.376125
-0.366739 -1.013561 -0.400188
-1.970790 -5.168487 -1.993934
-2.136623 -5.595225 -2.005915
-2.336604 -6.106787 -2.023926
-2.563877 -6.687791 -2.038877
-2.837813 -7.391824 -2.059290
-3.174184 -8.252064 -2.082852
-3.606221 -9.357076 -2.120794
-4.160694 -10.775045 -2.166841
-4.826111 -12.650716 -2.216448
-5.816283 -15.217564 -2.282728
-5.926916 -15.497699 -1.931945
-0.000119 -0.062701 -0.002315
-5.575895 -14.553135 -1.087133
-5.580955 -14.558684 -0.725816
-0.000119 -0.062701 -0.002315
-18.722029 -48.590496 0.000601
-0.000119 -0.062701 -0.002315
-0.000119 -0.062701 -0.002315
-0.000119 -0.062701 -0.002315
-0.000119 -0.062701 -0.002315
-13.722895 -35.484295 4.442111
-13.816078 -35.687679 5.369956
-16.089525 -41.506733 7.304349
-0.000119 -0.062701 -0.002315
-0.000133 -0.062414 -0.002304
-0.215075 -0.613044 -0.334382
-0.232697 -0.657872 -0.342166
-0.248752 -0.698323 -0.345069
-0.270260 -0.752612 -0.353084
-0.299260 -0.826311 -0.367508
-0.328143 -0.899192 -0.377656
-0.373742 -1.014543 -0.401633
-1.998090 -5.151494 -1.991875
-2.168019 -5.578614 -2.004629
-2.372437 -6.092528 -2.023921
-2.601281 -6.670823 -2.038321
-2.882668 -7.378155 -2.060299
-3.222004 -8.235154 -2.083309
-3.661829 -9.341299 -2.122038
-4.223042 -10.752437 -2.167211
-4.903575 -12.628901 -2.217745
-5.894818 -15.161375 -2.279392
-5.835459 -14.993855 -1.873292
-5.657604 -14.523798 -1.450188
-5.675253 -14.561357 -1.090203
-5.689473 -14.582687 -0.728703
-0.000133 -0.062414 -0.002304
-19.037718 -48.574657 0.000572
-0.000133 -0.062414 -0.002304
-25.041838 -63.743111 3.192526
-0.000133 -0.062414 -0.002304
-0.000133 -0.062414 -0.002304
-13.958347 -35.466644 4.450222
-14.042802 -35.662483 5.378287
-0.000133 -0.062414 -0.002304
-0.000133 -0.062414 -0.002304
-0.000125 -0.062106 -0.002292
-0.220171 -0.616357 -0.337310
-0.234828 -0.652948 -0.340278
-0.253747 -0.699916 -0.346853
-0.274908 -0.752432 -0.353929
-0.304336 -0.825979 -0.368311
-0.334313 -0.900408 -0.379187
-0.386127 -1.029381 -0.408896
-2.033635 -5.155309 -1.998024
-2.196228 -5.556933 -2.001422
-2.408526 -6.081993 -2.025106
-2.641445 -6.660792 -2.039970
-2.928351 -7.370113 -2.062827
-3.269743 -8.217971 -2.083767
-3.715935 -9.321571 -2.122452
-4.284542 -10.727642 -2.167210
-4.972954 -12.592816 -2.216449
-5.972178 -15.102948 -2.275779
-0.000125 -0.062106 -0.002292
-0.000125 -0.062106 -0.002292
-5.781516 -14.585582 -1.094527
-5.798130 -14.612467 -0.731869
-0.000125 -0.062106 -0.002292
-5.941088 -14.948396 -0.001422
-0.000125 -0.062106 -0.002292
-25.345108 -63.439861 3.184548
-25.369396 -63.468189 4.776940
-0.000125 -0.062106 -0.002292
-14.183448 -35.438847 4.456939
-14.266761 -35.628517 5.385504
-14.760481 -36.821995 6.508018
-14.757257 -36.776730 7.455184
-0.000139 -0.061818 -0.002281
-0.221414 -0.609940 -0.334361
-0.238883 -0.652919 -0.341206
-0.258064 -0.699781 -0.347740
-0.279554 -0.752209 -0.354774
-0.310788 -0.828994 -0.370741
-0.339822 -0.899874 -0.379947
-0.383273 -1.006113 -0.400157
-2.058689 -5.132761 -1.993914
-2.227845 -5.543902 -2.001416
-2.446042 -6.074804 -2.027483
-2.678673 -6.643383 -2.039414
-2.968918 -7.349233 -2.061809
-3.316662 -8.198707 -2.083763
-3.769211 -9.299728 -2.122449
-4.345146 -10.700666 -2.166838
-5.045033 -12.563663 -2.216450
-6.052019 -15.051470 -2.273278
-6.813168 -16.919697 -2.124389
-0.000139 -0.061818 -0.002281
-5.892763 -14.620176 -1.099687
-5.905101 -14.635946 -0.734757
-5.963873 -14.766192 -0.369835
-19.647100 -48.479439 0.000510
-0.000139 -0.061818 -0.002281
-0.000139 -0.061818 -0.002281
-0.000139 -0.061818 -0.002281
-16.134308 -39.682751 3.991194
-14.407932 -35.407776 4.463424
-14.498290 -35.611500 5.395505
-14.954035 -36.692234 6.500210
-15.007133 -36.785461 7.474421
-0.173078 -0.483311 -0.272595
-0.226539 -0.613176 -0.337288
-0.242283 -0.651227 -0.341195
-0.261062 -0.696331 -0.346832
-0.284887 -0.753613 -0.356474
-0.313805 -0.823501 -0.369103
-0.343954 -0.895902 -0.379166
-0.399375 -1.029431 -0.411058
-2.089312 -5.124006 -1.995276
-2.262995 -5.539427 -2.004611
-2.480615 -6.060297 -2.027478
-2.716530 -6.627538 -2.039408
-3.013803 -7.338861 -2.063831
-3.364957 -8.182760 -2.084682
-3.822337 -9.277550 -2.122447
-4.408593 -10.680596 -2.167948
-5.115457 -12.530450 -2.215802
-6.031462 -14.755893 -2.233770
-6.873911 -16.791679 -2.113265
-8.838617 -21.552160 -2.168959
-0.000134 -0.061507 -0.002270
-12.864148 -31.293348 -1.575666
-15.894536 -38.612244 -0.968202
-19.959177 -48.446541 0.000480
-0.000134 -0.061507 -0.002270
-0.000134 -0.061507 -0.002270
-16.367926 -39.641953 2.995041
-16.386576 -39.647736 3.997117
-14.637877 -35.388149 4.471536
-14.724776 -35.580170 5.403558
-0.000134 -0.061507 -0.002270
-0.000134 -0.061507 -0.002270
-0.178794 -0.489929 -0.277684
-0.229730 -0.611579 -0.337278
-0.248393 -0.656038 -0.344939
-0.264727 -0.694530 -0.346821
-0.286778 -0.746659 -0.353897
-0.319025 -0.823011 -0.369906
-0.350178 -0.897012 -0.380697
-0.407825 -1.033688 -0.413957
-2.118584 -5.109484 -1.994586
-2.294487 -5.525988 -2.004605
-2.517348 -6.050900 -2.029259
-2.756927 -6.614543 -2.040506
-3.052657 -7.313946 -2.061800
-3.415345 -8.167724 -2.086061
-3.877710 -9.256206 -2.122860
-4.471529 -10.653954 -2.167947
-5.191738 -12.511413 -2.217748
-5.995710 -14.425273 -2.188976
-6.956368 -16.718521 -2.109097
-8.949955 -21.471210 -2.165998
-12.408437 -29.715450 -2.248429
-13.063081 -31.264513 -1.578011
-16.121698 -38.532681 -0.968551
-5.897472 -14.120419 -0.001471
-0.000126 -0.061199 -0.002259
-16.608782 -39.597630 1.999781
-16.621037 -39.587967 2.998365
-16.644358 -39.604576 4.002666
-14.868058 -35.367039 4.479648
-14.884501 -35.371433 5.385158
-0.000126 -0.061199 -0.002259
-16.132339 -38.275387 7.815146
-0.185370 -0.498072 -0.283794
-0.232296 -0.608287 -0.336287
-0.248475 -0.646132 -0.340235
-0.268473 -0.692641 -0.346810
-0.292967 -0.749642 -0.356454
-0.324112 -0.822533 -0.370709
-0.354414 -0.892927 -0.379916
-0.421605 -1.049788 -0.421947
-2.149094 -5.100355 -1.995947
-2.329118 -5.517218 -2.006519
-2.555104 -6.040833 -2.031041
-2.794637 -6.598270 -2.040501
-3.094885 -7.293633 -2.061290
-3.458901 -8.140456 -2.084213
-3.931383 -9.235230 -2.123273
-4.534783 -10.633143 -2.169056
-5.255497 -12.456459 -2.213534
-5.952265 -14.093003 -2.143624
-7.024017 -16.603500 -2.099827
-9.056583 -21.369778 -2.161179
-12.518906 -29.501829 -2.237711
-13.212788 -31.103430 -1.573842
-6.067526 -14.302110 -0.360857
-6.051289 -14.257038 -0.001464
-0.000118 -0.060891 -0.002247
-16.857985 -39.532986 2.001526
-16.880547 -39.566521 3.004063
-16.898441 -39.570023 4.008959
-15.103083 -35.338158 4.487295
-15.110986 -35.339428 5.393489
-0.000118 -0.060891 -0.002247
-0.000118 -0.060891 -0.002247
-0.193318 -0.509330 -0.291944
-0.236148 -0.608253 -0.337256
-0.253229 -0.647624 -0.342101
-0.274220 -0.695698 -0.349492
-0.295370 -0.744371 -0.354732
-0.327768 -0.818676 -0.369885
-0.359037 -0.890618 -0.379905
-0.431566 -1.057382 -0.426302
-2.175699 -5.084516 -1.994573
-2.358789 -5.502077 -2.005873
-2.589962 -6.029656 -2.032226
-2.833378 -6.587534 -2.042149
-3.137527 -7.281248 -2.062805
-3.508623 -8.131421 -2.086976
-3.982537 -9.212815 -2.123271
-4.594270 -10.613566 -2.170166
-5.333824 -12.441998 -2.216452
-5.915400 -13.785375 -2.101889
-7.070401 -16.449402 -2.085457
-9.102039 -21.148525 -2.143919
-12.453235 -28.884981 -2.196323
-13.453983 -31.171379 -1.581213
-0.000132 -0.060604 -0.002236
-6.244203 -14.478579 -0.001452
-17.080706 -39.481670 0.997367
-17.109955 -39.511250 2.005230
-17.131876 -39.542717 3.009481
-17.125162 -39.489353 4.010421
-17.075777 -39.356689 5.010406
-15.698801 -36.153206 5.531297
-0.000132 -0.060604 -0.002236
-0.000132 -0.060604 -0.002236
-0.200571 -0.519018 -0.299074
-0.237702 -0.603466 -0.335286
-0.257221 -0.647528 -0.343030
-0.274790 -0.687362 -0.345892
-0.297733 -0.739100 -0.353010
-0.330530 -0.813190 -0.368247
-0.364560 -0.889933 -0.380666
-2.047225 -4.718279 -1.988718
-2.203837 -5.069879 -1.993882
-2.386268 -5.479430 -2.002666
-2.622769 -6.010860 -2.031029
-2.870143 -6.569047 -2.041593
-3.179843 -7.264531 -2.063307
-3.558818 -8.115509 -2.088356
-4.039142 -9.194087 -2.124515
-4.659185 -10.591207 -2.171275
-5.408639 -12.430747 -2.219694
-5.902231 -13.546801 -2.070449
-7.138232 -16.363289 -2.079433
-9.195696 -21.042358 -2.138357
-12.533848 -28.631968 -2.182397
-20.431581 -46.591106 -2.369617
-0.000124 -0.060296 -0.002225
-17.309597 -39.424683 -0.000117
-17.337233 -39.450039 0.999062
-17.368290 -39.483070 2.008841
-27.553640 -62.572201 4.778182
-0.000124 -0.060296 -0.002225
-0.000124 -0.060296 -0.002225
-0.000124 -0.060296 -0.002225
-0.000124 -0.060296 -0.002225
-15.572156 -35.238594 7.247988
-0.204762 -0.520626 -0.301104
-0.241007 -0.601698 -0.335276
-0.260685 -0.645676 -0.343019
-0.282247 -0.693533 -0.350368
-0.304075 -0.741916 -0.355566
-0.340948 -0.824268 -0.374744
-0.370982 -0.890827 -0.382197
-2.076379 -4.707072 -1.989439
-2.238117 -5.066701 -1.997979
-2.422261 -5.473532 -2.005861
-2.660362 -6.000111 -2.032811
-2.908714 -6.551603 -2.041588
-3.224125 -7.248773 -2.064316
-3.604346 -8.092797 -2.087891
-4.093284 -9.173947 -2.125344
-4.722383 -10.564857 -2.171644
-5.472078 -12.370133 -2.214833
-0.000116 -0.059988 -0.002213
-7.128627 -16.074085 -2.048136
-9.231294 -20.778137 -2.117199
-12.459480 -28.010126 -2.140588
-0.000116 -0.059988 -0.002213
-17.545088 -39.344570 -0.999042
-17.573864 -39.390369 -0.000140
-17.598406 -39.408237 1.000617
-0.000116 -0.059988 -0.002213
-0.000116 -0.059988 -0.002213
-0.000116 -0.059988 -0.002213
-0.000116 -0.059988 -0.002213
-0.000116 -0.059988 -0.002213
-15.606997 -34.791836 6.255520
-15.756440 -35.091515 7.236854
-0.208830 -0.522278 -0.303133
-0.245561 -0.603181 -0.337224
-0.263326 -0.642256 -0.342069
-0.282953 -0.685091 -0.346768
-0.307259 -0.738214 -0.354700
-0.343216 -0.816940 -0.372294
-0.377273 -0.891728 -0.383728
-2.103108 -4.694736 -1.989432
-2.265455 -5.047899 -1.995921
-2.457308 -5.467811 -2.009056
-2.690567 -5.975692 -2.029827
-2.947194 -6.533940 -2.041584
-3.263865 -7.226262 -2.063298
-3.652759 -8.072745 -2.088349
-4.146492 -9.147430 -2.124926
-4.782183 -10.530988 -2.170532
-5.533947 -12.318326 -2.211268
-0.000130 -0.059701 -0.002203
-7.188811 -15.961861 -2.039098
-9.292989 -20.597328 -2.104209
-12.439900 -27.526482 -2.109235
-17.779089 -39.296921 -2.009028
-17.813997 -39.337276 -1.001477
-15.636773 -34.504627 -0.000415
-0.000130 -0.059701 -0.002203
-0.000130 -0.059701 -0.002203
-15.551939 -34.238003 2.625343
-0.000130 -0.059701 -0.002203
-15.571490 -34.233170 4.391226
-15.669293 -34.415844 5.306525
-15.825923 -34.727051 6.260686
-15.982411 -35.053524 7.247944
-0.223033 -0.545746 -0.319444
-0.249507 -0.602999 -0.338193
-0.267515 -0.641989 -0.342998
-0.286663 -0.683105 -0.346757
-0.312031 -0.737717 -0.355545
-0.347573 -0.814653 -0.372283
-0.385306 -0.895894 -0.386801
-2.120445 -4.659888 -1.979969
-2.294159 -5.034483 -1.995915
-2.488562 -5.451114 -2.008410
-2.725631 -5.959332 -2.029821
-2.986027 -6.520035 -2.042681
-3.307937 -7.209963 -2.064306
-3.700476 -8.054805 -2.089267
-4.201213 -9.128413 -2.126171
-4.835802 -10.488716 -2.167570
-5.599994 -12.270613 -2.208675
-5.994487 -13.124754 -2.021760
-7.272260 -15.895153 -2.036088
-9.408031 -20.527050 -2.102732
-12.466165 -27.167675 -2.087222
-15.623376 -34.001884 -1.742956
-0.000122 -0.059393 -0.002191
-0.000122 -0.059393 -0.002191
-0.000122 -0.059393 -0.002191
-15.490795 -33.605251 1.722641
-15.561101 -33.741890 2.594049
-15.652074 -33.907623 3.478710
-15.778160 -34.148891 4.392366
-15.911812 -34.421768 5.321540
-16.059334 -34.708450 6.273963
-16.230307 -35.045147 7.266070
-0.222200 -0.536355 -0.314333
-0.253362 -0.602825 -0.339162
-0.271631 -0.641757 -0.343926
-0.293260 -0.687612 -0.350336
-0.315934 -0.735610 -0.355534
-0.350375 -0.809032 -0.370646
-0.390104 -0.893349 -0.386790
-2.149271 -4.652361 -1.982145
-2.321962 -5.019173 -1.995224
-2.523584 -5.444967 -2.011604
-2.758744 -5.941500 -2.029220
-3.024837 -6.505929 -2.043778
-3.349081 -7.190511 -2.064302
-3.747271 -8.034805 -2.089725
-4.255860 -9.109071 -2.127415
-4.889915 -10.447935 -2.164977
-5.660232 -12.216389 -2.204786
-6.134015 -13.227950 -2.043187
-7.339006 -15.800505 -2.029368
-9.490369 -20.396425 -2.094941
-12.585785 -27.017399 -2.081241
-0.000137 -0.059105 -0.002180
-0.000137 -0.059105 -0.002180
-0.000137 -0.059105 -0.002180
-15.572013 -33.307228 0.851883
-15.682025 -33.511559 1.722434
-15.787852 -33.721855 2.599473
-15.882280 -33.892323 3.486495
-16.004633 -34.121887 4.400711
-16.137260 -34.388432 5.330707
-16.288868 -34.679386 6.285616
-7.080789 -15.094729 3.129866
-0.227885 -0.540990 -0.318402
-0.252783 -0.593195 -0.334253
-0.272698 -0.635077 -0.341099
-0.295342 -0.682378 -0.348531
-0.322150 -0.738384 -0.358091
-0.358602 -0.814957 -0.374702
-0.394909 -0.890795 -0.386780
-2.176487 -4.641288 -1.982865
-2.352105 -5.008815 -1.996586
-2.552111 -5.424903 -2.009677
-2.792580 -5.925218 -2.029215
-3.065203 -6.495028 -2.045978
-3.390090 -7.170799 -2.064298
-3.792312 -8.011044 -2.089260
-4.307068 -9.082346 -2.126997
-4.955599 -10.431720 -2.167567
-5.724252 -12.170801 -2.202517
-6.223289 -13.220744 -2.047640
-7.403194 -15.702013 -2.022184
-9.533183 -20.184572 -2.078794
-12.529787 -26.498838 -2.046818
-0.000128 -0.058797 -0.002169
-15.407084 -32.511620 -0.834621
-15.405787 -32.494129 -0.000566
-15.790719 -33.274498 0.853351
-15.894171 -33.461895 1.724558
-16.016609 -33.703930 2.605176
-7.127538 -15.017527 1.544477
-7.138367 -15.026713 1.937822
-0.000128 -0.058797 -0.002169
-0.000128 -0.058797 -0.002169
-7.163013 -15.044526 3.128011
-0.232897 -0.544031 -0.321452
-0.256590 -0.592983 -0.335222
-0.276779 -0.634792 -0.342027
-0.298940 -0.680379 -0.348520
-0.323713 -0.731335 -0.355514
-0.360573 -0.807639 -0.372252
-0.406089 -0.901498 -0.392935
-2.202027 -4.626694 -1.982131
-2.383014 -4.999958 -1.998631
-2.584637 -5.413245 -2.010952
-2.828803 -5.913888 -2.030996
-3.100538 -6.473500 -2.044870
-3.429303 -7.147371 -2.063281
-3.841446 -7.995787 -2.091101
-4.358980 -9.057105 -2.126995
-5.015248 -10.402702 -2.167566
-5.710262 -11.962948 -2.170750
-6.294700 -13.175456 -2.046250
-7.466479 -15.603289 -2.014999
-9.612689 -20.053656 -2.071003
-12.671471 -26.404364 -2.045159
-0.000120 -0.058489 -0.002157
-7.157700 -14.913618 -0.384274
-7.176157 -14.945189 -0.001434
-7.174217 -14.927834 0.381868
-0.000120 -0.058489 -0.002157
-0.000120 -0.058489 -0.002157
-0.000120 -0.058489 -0.002157
-7.226187 -14.988636 1.938283
-0.000120 -0.058489 -0.002157
-0.000120 -0.058489 -0.002157
-0.000120 -0.058489 -0.002157
-0.235685 -0.542377 -0.321441
-0.258913 -0.589641 -0.334232
-0.281647 -0.636069 -0.343894
-0.303286 -0.679940 -0.349407
-0.329154 -0.732395 -0.357214
-0.364868 -0.805238 -0.372241
-0.411759 -0.900515 -0.393696
-2.227484 -4.611965 -1.981397
-2.410623 -4.984179 -1.997941
-2.614587 -5.396257 -2.010305
-2.861646 -5.895493 -2.030395
-3.135749 -6.451794 -2.043763
-3.470069 -7.127201 -2.063276
-3.884500 -7.967972 -2.089714
-4.405551 -9.021016 -2.124498
-5.075610 -10.375114 -2.167935
-5.678528 -11.723722 -2.133148
-6.347594 -13.092392 -2.039016
-7.199896 -14.829389 -1.920169
-7.222671 -14.862907 -1.538242
-7.220582 -14.852021 -1.152560
-0.000135 -0.058202 -0.002147
-0.000135 -0.058202 -0.002147
-0.000135 -0.058202 -0.002147
-7.265882 -14.898539 0.382190
-0.000135 -0.058202 -0.002147
-7.313266 -14.975394 1.160290
-7.330948 -14.998210 1.551162
-0.000135 -0.058202 -0.002147
-0.000135 -0.058202 -0.002147
-15.120059 -30.803926 5.628468
-15.060756 -30.656210 6.424830
-0.245418 -0.554553 -0.330611
-0.267465 -0.598726 -0.341078
-0.285070 -0.634080 -0.343883
-0.306188 -0.676232 -0.348499
-0.333969 -0.731760 -0.358059
-0.368479 -0.801113 -0.371417
-0.420036 -0.904369 -0.396768
-2.253639 -4.596695 -1.980662
-2.438959 -4.967785 -1.997250
-2.645361 -5.378638 -2.009659
-2.897074 -5.879807 -2.030985
-3.176191 -6.437922 -2.045411
-3.513678 -7.109643 -2.064285
-3.931381 -7.944491 -2.089710
-4.463006 -9.003149 -2.126573
-5.134104 -10.339234 -2.166823
-0.000130 -0.057891 -0.002135
-6.409896 -13.024005 -2.034287
-0.000130 -0.057891 -0.002135
-7.293596 -14.785576 -1.534717
-7.306474 -14.805045 -1.152284
-7.339272 -14.858208 -0.771836
-7.361127 -14.889202 -0.385856
-7.372845 -14.906228 -0.001438
-7.386738 -14.921115 0.383908
-0.000130 -0.057891 -0.002135
-0.000130 -0.057891 -0.002135
-0.000130 -0.057891 -0.002135
-0.000130 -0.057891 -0.002135
-15.062829 -30.260281 4.742578
-0.000130 -0.057891 -0.002135
-14.999620 -30.080757 6.322585
-0.249807 -0.555900 -0.332641
-0.269015 -0.593762 -0.339108
-0.286795 -0.628968 -0.341995
-0.310536 -0.675747 -0.349385
-0.340975 -0.736048 -0.361471
-0.377687 -0.808481 -0.376287
-0.427390 -0.906579 -0.399070
-2.278952 -4.583739 -1.980655
-2.466362 -4.951690 -1.996560
-2.672496 -5.358424 -2.007733
-2.927822 -5.859827 -2.029788
-3.212885 -6.419229 -2.045406
-3.552116 -7.087870 -2.063773
-3.979357 -7.926619 -2.091089
-4.507604 -8.967322 -2.124077
-5.194991 -10.317116 -2.168302
-5.633222 -11.294244 -2.066696
-6.470252 -12.958246 -2.029836
-0.000121 -0.057583 -0.002124
-0.000121 -0.057583 -0.002124
-7.434286 -14.847982 -1.158980
-0.000121 -0.057583 -0.002124
-0.000121 -0.057583 -0.002124
-15.405810 -30.640535 -0.000714
-15.318744 -30.441172 0.789279
-15.227919 -30.247763 1.576116
-15.152246 -30.071562 2.350331
-15.070496 -29.896536 3.118004
-0.000121 -0.057583 -0.002124
-7.587470 -15.054189 2.360612
-0.000121 -0.057583 -0.002124
-14.930793 -29.529865 6.224044
-0.259604 -0.568006 -0.341811
-0.272788 -0.593498 -0.340077
-0.293986 -0.634928 -0.346678
-0.316415 -0.678479 -0.352066
-0.346496 -0.736975 -0.363171
-0.381169 -0.804361 -0.375463
-0.434641 -0.908811 -0.401372
-2.303277 -4.566914 -1.979194
-2.496204 -4.940439 -1.997921
-2.702106 -5.340948 -2.007086
-2.961186 -5.842567 -2.029782
-3.252984 -6.407172 -2.047606
-3.593429 -7.068720 -2.064275
-4.025510 -7.905013 -2.091547
-4.562170 -8.943592 -2.124905
-5.263844 -10.301531 -2.171633
-5.612704 -11.098683 -2.036548
-6.504033 -12.841042 -2.017316
-7.767601 -15.317986 -2.000870
-9.924266 -19.538260 -2.040950
-13.305790 -26.153513 -2.049258
-15.800315 -31.032509 -1.622278
-15.707713 -30.824299 -0.802744
-15.617167 -30.620459 -0.000728
-15.522774 -30.422512 0.791029
-15.436107 -30.226849 1.579642
-15.367590 -30.066969 2.356874
-15.259080 -29.829321 3.120402
-15.175185 -29.652763 3.888648
-15.099554 -29.479830 4.647042
-0.000113 -0.057275 -0.002112
-0.000113 -0.057275 -0.002112
-0.256330 -0.553931 -0.333640
-0.276777 -0.593132 -0.341046
-0.294969 -0.628159 -0.343851
-0.315992 -0.668351 -0.347569
-0.347217 -0.728197 -0.359738
-0.385473 -0.801860 -0.375452
-0.438833 -0.904274 -0.400591
-2.327422 -4.547904 -1.977005
-2.523416 -4.924010 -1.997230
-2.735141 -5.327872 -2.008360
-2.994574 -5.822893 -2.029181
-3.285949 -6.381203 -2.045396
-3.634094 -7.045274 -2.063765
-4.069727 -7.879662 -2.091082
-4.602426 -8.896047 -2.119914
-5.320027 -10.265513 -2.170521
-5.603930 -10.921056 -2.009966
-6.533946 -12.718583 -2.003960
-7.864403 -15.283690 -2.002497
-10.040589 -19.480494 -2.041143
-13.456776 -26.077925 -2.049412
-14.551220 -28.170074 -1.477079
-15.925862 -30.799492 -0.804570
-15.828819 -30.598970 -0.000744
-15.731218 -30.384596 0.792452
-15.650742 -30.203573 1.583260
-15.575093 -30.044941 2.362161
-15.462433 -29.802496 3.126890
-15.384450 -29.627111 3.897228
-15.307146 -29.465870 4.658719
-7.835071 -15.097122 2.784769
-15.210752 -29.230675 6.198084
-0.269533 -0.571949 -0.346890
-0.276625 -0.585049 -0.337117
-0.298271 -0.626167 -0.343841
-0.324486 -0.675720 -0.352942
-0.353601 -0.730695 -0.362295
-0.389875 -0.799250 -0.375442
-0.443699 -0.901428 -0.400580
-2.357580 -4.542370 -1.980635
-2.552244 -4.908646 -1.997224
-2.762811 -5.306709 -2.006434
-3.025968 -5.801887 -2.027984
-3.322511 -6.359586 -2.044839
-3.676067 -7.027335 -2.064773
-4.112444 -7.848195 -2.089235
-4.650230 -8.859638 -2.117832
-5.384195 -10.240431 -2.172000
-5.642635 -10.842850 -2.001537
-6.563946 -12.593317 -1.990326
-7.925220 -15.186802 -1.995775
-10.155057 -19.427338 -2.041708
-13.027866 -24.886059 -1.961721
-14.673878 -28.011206 -1.473185
-16.139839 -30.777765 -0.806442
-16.049778 -30.580320 -0.000759
-15.944709 -30.367521 0.794387
-15.856678 -30.174519 1.586506
-15.765776 -29.976410 2.364097
-15.676751 -29.782150 3.134493
-15.591567 -29.608000 3.906506
-15.519299 -29.446037 4.670116
-15.457216 -29.303629 5.434111
-7.975941 -15.141587 3.213547
-0.271775 -0.568516 -0.345859
-0.279739 -0.583083 -0.337106
-0.305775 -0.631874 -0.348524
-0.325643 -0.668757 -0.350240
-0.357583 -0.728274 -0.362284
-0.395873 -0.799928 -0.377058
-0.459992 -0.919663 -0.410590
-2.384146 -4.527994 -1.980628
-2.581924 -4.896893 -1.998585
-2.793921 -5.289929 -2.006428
-3.060002 -5.783530 -2.027978
-3.358768 -6.340059 -2.044835
-3.718270 -7.006801 -2.065275
-4.164584 -7.837800 -2.092919
-4.701762 -8.834126 -2.118245
-5.440885 -10.205479 -2.171258
-0.000134 -0.056392 -0.002079
-6.645334 -12.572510 -1.993109
-7.993419 -15.098866 -1.990446
-10.259531 -19.347101 -2.039673
-13.734800 -25.870651 -2.045675
-13.815965 -26.001249 -1.371732
-16.362282 -30.757034 -0.808454
-16.266703 -30.564737 -0.000773
-16.159111 -30.337345 0.796089
-16.074619 -30.153605 1.590404
-15.996117 -29.993921 2.372734
-15.884307 -29.759565 3.141724
-15.806928 -29.589962 3.916481
-15.721002 -29.416973 4.679844
-15.666411 -29.290369 5.448364
-0.000134 -0.056392 -0.002079
-0.275543 -0.568165 -0.346869
-0.280293 -0.576562 -0.334156
-0.304895 -0.622027 -0.343819
-0.327455 -0.663412 -0.348435
-0.363035 -0.729141 -0.363984
-0.402751 -0.802159 -0.379488
-0.467583 -0.921568 -0.412892
-2.407314 -4.511035 -1.979166
-2.608865 -4.879991 -1.997895
-2.830310 -5.287269 -2.011543
-3.094650 -5.771074 -2.029759
-3.394898 -6.320308 -2.044829
-3.757964 -6.987342 -2.065777
-4.204701 -7.804846 -2.090610
-4.752584 -8.810878 -2.119074
-0.000126 -0.056084 -0.002068
-0.000126 -0.056084 -0.002068
-6.702280 -12.505825 -1.988658
-8.064842 -15.024300 -1.986739
-10.382743 -19.310181 -2.042094
-13.096050 -24.331642 -1.929814
-12.361064 -22.949997 -1.214418
-20.406683 -37.835495 -0.997385
-16.500139 -30.577568 -0.000787
-16.380798 -30.331406 0.798396
-16.278591 -30.129839 1.593930
-16.205336 -29.969427 2.378160
-16.085989 -29.736624 3.148770
-16.004774 -29.562056 3.924597
-15.935199 -29.409214 4.693191
-14.671847 -27.070717 5.049766
-14.653744 -27.014820 5.780249
-0.279218 -0.567826 -0.347878
-0.284043 -0.576231 -0.335126
-0.310599 -0.624676 -0.346625
-0.334267 -0.667547 -0.352013
-0.366055 -0.725168 -0.363118
-0.410551 -0.805942 -0.382731
-0.475067 -0.923499 -0.415194
-2.432036 -4.495164 -1.978432
-2.636588 -4.864571 -1.997888
-2.854017 -5.258958 -2.007056
-3.127518 -5.752863 -2.029753
-3.430899 -6.300336 -2.044824
-3.799666 -6.968659 -2.066785
-4.253001 -7.787016 -2.092451
-4.802545 -8.778781 -2.118239
-5.495761 -10.029638 -2.147190
-5.761051 -10.619835 -1.978518
-6.744443 -12.412818 -1.980032
-8.111177 -14.910730 -1.977698
-10.599922 -19.452555 -2.063458
-0.000117 -0.055776 -0.002056
-13.796762 -25.270910 -1.341410
-19.754801 -36.129932 -0.955465
-0.000117 -0.055776 -0.002056
-0.000117 -0.055776 -0.002056
-16.681229 -30.453894 1.616196
-0.000117 -0.055776 -0.002056
-16.346222 -29.793919 3.165107
-14.705173 -26.797216 3.567888
-14.647709 -26.670605 4.268588
-14.635758 -26.626802 4.982942
-14.594399 -26.540672 5.696529
-0.281415 -0.564351 -0.346847
-0.292185 -0.583386 -0.340992
-0.312247 -0.619421 -0.344736
-0.337911 -0.665271 -0.352003
-0.371766 -0.725840 -0.364819
-0.411323 -0.796877 -0.379467
-0.478418 -0.917139 -0.413642
-2.457435 -4.478731 -1.977697
-2.662420 -4.845729 -1.996514
-2.886675 -5.244936 -2.008329
-3.161272 -5.733908 -2.029748
-3.466817 -6.280184 -2.044819
-3.838733 -6.942312 -2.065768
-4.294604 -7.756987 -2.091063
-4.848902 -8.743859 -2.116574
-5.477395 -9.861963 -2.117940
-5.808333 -10.557518 -1.973330
-6.724414 -12.208843 -1.953596
-8.182814 -14.832493 -1.973759
-10.724475 -19.406429 -2.065323
-13.725953 -24.811985 -1.980456
-13.792974 -24.912289 -1.326714
-20.906227 -37.700329 -1.000263
-0.000132 -0.055489 -0.002045
-25.650305 -46.185509 1.225249
-0.000132 -0.055489 -0.002045
-16.913708 -30.435640 2.430609
-14.642679 -26.334724 2.805648
-14.654607 -26.334448 3.517680
-14.605831 -26.236135 4.212334
-14.595140 -26.195415 4.917741
-14.546123 -26.086153 5.617255
-0.286039 -0.565439 -0.348877
-0.290956 -0.573790 -0.336084
-0.318078 -0.621932 -0.347542
-0.344038 -0.667686 -0.354684
-0.374723 -0.721800 -0.363952
-0.416475 -0.795782 -0.380270
-0.481548 -0.910840 -0.412090
-2.482862 -4.464199 -1.977690
-2.689959 -4.830013 -1.996507
-2.915586 -5.226279 -2.007683
-3.195786 -5.718622 -2.030933
-3.500720 -6.256468 -2.043711
-3.878335 -6.919794 -2.065763
-4.336963 -7.728430 -2.090137
-4.897885 -8.713777 -2.116155
-0.000124 -0.055181 -0.002034
-5.837843 -10.468511 -1.962956
-6.820453 -12.216258 -1.961110
-8.278470 -14.803873 -1.976313
-10.863041 -19.392654 -2.070530
-12.679723 -22.617260 -1.810905
-12.559844 -22.385609 -1.195924
-32.590237 -57.950893 -1.542246
-0.000124 -0.055181 -0.002034
-33.532700 -59.551785 1.585934
-14.636666 -26.003397 1.388293
-14.635145 -25.990036 2.081358
-14.588139 -25.885538 2.766605
-14.613145 -25.908638 3.471889
-14.542887 -25.773746 4.151347
-14.550081 -25.765415 4.852541
-14.505958 -25.666471 5.544648
-0.285564 -0.557489 -0.344785
-0.295660 -0.574837 -0.338032
-0.316106 -0.610585 -0.341898
-0.342258 -0.656077 -0.349290
-0.381249 -0.724052 -0.366509
-0.422661 -0.796163 -0.381886
-0.486468 -0.907753 -0.412079
-2.508212 -4.449526 -1.977683
-2.720107 -4.816930 -1.997869
-2.953770 -5.223900 -2.013438
-3.229309 -5.701492 -2.031524
-3.539352 -6.238614 -2.044808
-3.921650 -6.903759 -2.067784
-4.381466 -7.700590 -2.089673
-4.955983 -8.696136 -2.119062
-5.415585 -9.489836 -2.051294
-5.885041 -10.412109 -1.958740
-6.873870 -12.142545 -1.955823
-8.344606 -14.722845 -1.971910
-10.954541 -19.294882 -2.066824
-12.678034 -22.303829 -1.791811
-12.725840 -22.378565 -1.199472
-33.039040 -57.965137 -1.547714
-14.617722 -25.655582 -0.001034
-14.644063 -25.691225 0.684428
-14.576644 -25.552416 1.368607
-14.594579 -25.563026 2.053987
-14.543233 -25.452602 2.729421
-14.539631 -25.435930 3.419593
-14.491315 -25.331032 4.093702
-14.524598 -25.368496 4.793828
-14.630704 -25.543001 5.536117
-0.290252 -0.558462 -0.346815
-0.303952 -0.581827 -0.343899
-0.324689 -0.617579 -0.347521
-0.348492 -0.658374 -0.351971
-0.381603 -0.715222 -0.363076
-0.430711 -0.799672 -0.385129
-0.492451 -0.906155 -0.412840
-2.533310 -4.432652 -1.976949
-2.743603 -4.792271 -1.994442
-2.978690 -5.196146 -2.009591
-3.262752 -5.681926 -2.031518
-3.575972 -6.217194 -2.044803
-3.961251 -6.878399 -2.067273
-4.423819 -7.669104 -2.088286
-5.002258 -8.657826 -2.116982
-5.389407 -9.316219 -2.020561
-5.914868 -10.321983 -1.948366
-6.896027 -12.015470 -1.941910
-8.363998 -14.555757 -1.956145
-11.040619 -19.180937 -2.061631
-12.698048 -22.034424 -1.776204
-12.603141 -21.861269 -1.175741
-14.617300 -25.325844 -0.678858
-14.600039 -25.275581 -0.001059
-14.586512 -25.241972 0.674698
-14.539338 -25.140221 1.351065
-14.547477 -25.133984 2.026336
-14.497715 -25.028009 2.692982
-14.514388 -25.046581 3.378683
-14.566394 -25.115881 4.072808
-14.679502 -25.290098 4.795436
-14.820231 -25.521692 5.550548
-0.293937 -0.558021 -0.347824
-0.301624 -0.570786 -0.338010
-0.328725 -0.616981 -0.348449
-0.353656 -0.659192 -0.353755
-0.390763 -0.722138 -0.368199
-0.435787 -0.798525 -0.385932
-2.383852 -4.124756 -1.972132
-2.555829 -4.414910 -1.975487
-2.773829 -4.783059 -1.997171
-3.015989 -5.193832 -2.015346
-3.296060 -5.666604 -2.032703
-3.613260 -6.201799 -2.046451
-3.998313 -6.854193 -2.066762
-4.466265 -7.643965 -2.088282
-5.044257 -8.619324 -2.114483
-5.380186 -9.182400 -1.997974
-5.953207 -10.256090 -1.942204
-6.959701 -11.971316 -1.941075
-8.379719 -14.397030 -1.941074
-11.124148 -19.079145 -2.057366
-12.663400 -21.694235 -1.754459
-12.583419 -21.548864 -1.162717
-14.577271 -24.934708 -0.670573
-14.535283 -24.843105 -0.001085
-14.519550 -24.806265 0.665156
-14.489052 -24.734428 1.333525
-14.498299 -24.730360 2.000223
-14.544094 -24.788431 2.675871
-14.648702 -24.956278 3.377509
-14.743304 -25.096994 4.083096
-14.859276 -25.273743 4.808071
-15.001144 -25.504261 5.564979
-0.297788 -0.557442 -0.348833
-0.305574 -0.570191 -0.338979
-0.327563 -0.607125 -0.343744
-0.358149 -0.658321 -0.354641
-0.394703 -0.719493 -0.368188
-0.441939 -0.798853 -0.387548
-2.405141 -4.105484 -1.969812
-2.582606 -4.400965 -1.976207
-2.801007 -4.766697 -1.997164
-3.046441 -5.175554 -2.015340
-3.327345 -5.643361 -2.031506
-3.645652 -6.175631 -2.044792
-4.038580 -6.830040 -2.066756
-4.508896 -7.616139 -2.087816
-5.093509 -8.589842 -2.114480
-5.362127 -9.032844 -1.972054
-6.012627 -10.218586 -1.941878
-7.001995 -11.886426 -1.933839
-8.437341 -14.300601 -1.934814
-11.198243 -18.947397 -2.050314
-0.000116 -0.053966 -0.001989
-12.559858 -21.219255 -1.148945
-14.533731 -24.526001 -0.661915
-14.503123 -24.464670 -0.001106
-14.500620 -24.440964 0.657615
-14.535115 -24.479471 1.324378
-14.619769 -24.611883 1.997421
-14.747452 -24.806608 2.687011
-14.834863 -24.933460 3.386328
-14.922797 -25.070913 4.092830
-15.045751 -25.256933 4.821357
-15.187179 -25.473566 5.577929
-0.302465 -0.558382 -0.350863
-0.312127 -0.574104 -0.342887
-0.333463 -0.609469 -0.346550
-0.359792 -0.652889 -0.352836
-0.395734 -0.712257 -0.365610
-0.450114 -0.802179 -0.390791
-2.422720 -4.081769 -1.965178
-2.607605 -4.385725 -1.976199
-2.828928 -4.749701 -1.997156
-3.075879 -5.157618 -2.015332
-3.360470 -5.625445 -2.032094
-3.682899 -6.155231 -2.045336
-4.076540 -6.804714 -2.066244
-0.000131 -0.053679 -0.001978
-5.133930 -8.542415 -2.110317
-5.370525 -8.926581 -1.955759
-6.060928 -10.166570 -1.938632
-7.063940 -11.830791 -1.931610
-8.561152 -14.321313 -1.944321
-11.273040 -18.825960 -2.044187
-0.000131 -0.053679 -0.001978
-13.114923 -21.867104 -1.188146
-14.436277 -24.045822 -0.651211
-14.427953 -24.012949 -0.001125
-14.604693 -24.296789 0.655983
-14.706479 -24.446383 1.327170
-14.809546 -24.597858 2.003417
-14.934217 -24.784859 2.694253
-15.021031 -24.918722 3.396081
-15.116055 -25.056200 4.105073
-15.242025 -25.244589 4.836268
-15.386234 -25.472813 5.597182
-0.306334 -0.557739 -0.351872
-0.309775 -0.562999 -0.336999
-0.335833 -0.605667 -0.345600
-0.361467 -0.647376 -0.351030
-0.399531 -0.709678 -0.365600
-0.456322 -0.802399 -0.392408
-2.442747 -4.060727 -1.962087
-2.635413 -4.375102 -1.978373
-2.856899 -4.734628 -1.997832
-3.109154 -5.145972 -2.017885
-3.396477 -5.612209 -2.034470
-3.718997 -6.135276 -2.045881
-4.115361 -6.780833 -2.066238
-4.585847 -7.544059 -2.082733
-5.173092 -8.499975 -2.106986
-5.409725 -8.879396 -1.952051
-6.105455 -10.104821 -1.933766
-7.098736 -11.735452 -1.922702
-8.618818 -14.225828 -1.938291
-11.345919 -18.695498 -2.037318
-12.494381 -20.574383 -1.681262
-13.010209 -21.404728 -1.167201
-14.334852 -23.569319 -0.640553
-14.386528 -23.635481 -0.001140
-14.791018 -24.279390 0.657882
-14.892528 -24.435997 1.331266
-14.990180 -24.576540 2.008714
-15.104292 -24.753433 2.700009
-15.208558 -24.904356 3.406067
-15.300138 -25.034304 4.115924
-15.421647 -25.222729 4.848585
-15.571415 -25.447159 5.611250
-0.310042 -0.557181 -0.352882
-0.315357 -0.565416 -0.339927
-0.340775 -0.606500 -0.347468
-0.367591 -0.649614 -0.353712
-0.408035 -0.714749 -0.369867
-0.472144 -0.818122 -0.402158
-2.468965 -4.053005 -1.965162
-2.662226 -4.362731 -1.979820
-2.883806 -4.717793 -1.997824
-3.138448 -5.127696 -2.017878
-3.425418 -5.587383 -2.032675
-3.754952 -6.115071 -2.046425
-4.155042 -6.758353 -2.066737
-4.631981 -7.522181 -2.084110
-5.214865 -8.455531 -2.103654
-0.000114 -0.053063 -0.001955
-6.106682 -9.981165 -1.916579
-7.095278 -11.579368 -1.903775
-8.681169 -14.150116 -1.934579
-11.426853 -18.594238 -2.033233
-12.396598 -20.151970 -1.652537
-12.985512 -21.098499 -1.154449
-14.387058 -23.351681 -0.636896
-14.373857 -23.312054 -0.001154
-14.969176 -24.265833 0.659783
-15.072660 -24.414103 1.334802
-15.176336 -24.562454 2.014710
-15.307220 -24.754477 2.710038
-15.391208 -24.880226 3.414890
-15.484460 -25.011103 4.126776
-15.616519 -25.204250 4.862848
-0.000114 -0.053063 -0.001955
-0.312116 -0.553571 -0.351851
-0.317472 -0.561759 -0.338936
-0.340309 -0.598171 -0.343701
-0.370184 -0.645611 -0.352804
-0.411964 -0.712025 -0.369857
-0.481365 -0.822820 -0.406214
-2.491665 -4.036408 -1.964383
-2.684770 -4.341806 -1.977629
-2.911617 -4.702396 -1.998500
-3.166492 -5.105473 -2.016590
-3.455159 -5.561814 -2.030881
-3.790830 -6.094679 -2.046969
-4.193727 -6.731642 -2.066225
-4.674905 -7.495068 -2.084104
-5.243394 -8.393598 -2.095750
-5.491609 -8.781657 -1.944636
-6.136268 -9.897573 -1.907499
-7.206602 -11.610282 -1.915738
-8.736270 -14.052556 -1.928317
-11.496601 -18.461643 -2.026178
-12.473031 -20.017342 -1.647380
-12.387824 -19.865490 -1.090952
-14.343684 -22.975760 -0.628973
-14.329289 -22.943789 -0.001169
-14.324945 -22.919018 0.625289
-14.273505 -22.819149 1.251920
-14.269871 -22.804438 1.876809
-14.238111 -22.736124 2.497430
-14.240669 -22.722530 3.129547
-14.185303 -22.625553 3.745636
-16.260180 -25.907146 5.016882
-16.280788 -25.919783 5.757529
-0.310405 -0.544190 -0.346739
-0.325981 -0.568466 -0.344803
-0.350992 -0.607847 -0.351202
-0.374557 -0.644690 -0.353691
-0.417695 -0.712404 -0.371558
-0.481894 -0.813569 -0.402950
-2.515565 -4.023263 -1.965146
-2.710427 -4.327549 -1.978349
-2.936348 -4.682090 -1.997125
-3.199593 -5.093247 -2.019143
-3.489899 -5.546358 -2.032661
-3.826606 -6.074081 -2.047514
-4.232130 -6.707088 -2.066218
-4.715600 -7.464438 -2.083176
-5.254558 -8.305195 -2.081192
-5.537566 -8.742957 -1.943150
-6.158082 -9.806686 -1.896796
-7.238148 -11.513033 -1.906552
-8.787029 -13.954691 -1.921822
-11.565157 -18.335915 -2.019679
-12.452322 -19.730774 -1.629672
-12.318952 -19.504904 -1.075033
-14.322399 -22.650970 -0.622348
-14.287395 -22.586952 -0.001183
-14.273217 -22.547148 0.617337
-14.236245 -22.471487 1.237279
-14.238055 -22.465607 1.855590
-14.193302 -22.377857 2.466947
-14.214248 -22.393484 3.095386
-14.162982 -22.304249 3.705821
-14.146191 -22.260662 4.324828
-14.117895 -22.199097 4.947176
-0.315083 -0.544992 -0.348769
-0.322372 -0.555998 -0.337935
-0.351310 -0.601037 -0.348374
-0.377962 -0.642223 -0.353680
-0.424396 -0.714237 -0.374113
-0.481470 -0.802708 -0.398873
-2.534389 -4.002181 -1.962054
-2.736016 -4.313141 -1.979068
-2.964764 -4.665849 -1.997801
-3.224465 -5.068054 -2.016575
-3.525601 -5.532279 -2.035036
-3.863294 -6.052573 -2.048058
-4.270376 -6.682296 -2.066212
-4.757384 -7.432752 -2.082248
-5.261020 -8.207816 -2.064556
-5.522948 -8.607274 -1.920190
-6.187581 -9.729195 -1.888687
-7.179000 -11.271071 -1.873432
-8.860502 -13.893501 -1.920429
-11.634809 -18.213371 -2.013551
-12.161823 -19.021357 -1.576959
-12.331532 -19.278612 -1.066468
-14.261142 -22.269985 -0.614145
-14.245730 -22.228868 -0.001196
-14.237145 -22.206917 0.610222
-14.196538 -22.126696 1.222733
-14.203424 -22.120386 1.833952
-14.166999 -22.046843 2.439625
-14.159746 -22.027071 3.055882
-14.125192 -21.956553 3.661829
-14.120410 -21.932283 4.277152
-14.093842 -21.882668 4.894581
-0.318011 -0.542823 -0.348758
-0.325351 -0.553772 -0.337924
-0.352640 -0.595679 -0.346485
-0.379509 -0.636670 -0.351875
-0.425269 -0.706949 -0.371536
-0.484788 -0.798090 -0.398049
-2.558804 -3.988334 -1.962817
-2.760505 -4.297010 -1.979060
-2.994363 -4.653127 -1.999845
-3.257445 -5.055463 -2.019128
-3.553986 -5.506795 -2.033242
-3.900934 -6.034753 -2.049705
-4.309553 -6.658920 -2.066712
-4.805126 -7.413076 -2.084547
-5.243360 -8.081351 -2.040020
-5.506113 -8.477269 -1.897969
-6.193377 -9.612495 -1.873122
-7.323189 -11.352226 -1.894022
-8.892771 -13.763731 -1.909760
-11.710924 -18.095272 -2.008167
-12.323014 -19.031023 -1.583655
-12.463906 -19.233290 -1.068054
-14.246092 -21.967566 -0.608075
-14.207433 -21.891333 -0.001208
-14.214543 -21.885494 0.603664
-14.168617 -21.806562 1.209491
-14.165788 -21.785545 1.812873
-14.130813 -21.723547 2.412489
-14.121071 -21.692005 3.020560
-14.073506 -21.602589 3.616167
-14.088028 -21.616524 4.230774
-14.038647 -21.524477 4.832357
-0.329231 -0.553684 -0.357929
-0.329112 -0.553112 -0.338894
-0.356648 -0.594886 -0.347414
-0.384715 -0.637215 -0.353658
-0.432994 -0.710222 -0.374948
-0.486062 -0.790403 -0.395598
-2.580747 -3.973683 -1.962808
-2.782862 -4.277633 -1.977597
-3.022890 -4.638652 -2.001205
-3.290358 -5.042629 -2.021681
-3.585321 -5.485917 -2.033234
-3.932144 -6.007072 -2.048044
-4.347535 -6.633694 -2.066705
-4.847450 -7.384990 -2.084541
-5.229392 -7.956798 -2.016315
-5.612428 -8.529373 -1.917217
-6.239102 -9.565911 -1.870848
-7.342496 -11.240009 -1.882330
-8.912497 -13.627185 -1.897699
-11.787455 -17.992683 -2.004082
-12.421153 -18.942770 -1.582263
-0.000119 -0.051565 -0.001900
-14.373174 -21.886536 -0.608125
-14.293376 -21.748735 -0.001214
-14.205310 -21.606789 0.598130
-14.147358 -21.502474 1.197090
-14.117056 -21.440201 1.790819
-14.096717 -21.393103 2.384981
-14.093229 -21.379646 2.988259
-14.056449 -21.307766 3.580251
-14.039274 -21.265621 4.178235
-14.007998 -21.210255 4.779764
-0.321736 -0.535656 -0.346696
-0.333049 -0.552305 -0.339862
-0.363781 -0.598347 -0.351159
-0.389173 -0.636110 -0.354545
-0.435894 -0.705837 -0.374082
-0.487278 -0.782736 -0.393147
-2.607033 -3.962597 -1.965112
-2.810988 -4.265393 -1.979771
-3.051339 -4.623990 -2.002565
-3.312566 -5.011703 -2.017192
-3.619623 -5.467420 -2.034418
-3.965310 -5.982430 -2.047486
-4.386506 -6.607473 -2.066699
-4.883097 -7.346937 -2.081769
-5.217140 -7.840112 -1.994274
-5.649119 -8.478650 -1.913139
-6.296541 -9.530069 -1.871167
-7.346532 -11.106523 -1.867021
-9.023691 -13.620077 -1.904191
-11.863917 -17.877367 -1.999068
-12.204670 -18.382368 -1.541263
-12.410402 -18.677210 -1.045058
-14.547950 -21.868763 -0.610030
-14.451374 -21.715660 -0.001216
-14.355160 -21.555080 0.599056
-14.277719 -21.422838 1.197366
-0.000110 -0.051257 -0.001889
-0.000110 -0.051257 -0.001889
-14.079215 -21.085709 2.958746
-14.013346 -20.979317 3.538488
-14.009613 -20.957878 4.133479
-13.978960 -20.896313 4.727539
-0.327410 -0.537788 -0.349746
-0.340783 -0.557301 -0.344750
-0.364937 -0.592998 -0.349270
-0.394536 -0.636528 -0.356329
-0.439659 -0.703019 -0.374071
-0.494531 -0.784148 -0.395576
-2.630545 -3.948745 -1.965874
-2.835209 -4.248831 -1.979763
-3.080783 -4.610714 -2.004609
-3.340011 -4.990667 -2.016544
-3.651841 -5.447780 -2.035007
-4.000474 -5.960782 -2.048030
-4.425279 -6.583407 -2.067198
-4.920674 -7.311957 -2.079919
-5.203705 -7.723816 -1.972232
-5.671072 -8.406647 -1.904247
-6.347721 -9.488437 -1.870190
-7.351482 -10.976643 -1.852268
-9.038438 -13.473659 -1.890970
-11.803908 -17.567345 -1.971952
-12.255387 -18.230412 -1.534431
-12.197905 -18.131458 -1.018429
-14.716990 -21.848949 -0.611843
-14.622917 -21.701387 -0.001218
-14.526908 -21.542984 0.601051
-14.443106 -21.402849 1.200904
-14.352420 -21.260727 1.789556
-14.267905 -21.119909 2.372709
-14.177838 -20.971098 2.954096
-0.000124 -0.050970 -0.001878
-0.000124 -0.050970 -0.001878
-13.966291 -20.620045 4.683094
-0.332125 -0.538414 -0.351775
-0.338788 -0.547821 -0.339841
-0.369051 -0.592044 -0.350198
-0.395899 -0.630996 -0.354524
-0.447481 -0.706140 -0.377483
-0.508142 -0.794467 -0.402886
-2.651914 -3.931705 -1.965095
-2.857233 -4.229050 -1.978299
-3.106709 -4.590485 -2.003917
-3.371599 -4.975720 -2.018456
-3.679609 -5.421613 -2.033212
-4.034386 -5.935051 -2.047472
-4.461718 -6.555899 -2.066685
-4.955962 -7.271093 -2.076685
-5.205945 -7.629611 -1.956011
-5.712752 -8.361200 -1.901650
-6.380852 -9.420417 -1.864025
-7.409480 -10.922696 -1.850594
-9.083159 -13.373498 -1.884243
-12.021303 -17.669836 -1.991269
-11.646389 -17.107483 -1.445593
-12.349155 -18.129892 -1.022341
-14.893065 -21.837814 -0.613933
-14.804198 -21.691519 -0.001219
-14.697882 -21.527977 0.602999
-14.614367 -21.389883 1.204909
-14.517478 -21.232473 1.794437
-14.435467 -21.096979 2.379768
-14.367744 -20.990332 2.968499
-14.267184 -20.828138 3.540987
-14.177108 -20.681446 4.111422
-14.097882 -20.558409 4.687536
-0.335989 -0.537550 -0.352785
-0.345700 -0.551249 -0.343748
-0.370254 -0.586642 -0.348310
-0.404413 -0.635690 -0.359000
-0.453423 -0.706152 -0.379183
-0.514506 -0.794245 -0.404503
-2.671741 -3.911045 -1.962774
-2.880917 -4.210194 -1.977564
-3.131747 -4.570686 -2.003225
-3.397533 -4.950663 -2.016528
-3.714692 -5.404104 -2.034992
-4.071508 -5.916168 -2.049118
-4.500253 -6.529023 -2.066679
-4.987463 -7.227744 -2.072529
-5.195894 -7.522107 -1.936047
