# This PCD file was generated using the MATLAB® pcwrite function
# from Computer Vision Toolbox®.
# .PCD v.7 - Point Cloud Data file format
VERSION .7
FIELDS x y z
SIZE 4 4 4
TYPE F F F
COUNT 1 1 1
WIDTH 1582
HEIGHT 1
VIEWPOINT 0 0 0 1 0 0 0
POINTS 1582
DATA ascii
-12.097372 -4.201033 2.102574
-7.402477 -2.575949 1.475140
-3.027184 -1.058713 -1.899141
-3.200613 -1.117129 -1.902129
-3.385321 -1.179953 -1.903809
-3.604420 -1.253808 -1.913805
-3.839118 -1.332829 -1.921527
-4.108905 -1.423686 -1.934187
-4.342597 -1.502844 -1.917652
-4.426665 -1.529882 -1.827254
-4.542601 -1.567726 -1.747594
-4.788042 -1.650571 -1.709976
-5.170304 -1.778963 -1.704985
-5.569153 -1.912702 -1.687441
-5.914617 -2.029138 -1.636033
-6.441907 -2.206005 -1.612598
-5.957654 -2.039134 -1.337823
-6.006627 -2.053414 -1.195506
-6.072865 -2.105460 -1.055613
-6.096992 -2.111376 -0.906549
-6.427618 -2.223685 -0.794045
-6.509996 -2.249417 -0.642596
-6.511790 -2.247488 -0.481846
-6.519108 -2.248722 -0.321859
-16.573214 -5.683981 -0.407036
-6.605343 -2.273085 -0.000525
0.000012 -0.017104 -0.000620
-6.525621 -2.242049 0.320992
0.000012 -0.017104 -0.000620
-6.504115 -2.229637 0.640427
-12.473041 -4.257680 1.540181
-12.321020 -4.201190 1.828290
-7.434660 -2.538944 1.289317
-7.506874 -2.561973 1.492924
-3.037849 -1.043144 -1.902192
-3.196795 -1.095590 -1.896241
-3.393641 -1.160701 -1.904738
-3.609568 -1.232777 -1.912897
-3.854986 -1.313959 -1.925795
-4.118443 -1.401009 -1.934991
-4.351072 -1.477497 -1.917642
-4.420906 -1.500086 -1.821425
-4.552955 -1.542612 -1.748268
-4.815324 -1.628668 -1.716369
-5.167695 -1.744620 -1.700806
-5.574177 -1.879435 -1.685778
-5.850867 -1.969631 -1.615259
-5.906068 -1.985758 -1.475645
0.000018 -0.016792 -0.000609
-8.100953 -2.712762 -1.609098
-8.999498 -3.055477 -1.561055
-10.424947 -3.532718 -1.546676
-10.449457 -3.538960 -1.288043
-11.417937 -3.860958 -1.124442
0.000018 -0.016792 -0.000609
-16.788925 -5.656183 -0.826299
-16.811213 -5.660402 -0.412088
-16.798737 -5.649679 -0.000375
-16.782890 -5.637837 0.410549
0.000018 -0.016792 -0.000609
0.000018 -0.016792 -0.000609
0.000018 -0.016792 -0.000609
0.000018 -0.016792 -0.000609
-12.485847 -4.176827 1.849175
-12.322631 -4.120049 2.133393
-7.832849 -2.621978 1.554778
-3.032612 -1.020470 -1.895040
-3.201684 -1.075209 -1.895252
-3.400358 -1.140239 -1.904728
-3.613539 -1.209294 -1.911093
-3.855751 -1.288502 -1.922363
-4.121364 -1.374521 -1.932541
-4.352652 -1.449050 -1.914549
-4.413689 -1.468279 -1.814868
-4.551218 -1.511755 -1.744155
-4.822728 -1.600021 -1.715719
-5.184822 -1.716916 -1.703180
-5.586972 -1.846644 -1.686320
-5.913495 -1.952457 -1.629431
-6.644261 -2.189122 -1.656846
0.000027 -0.016485 -0.000598
-8.105152 -2.662126 -1.606868
-9.042244 -3.008208 -1.565262
-10.377929 -3.448119 -1.536649
-10.436819 -3.463553 -1.283862
-11.407143 -3.779602 -1.121091
0.000027 -0.016485 -0.000598
0.000027 -0.016485 -0.000598
0.000027 -0.016485 -0.000598
-16.786257 -5.534616 -0.000370
0.000027 -0.016485 -0.000598
0.000027 -0.016485 -0.000598
-13.174517 -4.334587 0.969056
0.000027 -0.016485 -0.000598
-6.534273 -2.154383 0.803486
0.000027 -0.016485 -0.000598
0.000027 -0.016485 -0.000598
-7.842127 -2.574711 1.553675
-3.036539 -1.002692 -1.894010
-3.212524 -1.058632 -1.898181
-3.403219 -1.119841 -1.902840
-3.621838 -1.189341 -1.911981
-3.866441 -1.267080 -1.924065
-4.127162 -1.350640 -1.931718
-4.360591 -1.424429 -1.914540
-4.420207 -1.441970 -1.814131
-4.552342 -1.483711 -1.741409
-4.797518 -1.560906 -1.703546
-5.190875 -1.685547 -1.701979
-5.578803 -1.809236 -1.680799
-5.919008 -1.916288 -1.627903
-6.593282 -2.131471 -1.641160
-7.159456 -2.310351 -1.598502
-8.129613 -2.618103 -1.608711
-9.049423 -2.954324 -1.563633
-10.400707 -3.391045 -1.537199
-10.607079 -3.453911 -1.302408
-11.539762 -3.751733 -1.132044
-16.809092 -5.454220 -1.235752
0.000013 -0.016197 -0.000587
-16.792324 -5.435844 -0.410036
-16.776848 -5.427608 -0.000365
0.000013 -0.016197 -0.000587
0.000013 -0.016197 -0.000587
0.000013 -0.016197 -0.000587
-13.188185 -4.252271 1.291900
-13.013535 -4.191165 1.597818
-12.849071 -4.135925 1.895955
-6.489943 -2.094528 1.119103
0.000013 -0.016197 -0.000587
-3.045455 -0.985938 -1.896041
-3.213480 -1.038220 -1.895232
-3.407839 -1.099392 -1.901892
-3.626828 -1.167622 -1.911074
-3.868417 -1.242859 -1.921488
-4.128032 -1.323614 -1.928455
-4.366866 -1.398435 -1.913759
-4.412354 -1.411134 -1.807575
-4.557399 -1.455257 -1.740032
-4.831619 -1.540928 -1.712500
-5.176731 -1.647864 -1.694225
-5.558164 -1.765984 -1.671418
-5.959399 -1.891178 -1.635998
-6.659559 -2.108938 -1.654523
-7.182288 -2.270475 -1.600573
-8.163649 -2.575392 -1.612406
-9.039878 -2.893494 -1.559086
-10.375237 -3.314565 -1.530511
0.000022 -0.015890 -0.000576
-11.424424 -3.641550 -1.118662
-16.795422 -5.339631 -1.232399
0.000022 -0.015890 -0.000576
-16.777485 -5.324263 -0.408916
-16.768602 -5.315010 -0.000360
-16.751663 -5.306437 0.407499
-16.737926 -5.295670 0.818110
-16.486879 -5.210145 1.208376
0.000022 -0.015890 -0.000576
-13.207893 -4.169476 1.618734
-13.018784 -4.105018 1.917396
-12.825449 -4.039361 2.207994
-12.692727 -3.995292 2.505805
-3.056085 -0.969091 -1.899092
-3.217817 -1.018311 -1.894242
-3.417586 -1.079911 -1.903760
-3.635317 -1.146325 -1.911961
-3.866779 -1.217571 -1.917200
-4.135492 -1.299519 -1.928445
-4.369691 -1.370551 -1.911437
0.000009 -0.015603 -0.000565
-4.565595 -1.428674 -1.740023
-4.825830 -1.508290 -1.707368
-5.189701 -1.618861 -1.695408
-5.590189 -1.740445 -1.678024
-5.947905 -1.849680 -1.629911
-6.626873 -2.056515 -1.643448
-7.181679 -2.226006 -1.597653
-8.097035 -2.504635 -1.596475
-9.037936 -2.833617 -1.555836
-10.433782 -3.266848 -1.536349
-10.546016 -3.297774 -1.290101
0.000009 -0.015603 -0.000565
-16.791496 -5.231862 -1.229882
-16.766449 -5.217665 -0.819012
-16.763866 -5.213653 -0.407844
-16.752983 -5.203853 -0.000355
-16.735016 -5.191894 0.406343
-16.716524 -5.182972 0.815599
-16.474592 -5.101882 1.205311
-16.451900 -5.091721 1.605928
0.000009 -0.015603 -0.000565
-13.216255 -4.083272 1.943013
-13.011847 -4.017877 2.236212
-12.837546 -3.959342 2.529884
-3.061361 -0.951712 -1.899082
-3.230055 -1.002081 -1.898151
-3.420103 -1.059483 -1.901873
-3.631312 -1.122576 -1.906567
-3.880568 -1.197103 -1.920614
-4.141062 -1.274846 -1.927622
-4.377188 -1.345827 -1.911428
0.000017 -0.015294 -0.000554
-4.575457 -1.402603 -1.740697
-4.834345 -1.480176 -1.707359
-5.198845 -1.588648 -1.695398
-5.583473 -1.702924 -1.673054
-5.954670 -1.813984 -1.628889
-6.580741 -2.000579 -1.629145
-7.181550 -2.179103 -1.594734
-8.077778 -2.446052 -1.589802
-8.962934 -2.755110 -1.540266
-10.423920 -3.197736 -1.532166
-10.446383 -3.202597 -1.275714
-11.583532 -3.545125 -1.130165
-6.663223 -2.043229 -0.487513
-16.756994 -5.112019 -0.817144
-16.753349 -5.104527 -0.406864
-16.740499 -5.094238 -0.000351
-16.725372 -5.086441 0.405420
-16.711571 -5.075883 0.813928
-16.455854 -4.992177 1.201829
-16.439795 -4.981057 1.601845
-16.449736 -4.980921 2.009053
0.000017 -0.015294 -0.000554
-13.197866 -3.989224 2.264105
-13.033195 -3.937155 2.563961
-3.060274 -0.931259 -1.894991
-3.232503 -0.981594 -1.896182
-3.424546 -1.038367 -1.900924
-3.642965 -1.102251 -1.909250
-3.873639 -1.169614 -1.913759
-4.139493 -1.248070 -1.923545
-4.376163 -1.316904 -1.907564
-4.391396 -1.319774 -1.789360
-4.565371 -1.370601 -1.733848
-4.842964 -1.451177 -1.707350
-5.200771 -1.555311 -1.693006
-5.594927 -1.670974 -1.673596
-5.981929 -1.783252 -1.633438
-6.595808 -1.963464 -1.630059
-7.180751 -2.133529 -1.591815
-8.065252 -2.391421 -1.584610
-9.047106 -2.721952 -1.551929
-10.392740 -3.122605 -1.524923
-10.362329 -3.109570 -1.263182
-6.680894 -2.007614 -0.650894
-16.764437 -5.011897 -1.223595
-16.744812 -4.999667 -0.815089
-16.739168 -4.991631 -0.405792
-16.727293 -4.984921 -0.000346
-16.713005 -4.974316 0.404404
-16.664701 -4.953653 0.810205
-16.451715 -4.887395 1.199462
-16.428007 -4.874133 1.597949
-16.433170 -4.869414 2.003483
-16.398281 -4.855991 2.402613
-16.404526 -4.851611 2.809523
-13.210835 -3.904979 2.594334
-3.068805 -0.914292 -1.897022
-3.241358 -0.963638 -1.898131
-3.423600 -1.016344 -1.897158
-3.645735 -1.079954 -1.907445
-3.886969 -1.149696 -1.917171
-4.146520 -1.223908 -1.923536
-4.364100 -1.285707 -1.899076
-4.395030 -1.293887 -1.787896
-4.573102 -1.343986 -1.733838
-4.839986 -1.420636 -1.703499
-5.205611 -1.524868 -1.691806
-5.604374 -1.638431 -1.673587
-5.986124 -1.747898 -1.631910
-6.567651 -1.913789 -1.620367
-7.160525 -2.083872 -1.584738
-7.982086 -2.318250 -1.565717
-9.054977 -2.667299 -1.550625
-10.435160 -3.069627 -1.528533
-10.440982 -3.067374 -1.270596
-6.684623 -1.966584 -0.650142
-16.735462 -4.898192 -1.219404
-16.625572 -4.859834 -0.807912
-16.480644 -4.814460 -0.398872
-16.469473 -4.804966 -0.000343
-16.457108 -4.795136 0.397536
-16.438751 -4.786691 0.797910
-16.437351 -4.780057 1.196398
-16.414728 -4.770392 1.594053
-16.425676 -4.767335 1.999307
-16.391659 -4.751300 2.397608
-16.387678 -4.747045 2.802071
-16.386065 -4.740367 3.212785
-3.070472 -0.895892 -1.894972
-3.241569 -0.943774 -1.895183
-3.432712 -0.997289 -1.899027
-3.649899 -1.058780 -1.906538
-3.893448 -1.127000 -1.917162
-4.149903 -1.198709 -1.921899
-4.371349 -1.260257 -1.899066
-4.379041 -1.261630 -1.778429
-4.573440 -1.315263 -1.731093
-4.848235 -1.391590 -1.703490
-5.205301 -1.491055 -1.688818
-5.580336 -1.596390 -1.663655
-5.990719 -1.710471 -1.630381
-6.580681 -1.875023 -1.620819
-7.163610 -2.037135 -1.582650
-7.972908 -2.264139 -1.561265
-9.048771 -2.610397 -1.547050
-10.431635 -3.003183 -1.525464
-6.703261 -1.933694 -0.814608
-11.468544 -3.293766 -1.113239
-16.494743 -4.724757 -1.199870
-16.464897 -4.710001 -0.798777
-16.461870 -4.706029 -0.397753
-16.458315 -4.698794 -0.000338
-16.447824 -4.689605 0.396659
-16.432192 -4.678962 0.796238
-16.424217 -4.673591 1.193474
-16.398582 -4.660131 1.589785
-16.413452 -4.658146 1.994434
-16.383259 -4.643430 2.392325
-16.379374 -4.639234 2.795916
-16.368425 -4.629971 3.203903
-3.072482 -0.875889 -1.892921
-3.250543 -0.924597 -1.897132
-3.435064 -0.975636 -1.897138
-3.651036 -1.034715 -1.903836
-3.887795 -1.100176 -1.911163
-4.162144 -1.175245 -1.924330
-4.373339 -1.232521 -1.896744
-4.373782 -1.231812 -1.773327
-4.588309 -1.289809 -1.733819
-4.832370 -1.356767 -1.695158
-5.217403 -1.461782 -1.690000
-5.571110 -1.557830 -1.658134
-6.022761 -1.681839 -1.636450
-6.506883 -1.813458 -1.600061
-7.165357 -1.994187 -1.580562
-7.913745 -2.198031 -1.547186
-9.054955 -2.552117 -1.545421
-10.395789 -2.925983 -1.517663
-10.403252 -2.924150 -1.261767
0.000007 -0.014105 -0.000511
-16.480122 -4.614704 -1.196795
-16.457829 -4.602272 -0.797095
-16.450886 -4.597236 -0.396819
-16.443449 -4.588988 -0.000333
-16.430973 -4.579330 0.395597
-16.414507 -4.571666 0.794101
-16.415043 -4.565632 1.190829
-16.388605 -4.555217 1.586261
-16.397799 -4.551591 1.989329
-16.365721 -4.536561 2.385928
-16.369587 -4.534551 2.789761
0.000007 -0.014105 -0.000511
-3.080563 -0.859327 -1.894952
-3.255594 -0.906149 -1.897123
-3.443800 -0.957086 -1.899007
-3.660128 -1.014958 -1.905621
-3.893990 -1.077475 -1.911153
-4.161701 -1.149028 -1.921067
-4.372948 -1.205834 -1.893651
-4.375328 -1.204834 -1.771135
-4.590149 -1.261597 -1.731758
-4.845506 -1.330107 -1.697069
-5.214598 -1.428413 -1.686416
-5.568769 -1.522401 -1.654817
-6.022935 -1.644307 -1.633909
-6.485193 -1.767017 -1.592213
-7.146761 -1.943181 -1.573901
-7.955034 -2.158418 -1.552732
-9.053757 -2.497035 -1.542819
-6.744835 -1.861221 -0.983269
-10.448094 -2.873591 -1.265239
-11.444646 -3.142064 -1.107280
-16.471682 -4.509954 -1.194278
-16.440794 -4.498435 -0.795040
-16.444229 -4.493209 -0.396025
-16.436707 -4.484991 -0.000327
-16.421474 -4.477758 0.394767
-16.401897 -4.466280 0.792243
-16.400539 -4.459764 1.187904
-16.374901 -4.446679 1.582365
-16.383392 -4.445894 1.984456
-16.362816 -4.434196 2.381759
0.000017 -0.013798 -0.000500
-13.617643 -3.684936 2.656946
-3.088852 -0.841629 -1.896982
-3.259144 -0.886063 -1.896133
-3.445919 -0.935417 -1.897119
-3.669461 -0.993847 -1.907406
-3.893243 -1.052185 -1.907721
-4.168378 -1.124026 -1.921057
-4.367451 -1.176239 -1.888246
-4.382330 -1.178566 -1.771126
-4.577482 -1.228729 -1.724224
-4.847726 -1.299568 -1.695139
-5.211813 -1.394205 -1.682832
-5.570191 -1.487073 -1.652603
-6.023153 -1.605773 -1.631367
-6.455974 -1.717784 -1.582521
-7.146743 -1.897462 -1.571397
-7.931502 -2.101371 -1.545688
-9.045465 -2.436853 -1.538920
-10.383199 -2.791353 -1.510968
-10.459110 -2.809701 -1.264535
-11.403355 -3.057878 -1.101514
-16.465302 -4.403114 -1.191901
-16.430437 -4.390740 -0.793264
-16.431868 -4.384979 -0.395091
-16.422352 -4.376302 -0.000322
-16.412897 -4.370725 0.393937
-16.393270 -4.359375 0.790572
-16.389982 -4.352376 1.185259
-16.368187 -4.340494 1.579212
-16.369066 -4.337656 1.979583
-16.344721 -4.325126 2.375362
0.000002 -0.013510 -0.000489
0.000002 -0.013510 -0.000489
-3.091906 -0.823088 -1.895952
-3.259039 -0.865638 -1.893183
-3.451170 -0.915252 -1.897109
-3.668140 -0.970600 -1.903807
-3.904408 -1.030812 -1.910278
-4.170979 -1.099506 -1.919421
-4.365152 -1.148445 -1.884382
-4.383546 -1.151589 -1.768934
-4.573296 -1.200023 -1.720110
-4.867889 -1.274649 -1.699611
-5.227078 -1.365781 -1.685206
-5.604395 -1.462381 -1.660311
-5.992871 -1.560589 -1.620722
-6.497417 -1.689660 -1.590351
-7.128729 -1.849892 -1.565151
-7.943029 -2.056735 -1.545679
-9.055442 -2.383409 -1.538263
-10.388975 -2.730521 -1.509568
-10.352041 -2.717000 -1.249683
-11.422633 -2.992365 -1.101692
-16.454817 -4.301747 -1.189384
-16.424431 -4.287690 -0.791768
-16.420002 -4.280422 -0.394203
-16.409670 -4.274666 -0.000316
-16.400932 -4.266285 0.393061
-16.377430 -4.254093 0.788621
-16.381117 -4.251981 1.182893
-16.347754 -4.237267 1.574944
-16.360998 -4.234580 1.975639
-16.328251 -4.223086 2.369523
-16.333229 -4.218295 2.770647
-16.328363 -4.210951 3.176152
-3.094845 -0.804536 -1.894922
-3.258838 -0.845273 -1.890235
-3.456314 -0.895069 -1.897099
-3.678782 -0.950479 -1.906489
-3.904948 -1.006674 -1.907701
-4.173618 -1.074264 -1.917784
-4.368032 -1.122074 -1.882831
-4.364752 -1.119622 -1.758740
-4.583701 -1.174293 -1.721469
-4.862218 -1.243047 -1.695120
-5.225525 -1.333019 -1.682218
-5.607049 -1.428363 -1.658648
-5.988551 -1.522442 -1.617167
-6.484309 -1.646205 -1.584808
-7.146785 -1.810426 -1.566806
-7.987071 -2.018797 -1.551965
-6.780200 -1.745924 -1.150161
-10.391015 -2.666915 -1.507612
-10.532975 -2.699258 -1.269622
-11.385558 -2.912468 -1.096483
-16.438625 -4.196277 -1.186448
-16.411983 -4.183385 -0.789992
-16.409412 -4.176638 -0.393361
-16.406813 -4.172930 -0.000310
-16.390266 -4.162640 0.392231
-16.364759 -4.150091 0.786857
-16.368525 -4.148011 1.180248
-16.335100 -4.133482 1.571421
-16.344593 -4.129811 1.970767
-16.317661 -4.119992 2.364518
-16.338024 -4.119049 2.767411
-16.312252 -4.106523 3.168381
-3.101025 -0.786821 -1.895932
-3.265264 -0.826608 -1.891204
-3.459625 -0.874426 -1.896151
-3.680659 -0.928122 -1.904685
-3.910591 -0.983854 -1.907691
-4.181608 -1.049614 -1.918587
-4.367193 -1.094836 -1.879738
-4.374669 -1.095062 -1.760185
-4.585031 -1.145417 -1.719407
-4.858179 -1.211996 -1.691269
-5.234907 -1.303076 -1.682805
-5.585489 -1.387429 -1.649819
-6.002797 -1.489032 -1.618678
-6.490114 -1.606481 -1.583877
-7.140222 -1.763496 -1.563055
-6.788513 -1.674737 -1.317195
-9.059177 -2.272642 -1.534357
-10.366236 -2.594876 -1.501760
-10.428748 -2.608502 -1.255234
-11.363411 -2.836942 -1.092760
-16.430235 -4.090198 -1.184071
-16.393078 -4.077933 -0.787937
-16.396248 -4.072649 -0.392474
-16.388494 -4.064653 -0.000304
-16.384779 -4.060695 0.391540
-16.353403 -4.046871 0.785185
-16.354017 -4.040971 1.177464
-16.332207 -4.029550 1.568825
-16.337177 -4.027745 1.967056
-16.310968 -4.015254 2.360071
0.000004 -0.012604 -0.000457
-16.303099 -4.004271 3.162092
-3.108914 -0.768927 -1.897962
-3.276826 -0.808580 -1.895114
-3.468092 -0.854403 -1.898018
-3.679062 -0.904270 -1.901085
-3.916289 -0.960338 -1.907682
-4.176854 -1.022639 -1.913697
-4.366356 -1.066869 -1.876645
-4.370157 -1.066175 -1.755811
-4.589647 -1.118250 -1.718714
-4.865225 -1.182865 -1.691260
-5.244328 -1.272137 -1.683391
-5.593294 -1.354923 -1.649809
-6.005795 -1.451728 -1.617149
-6.478363 -1.563792 -1.578796
-7.131166 -1.717505 -1.558888
-8.004246 -1.923313 -1.550838
-9.055166 -2.214354 -1.531430
-10.423256 -2.545109 -1.507875
-10.569452 -2.576730 -1.270302
-11.349010 -2.761678 -1.089780
-16.414656 -3.985821 -1.181275
-16.381954 -3.971851 -0.786254
-16.385050 -3.966538 -0.391632
-16.372671 -3.960531 -0.000299
-16.365751 -3.952816 0.390525
-16.347910 -3.942467 0.783794
-16.342018 -3.938031 1.174958
-16.322145 -3.927231 1.565673
-16.333649 -3.923952 1.963810
-16.295223 -3.911740 2.354510
0.000012 -0.012296 -0.000446
-16.282513 -3.896671 3.153581
-3.113218 -0.750712 -1.897952
-3.274565 -0.787782 -1.891185
-3.467730 -0.832897 -1.895192
-3.685878 -0.883180 -1.901973
-3.916399 -0.936220 -1.905105
-4.184400 -0.998706 -1.914501
-4.357975 -1.038014 -1.870469
-4.359821 -1.036847 -1.749254
-4.592283 -1.090646 -1.717336
-4.873716 -1.154946 -1.691890
-5.236609 -1.238120 -1.678616
-5.595328 -1.321088 -1.648146
-6.015870 -1.417259 -1.617646
-6.462557 -1.520412 -1.572793
-7.024646 -1.649026 -1.533515
-7.976844 -1.867990 -1.543424
-9.052325 -2.158221 -1.528828
-10.402986 -2.476532 -1.502857
-10.400392 -2.472077 -1.248260
-10.581678 -2.511057 -1.014722
-16.404253 -3.883136 -1.178897
-16.371435 -3.869368 -0.784664
-16.370577 -3.863126 -0.390744
-16.363974 -3.858550 -0.000292
-16.355061 -3.850425 0.389742
-16.341110 -3.841137 0.782402
-16.329390 -3.835374 1.172453
-16.309505 -3.824705 1.562335
-16.317211 -3.820495 1.959169
-16.280766 -3.808994 2.349227
-13.560537 -3.169590 2.287204
-16.277809 -3.796309 3.148403
-3.110710 -0.730915 -1.893862
-3.275579 -0.767829 -1.889216
-3.467248 -0.811432 -1.892365
-3.685607 -0.860437 -1.899271
-3.921666 -0.913359 -1.905095
-4.181104 -0.972242 -1.910424
-4.353039 -1.010144 -1.865835
-4.354759 -1.008930 -1.744880
-4.596584 -1.063462 -1.716642
-4.867299 -1.123620 -1.687400
-5.223107 -1.202973 -1.672053
-5.606530 -1.289404 -1.649240
-6.023855 -1.382285 -1.617637
-6.482515 -1.485455 -1.575550
-6.846993 -1.565809 -1.492757
-7.970139 -1.817806 -1.540082
-9.056849 -2.103985 -1.527523
-10.397708 -2.411829 -1.500066
-10.348564 -2.396673 -1.240366
0.000008 -0.011702 -0.000424
-16.389349 -3.779828 -1.176241
-16.360256 -3.767111 -0.783074
-16.357409 -3.760456 -0.389903
-16.350758 -3.755913 -0.000286
-16.343756 -3.748300 0.388959
-16.325884 -3.738224 0.780638
-16.320007 -3.733872 1.170227
-16.294313 -3.722034 1.558811
-16.302090 -3.717818 1.954761
-16.271461 -3.707857 2.344779
-13.559256 -3.086788 2.283968
-16.268673 -3.695272 3.142484
-3.118142 -0.713433 -1.895892
-3.288375 -0.750555 -1.894104
-3.473515 -0.791536 -1.893294
-3.692183 -0.839293 -1.900159
-3.925031 -0.890069 -1.904230
-4.186567 -0.947850 -1.910414
-4.349693 -0.982732 -1.861971
-4.358619 -0.983140 -1.744143
-4.598893 -1.035854 -1.715265
-4.862515 -1.092797 -1.683549
-5.228020 -1.172165 -1.671448
-5.611901 -1.256365 -1.648679
-6.018433 -1.344353 -1.614083
-6.477604 -1.444865 -1.572314
-7.140448 -1.588930 -1.554703
-7.938175 -1.762256 -1.531927
-9.055264 -2.048459 -1.525245
-10.341794 -2.335977 -1.490038
-10.342760 -2.332404 -1.238039
0.000016 -0.011393 -0.000413
-16.377678 -3.677675 -1.173863
-16.350435 -3.665581 -0.781578
-16.345541 -3.658486 -0.389107
-16.336912 -3.653561 -0.000280
-16.333790 -3.646882 0.388222
-16.311970 -3.636048 0.778967
-16.306114 -3.631744 1.167722
-16.294025 -3.623099 1.556774
-16.292120 -3.616703 1.951051
-16.263464 -3.607374 2.340611
-13.545893 -3.001539 2.278787
-16.251228 -3.592772 3.135084
-3.117110 -0.694077 -1.892822
-3.287471 -0.730193 -1.891155
-3.479687 -0.771607 -1.894224
-3.693389 -0.816948 -1.898354
-3.930022 -0.867149 -1.904220
-4.193837 -0.923085 -1.911219
-4.346213 -0.955422 -1.858107
-4.355020 -0.955730 -1.740495
-4.615911 -1.010637 -1.719359
-4.877916 -1.066476 -1.686740
-5.230890 -1.140940 -1.670247
-5.602273 -1.219099 -1.643708
-6.014650 -1.306919 -1.611034
-6.510722 -1.411421 -1.578299
-7.143938 -1.544998 -1.553447
-7.940734 -1.713180 -1.530437
-9.051426 -1.992606 -1.522643
-10.376698 -2.278937 -1.493092
-10.396715 -2.281409 -1.242902
0.000002 -0.011107 -0.000402
-16.364052 -3.572505 -1.171346
-16.347775 -3.565967 -0.780453
-16.336975 -3.557646 -0.388405
-16.338690 -3.552034 -0.000274
-16.311451 -3.543144 0.387207
-16.299364 -3.534566 0.777389
-16.296122 -3.527918 1.165495
-16.272348 -3.516841 1.552692
-16.279610 -3.515429 1.947107
-16.249672 -3.503041 2.335606
-13.534465 -2.914618 2.273930
-16.231226 -3.490175 3.127314
-3.116061 -0.674195 -1.889751
-3.286565 -0.709288 -1.888206
-3.478936 -0.749531 -1.891396
-3.694617 -0.793988 -1.896549
-3.933259 -0.843138 -1.903355
-4.199007 -0.898607 -1.911209
-4.342709 -0.927413 -1.854243
-4.353263 -0.928046 -1.737576
-4.612402 -0.981807 -1.715930
-4.869277 -1.034115 -1.681609
-5.239378 -1.109984 -1.670834
-5.597846 -1.184151 -1.640391
-6.003308 -1.266958 -1.605960
-6.533913 -1.376787 -1.581979
-7.137329 -1.500334 -1.550111
-7.977343 -1.672735 -1.535612
-9.051431 -1.936095 -1.520689
-10.191986 -2.176852 -1.464694
-10.293396 -2.194636 -1.228977
0.000010 -0.010798 -0.000391
-16.351110 -3.470891 -1.168968
-16.331442 -3.460765 -0.778677
-16.324471 -3.453337 -0.387610
-16.313814 -3.448115 -0.000268
-16.302784 -3.439842 0.386516
-16.288710 -3.430939 0.775905
-16.286810 -3.427566 1.163409
-16.264957 -3.417043 1.550098
-16.267059 -3.411565 1.943165
-16.234617 -3.401819 2.330602
-13.527774 -2.831494 2.270046
-16.222719 -3.387500 3.121766
-3.124879 -0.656982 -1.892802
-3.293957 -0.690764 -1.890156
-3.488340 -0.730272 -1.894204
-3.700816 -0.772760 -1.897437
-3.937860 -0.820874 -1.903345
-4.202268 -0.873751 -1.910385
-4.344288 -0.901337 -1.852692
-4.351026 -0.901934 -1.734657
-4.605037 -0.952303 -1.711132
-4.858196 -1.003185 -1.675838
-5.237953 -1.078882 -1.668441
-5.610175 -1.152757 -1.642036
-6.025400 -1.236204 -1.610003
-6.545487 -1.339614 -1.582892
-7.132118 -1.457435 -1.547192
-7.998075 -1.630220 -1.537826
-9.052722 -1.881656 -1.519060
-10.386593 -2.155455 -1.490848
-10.416711 -2.157896 -1.242190
-11.186022 -2.312417 -1.065770
-16.339497 -3.369944 -1.166729
-16.313847 -3.358720 -0.776900
-16.304260 -3.353790 -0.386675
-16.305893 -3.348185 -0.000262
-16.290918 -3.339200 0.385780
-16.270348 -3.332021 0.774141
-16.267120 -3.325457 1.160625
-16.250566 -3.319125 1.546945
-16.252697 -3.313644 1.939222
-16.226711 -3.302468 2.326711
-13.518175 -2.750518 2.265838
-16.218210 -3.291886 3.117329
-3.125060 -0.638538 -1.890751
-3.297687 -0.672046 -1.890145
-3.488844 -0.709790 -1.892316
-3.696245 -0.750022 -1.892940
-3.945998 -0.798585 -1.905046
-4.201781 -0.848154 -1.907935
-4.336524 -0.874237 -1.847286
-4.345108 -0.874368 -1.730282
-4.612216 -0.925826 -1.711806
-4.858262 -0.973791 -1.673907
-5.242132 -1.048020 -1.667836
-5.607223 -1.118261 -1.639270
-6.034242 -1.201547 -1.610500
-6.556853 -1.302353 -1.583805
-7.106040 -1.408010 -1.539698
-7.986316 -1.578260 -1.533744
-9.051421 -1.828444 -1.517106
-10.375484 -2.090647 -1.487501
-10.438268 -2.101336 -1.243342
-10.657788 -2.141438 -1.014303
-16.327253 -3.269235 -1.164490
-16.302906 -3.261417 -0.775497
-16.309505 -3.256804 -0.386344
-16.301308 -3.249258 -0.000255
-16.271984 -3.240477 0.384904
-16.263741 -3.232933 0.772936
-16.256571 -3.225606 1.158539
-16.236692 -3.215783 1.543794
-16.242207 -3.213923 1.935744
-16.214293 -3.202534 2.322265
-13.507087 -2.664639 2.261306
-16.205978 -3.192077 3.111410
-3.132109 -0.620344 -1.892781
-3.301560 -0.652172 -1.890135
-3.489458 -0.688097 -1.890428
-3.702342 -0.728135 -1.893828
-3.943510 -0.773486 -1.901614
-4.204885 -0.822563 -1.907112
-4.339772 -0.847851 -1.846506
-4.353830 -0.848990 -1.731727
-4.613876 -0.897434 -1.710428
-4.873199 -0.946437 -1.677099
-5.251946 -1.017316 -1.669018
-5.619363 -1.085759 -1.640915
-6.024105 -1.162155 -1.605932
-6.539558 -1.258387 -1.577801
-7.166088 -1.375404 -1.550916
-7.976171 -1.526876 -1.530032
-9.048489 -1.771769 -1.514828
-10.385690 -2.028365 -1.487214
-10.364694 -2.022411 -1.233128
-11.436602 -2.226395 -1.087117
-16.309082 -3.164803 -1.161833
-16.290522 -3.158261 -0.774000
-16.297081 -3.153630 -0.385595
-16.284893 -3.145377 -0.000249
-16.265345 -3.138670 0.384307
-16.255108 -3.130807 0.771638
-16.247942 -3.123553 1.156592
-16.226086 -3.113482 1.541013
-16.233616 -3.111982 1.932498
-16.203775 -3.100422 2.318096
-13.507071 -2.581185 2.258719
-16.193687 -3.089701 3.105491
-3.140641 -0.602946 -1.895831
-3.313769 -0.634454 -1.895023
-3.489835 -0.667029 -1.888540
-3.704644 -0.706152 -1.892920
-3.944290 -0.749793 -1.899893
-4.205781 -0.798104 -1.905475
-4.328199 -0.819485 -1.839558
-4.349423 -0.821878 -1.728080
-4.616915 -0.871005 -1.709735
-4.859879 -0.914581 -1.670687
-5.250151 -0.985351 -1.666625
-5.610177 -1.051262 -1.636495
-6.017324 -1.124673 -1.602378
-6.542603 -1.220838 -1.576870
-7.138974 -1.328662 -1.543422
-8.023181 -1.489141 -1.537429
-9.042974 -1.716401 -1.512225
-10.359838 -1.963076 -1.481918
-10.565475 -1.998022 -1.255618
0.000020 -0.009584 -0.000347
-16.300953 -3.068590 -1.160013
-16.280880 -3.058935 -0.772688
-16.279522 -3.052796 -0.384752
-16.268726 -3.047848 -0.000243
-16.261456 -3.040600 0.383804
-16.241390 -3.031004 0.770154
-16.233692 -3.026636 1.154366
-16.209877 -3.016341 1.537862
-16.216053 -3.011634 1.928323
-16.191559 -3.004174 2.313927
-13.499877 -2.501480 2.255160
-16.187950 -2.991810 3.101054
-3.133849 -0.582688 -1.889700
-3.305308 -0.612873 -1.888156
-3.491821 -0.646301 -1.887591
-3.712110 -0.685145 -1.894705
-3.948477 -0.726758 -1.899883
-4.210389 -0.772838 -1.905465
-4.327336 -0.793254 -1.837236
-4.354032 -0.796521 -1.728070
-4.601609 -0.839634 -1.702201
-4.853817 -0.884257 -1.666836
-5.253810 -0.954470 -1.666020
-5.616258 -1.017657 -1.636486
-6.031273 -1.091079 -1.604394
-6.574578 -1.186155 -1.582855
-7.185193 -1.292867 -1.551729
-8.006659 -1.436722 -1.532606
-9.037107 -1.661146 -1.509623
-10.320580 -1.892025 -1.474673
0.000007 -0.009297 -0.000337
-10.232943 -1.870492 -0.970622
-16.289383 -2.966185 -1.157914
-16.272631 -2.960208 -0.771471
-16.263348 -2.952662 -0.383957
-16.258898 -2.945978 -0.000236
-16.243235 -2.940230 0.382974
-16.229023 -2.931808 0.768763
-16.221848 -2.924669 1.152280
-16.198032 -2.914541 1.535082
-16.205696 -2.912995 1.925078
-16.179798 -2.902524 2.309759
-13.500822 -2.418610 2.252898
-16.173903 -2.892727 3.095136
-3.140585 -0.564384 -1.891731
-3.313987 -0.593863 -1.891085
-3.497274 -0.625576 -1.888520
-3.703734 -0.660643 -1.888413
-3.950886 -0.702706 -1.899017
-4.216497 -0.748580 -1.906269
-4.324653 -0.766004 -1.834143
-4.342108 -0.767487 -1.721513
-4.602598 -0.812163 -1.700823
-4.864534 -0.856129 -1.668747
-5.264965 -0.923958 -1.667797
-5.633323 -0.986960 -1.639784
-6.031860 -1.053979 -1.602865
-6.552484 -1.142999 -1.575929
-7.136552 -1.241505 -1.539662
-7.995376 -1.386953 -1.528894
-9.035089 -1.605138 -1.507669
-10.354654 -1.836392 -1.478004
-10.241723 -1.812775 -1.214548
0.000016 -0.008990 -0.000326
-16.276665 -2.866859 -1.155815
-16.260334 -2.858134 -0.770067
-16.256887 -2.851680 -0.383393
-16.247961 -2.847187 -0.000229
-16.230797 -2.838357 0.382284
-16.218523 -2.830375 0.767465
-16.210854 -2.826125 1.150334
-16.192926 -2.817186 1.533044
-16.199158 -2.812435 1.922297
-16.164970 -2.803608 2.305312
-13.491142 -2.336505 2.249014
-16.157789 -2.790737 3.088848
-3.138644 -0.545120 -1.888660
-3.319028 -0.574771 -1.892055
-3.495556 -0.604246 -1.885693
-3.717993 -0.640795 -1.893788
-3.958386 -0.680255 -1.900719
-4.217083 -0.723374 -1.904632
-4.325283 -0.740157 -1.832591
-4.355590 -0.743721 -1.725141
-4.605288 -0.785028 -1.700129
-4.874919 -0.828729 -1.670658
-5.275809 -0.894285 -1.669575
-5.629375 -0.952608 -1.637018
-6.043509 -1.019888 -1.604376
-6.535867 -1.101091 -1.570387
-7.230381 -1.214584 -1.558365
-7.989620 -1.338338 -1.526294
-9.036348 -1.551452 -1.506363
-10.357206 -1.775108 -1.476883
-10.255861 -1.754138 -1.215003
-10.570082 -1.803801 -1.000515
-16.263329 -2.767758 -1.153715
-16.246922 -2.759148 -0.768663
-16.243404 -2.752711 -0.382690
-16.240379 -2.749287 -0.000223
-16.223158 -2.740554 0.381734
-16.206930 -2.732006 0.766168
-16.199253 -2.727796 1.148387
-16.179356 -2.718646 1.530264
-16.181717 -2.713229 1.918354
-16.157356 -2.706262 2.301979
-13.490698 -2.256208 2.246752
-16.152220 -2.693803 3.084781
-3.139989 -0.526462 -1.887630
-3.315350 -0.554214 -1.888126
-3.497177 -0.583513 -1.884744
-3.721590 -0.619092 -1.893778
-3.958624 -0.656568 -1.898998
-4.210322 -0.697019 -1.899742
-4.320334 -0.713464 -1.828727
-4.350565 -0.716836 -1.721494
-4.607841 -0.757907 -1.699436
-4.873950 -0.799431 -1.668727
-5.282686 -0.863876 -1.670161
-5.621433 -0.917727 -1.633149
-6.039677 -0.983224 -1.601834
-6.584327 -1.069961 -1.580522
-7.231403 -1.171688 -1.557108
-7.975786 -1.288572 -1.522211
-9.037289 -1.497801 -1.505057
-10.322259 -1.707737 -1.470473
-10.361789 -1.710522 -1.226360
-10.682442 -1.759362 -1.010167
-16.259274 -2.670548 -1.152313
-16.232916 -2.660408 -0.767258
-16.231321 -2.654334 -0.382033
-16.224318 -2.650284 -0.000216
-16.210987 -2.642291 0.381091
-16.196705 -2.634175 0.764963
-16.191021 -2.630348 1.146720
-16.169142 -2.621004 1.527856
-16.173504 -2.615919 1.915573
-16.147213 -2.608788 2.298367
-13.487823 -2.175673 2.244166
-16.132481 -2.594843 3.078123
-3.148023 -0.508887 -1.890680
-3.318430 -0.534805 -1.888116
-3.500424 -0.563057 -1.884734
-3.717980 -0.596231 -1.890179
-3.964061 -0.633728 -1.899843
-4.217822 -0.673027 -1.901359
-4.309726 -0.685971 -1.822551
-4.341692 -0.689452 -1.716392
-4.599087 -0.729024 -1.694638
-4.878443 -0.771069 -1.668718
-5.255471 -0.828150 -1.660024
-5.615193 -0.883277 -1.629833
-6.029892 -0.945747 -1.597772
-6.598004 -1.032904 -1.582357
-7.216707 -1.126421 -1.552525
-7.957780 -1.238420 -1.517388
-9.030133 -1.442966 -1.502455
-10.192987 -1.625916 -1.450702
-10.343949 -1.646174 -1.223105
-11.213586 -1.779872 -1.059389
-16.238867 -2.570978 -1.149796
-16.228184 -2.563477 -0.766320
-16.216650 -2.555856 -0.381330
-16.209623 -2.551860 -0.000209
-16.196247 -2.543949 0.380402
-16.179962 -2.535615 0.763480
-16.182186 -2.533067 1.145053
-16.162275 -2.524179 1.525820
-16.166647 -2.519073 1.913025
-16.128626 -2.510280 2.293642
-13.535196 -2.103108 2.250010
-16.123806 -2.498005 3.073686
-3.145752 -0.489668 -1.887610
-3.326589 -0.516187 -1.891045
-3.503581 -0.542610 -1.884724
-3.723068 -0.574774 -1.891066
-3.960449 -0.609504 -1.896411
-4.216276 -0.646871 -1.898908
-4.308082 -0.660010 -1.820228
-4.341853 -0.663575 -1.714927
-4.608852 -0.702259 -1.696680
-4.884615 -0.742932 -1.669348
-5.256330 -0.797005 -1.658823
-5.595568 -0.845941 -1.622656
-6.039011 -0.911273 -1.598776
-6.588588 -0.991155 -1.578659
-7.229027 -1.084154 -1.553763
-7.988260 -1.194342 -1.521823
-9.018728 -1.387649 -1.499204
-10.306175 -1.580953 -1.465446
-10.217704 -1.565617 -1.207092
-11.158643 -1.705091 -1.053250
-16.238001 -2.471884 -1.148672
-16.209042 -2.464584 -0.764729
-16.205357 -2.458243 -0.380720
-16.198711 -2.451453 -0.000202
-16.180929 -2.445879 0.379712
-16.170542 -2.438535 0.762369
-16.169258 -2.432568 1.143106
-16.151329 -2.424121 1.523411
-16.159245 -2.422419 1.910476
-16.135359 -2.413078 2.292536
-16.149504 -2.409433 2.682244
-16.114552 -2.401352 3.069249
-3.151949 -0.471187 -1.889640
-3.317451 -0.494352 -1.884177
-3.510176 -0.522014 -1.886592
-3.719282 -0.551334 -1.887466
-3.972896 -0.587000 -1.900679
-4.218085 -0.622024 -1.898085
-4.304574 -0.633078 -1.817135
-4.345667 -0.637503 -1.714917
-4.603483 -0.674068 -1.693250
-4.877646 -0.712018 -1.665497
-5.268465 -0.766581 -1.661196
-5.628836 -0.817501 -1.630916
-6.086417 -0.881190 -1.609910
-6.542124 -0.945438 -1.566199
-7.142159 -1.028921 -1.533795
-7.994966 -1.148024 -1.521814
-9.011140 -1.331521 -1.496601
-10.269997 -1.514664 -1.459036
-10.423321 -1.533438 -1.230278
-10.601032 -1.555684 -0.999739
-16.220331 -2.373427 -1.146433
-16.199608 -2.364616 -0.763604
-16.195877 -2.358314 -0.380156
-16.188765 -2.354387 -0.000195
-16.173346 -2.346384 0.379208
-16.157007 -2.338264 0.761071
-16.157286 -2.335421 1.141299
-16.135393 -2.326507 1.520631
-16.141827 -2.321693 1.906767
-16.119543 -2.315618 2.288367
-16.155233 -2.314964 2.680954
-16.099293 -2.301251 3.063701
-3.152871 -0.452495 -1.888610
-3.323669 -0.475440 -1.886126
-3.507826 -0.500745 -1.883765
-3.727660 -0.530347 -1.890148
-3.972497 -0.564013 -1.898958
-4.221553 -0.597422 -1.898075
-4.304450 -0.607470 -1.815583
-4.349114 -0.612924 -1.714907
-4.610955 -0.647753 -1.694608
-4.883379 -0.684729 -1.666128
-5.244253 -0.732923 -1.652251
-5.660069 -0.788453 -1.638624
-6.070113 -0.843977 -1.604328
-6.533909 -0.905580 -1.562962
-7.248534 -1.002563 -1.555408
-8.055725 -1.110524 -1.532173
-9.016658 -1.279029 -1.496268
-10.272606 -1.454355 -1.458192
-10.520463 -1.485533 -1.240707
-10.615675 -1.495128 -1.000288
-16.213919 -2.276904 -1.145031
-16.195114 -2.268512 -0.762759
-16.190910 -2.265036 -0.379731
-16.178234 -2.257510 -0.000188
-16.166742 -2.250165 0.378751
-16.149973 -2.244961 0.760146
-16.140783 -2.237945 1.139214
-16.122458 -2.232541 1.518223
-16.130865 -2.227952 1.903986
-16.109015 -2.219211 2.285034
-16.130716 -2.219321 2.674800
-16.084578 -2.207277 3.058524
-3.150203 -0.433895 -1.885539
-3.327961 -0.456808 -1.887096
-3.505281 -0.480144 -1.880938
-3.726986 -0.508754 -1.888344
-3.970267 -0.540110 -1.896381
-4.224877 -0.572797 -1.898065
-4.296771 -0.581666 -1.810949
-4.348835 -0.587076 -1.713442
-4.610848 -0.620398 -1.693230
-4.881563 -0.655545 -1.664197
-5.235097 -0.700657 -1.648071
-5.643522 -0.752789 -1.632551
-6.067159 -0.807697 -1.602293
-6.546709 -0.868672 -1.564798
-7.221335 -0.954906 -1.548330
-8.001731 -1.054511 -1.520685
-9.007974 -1.226240 -1.493666
-10.296474 -1.396998 -1.460410
0.000009 -0.006897 -0.000250
-10.714611 -1.447740 -1.008825
-16.203007 -2.180028 -1.143350
-16.177776 -2.173754 -0.761354
-16.177879 -2.168018 -0.379120
-16.165155 -2.160578 -0.000181
-16.149281 -2.155591 0.378062
-16.136841 -2.148197 0.758943
-16.131601 -2.141774 1.137686
-16.113655 -2.133671 1.516187
-16.121737 -2.131881 1.901438
-16.099907 -2.123288 2.281979
-16.120083 -2.120203 2.670916
-16.075552 -2.111515 3.054458
-3.154382 -0.415114 -1.886549
-3.327095 -0.436292 -1.885126
-3.513276 -0.459712 -1.883745
-3.726360 -0.485882 -1.886539
-3.976946 -0.516703 -1.898082
-4.222628 -0.547461 -1.895615
-4.296433 -0.555385 -1.809397
-4.346653 -0.560253 -1.711250
-4.621762 -0.594486 -1.695957
-4.898479 -0.627937 -1.668669
-5.254292 -0.671215 -1.652827
-5.638169 -0.718757 -1.629784
-6.087150 -0.773311 -1.606335
-6.568927 -0.832830 -1.568938
-7.238321 -0.914466 -1.550816
-8.062231 -1.014937 -1.531044
-9.011147 -1.171978 -1.493008
-10.243431 -1.329530 -1.451773
-10.168348 -1.316211 -1.197316
-0.000004 -0.006610 -0.000239
-16.197426 -2.084085 -1.142087
-16.166586 -2.074406 -0.760229
-16.164642 -2.068414 -0.378510
-16.165394 -2.065645 -0.000174
-16.137943 -2.056412 0.377512
-16.121527 -2.048614 0.757645
-16.117907 -2.045299 1.135880
-16.101933 -2.037559 1.513964
-16.108442 -2.032670 1.898425
-16.096102 -2.028263 2.279759
-16.073244 -2.019685 2.661196
-16.070190 -2.013595 3.051133
-3.158383 -0.396847 -1.887559
-3.331249 -0.417041 -1.886096
-3.512324 -0.438744 -1.881857
-3.727272 -0.463886 -1.885631
-3.974436 -0.492835 -1.895506
-4.222052 -0.522398 -1.893978
-4.294032 -0.529669 -1.807075
-4.346072 -0.534466 -1.709785
-4.617616 -0.566660 -1.693211
-4.905755 -0.599889 -1.669940
-5.246650 -0.639266 -1.649243
-5.628826 -0.684375 -1.625916
-6.097226 -0.738636 -1.607845
-6.575521 -0.794931 -1.569390
-7.220110 -0.869672 -1.545816
-8.069851 -0.968421 -1.531405
-9.004002 -1.118079 -1.490730
-10.305903 -1.276994 -1.459558
-10.157976 -1.255149 -1.195220
0.000005 -0.006303 -0.000228
-16.195259 -1.988779 -1.141103
-16.154430 -1.978070 -0.759104
-16.154419 -1.972344 -0.377992
-16.153160 -1.969326 -0.000167
-16.125664 -1.960266 0.376962
-16.113174 -1.953039 0.756721
-16.105610 -1.949283 1.134213
-16.087648 -1.941400 1.511557
-16.100122 -1.937212 1.896109
-16.066170 -1.930282 2.273921
0.000005 -0.006303 -0.000228
-16.061972 -1.918404 3.047436
-3.160644 -0.377795 -1.887549
-3.330178 -0.396569 -1.884126
-3.514838 -0.417597 -1.881847
-3.729921 -0.441456 -1.885621
-3.977170 -0.469632 -1.895495
-4.223214 -0.496812 -1.893154
-4.284237 -0.502397 -1.801669
-4.349051 -0.509132 -1.709775
-4.620835 -0.538927 -1.693200
-4.899662 -0.570220 -1.666729
-5.229351 -0.606347 -1.642680
-5.619391 -0.649140 -1.622048
-6.084046 -0.701230 -1.603277
-6.601342 -0.758009 -1.574452
-7.186078 -0.823346 -1.537490
-8.038170 -0.917437 -1.524361
-8.992800 -1.062258 -1.487803
-10.279839 -1.211610 -1.454818
-10.098127 -1.186712 -1.187325
0.000011 -0.005992 -0.000217
-16.192884 -1.890754 -1.140119
-16.142021 -1.879110 -0.757978
-16.139643 -1.875975 -0.377381
-16.140673 -1.870382 -0.000159
-16.109167 -1.861046 0.376320
-16.102283 -1.857399 0.755703
-16.095039 -1.850874 1.132686
-16.086662 -1.847065 1.510449
-16.087284 -1.841452 1.893329
-16.075344 -1.834405 2.273651
-16.040462 -1.827601 2.652132
-16.051249 -1.823149 3.043371
-3.157541 -0.359265 -1.884478
-3.332303 -0.377665 -1.884116
-3.513581 -0.397283 -1.879959
-3.728761 -0.419944 -1.883817
-3.972581 -0.445620 -1.892063
-4.229517 -0.473320 -1.894771
-4.294260 -0.478957 -1.804742
-4.350022 -0.483572 -1.709038
-4.618144 -0.512208 -1.691139
-4.899080 -0.541299 -1.665439
-5.238416 -0.576544 -1.644458
-5.617158 -0.616826 -1.620384
-6.059106 -0.662763 -1.595670
-6.597694 -0.719993 -1.572598
-7.186787 -0.781239 -1.536650
-8.043283 -0.870829 -1.524352
-8.986771 -1.010391 -1.485848
-10.158453 -1.139591 -1.436717
-10.175632 -1.137908 -1.195666
-11.030168 -1.229100 -1.035543
-16.183315 -1.797795 -1.138717
-16.130388 -1.786235 -0.756946
-16.130268 -1.780514 -0.376909
-16.126978 -1.777304 -0.000152
-16.115303 -1.770332 0.376234
-16.088850 -1.761740 0.754593
-16.089230 -1.758943 1.131577
-16.075222 -1.751734 1.508413
-16.073879 -1.745907 1.890549
-16.043955 -1.739841 2.267813
-16.044800 -1.734265 2.651167
-0.000004 -0.005703 -0.000207
-3.157821 -0.340600 -1.883448
-3.336112 -0.358340 -1.885085
-3.519269 -0.377095 -1.881826
-3.731074 -0.398156 -1.883806
-3.973254 -0.422252 -1.891197
-4.228596 -0.447548 -1.893135
-4.287755 -0.452978 -1.800878
-4.363811 -0.459363 -1.713392
-4.600502 -0.482365 -1.683604
-4.887007 -0.511219 -1.660307
-5.249197 -0.546838 -1.646830
-5.614938 -0.582589 -1.618720
-6.076250 -0.628933 -1.599206
-6.568916 -0.677178 -1.564750
-7.214612 -0.740662 -1.541630
-8.054130 -0.823378 -1.525453
-8.988488 -0.957912 -1.485191
-10.267432 -1.089827 -1.451182
-10.148409 -1.075460 -1.191715
-11.100404 -1.171918 -1.041479
-16.173815 -1.699362 -1.137314
-16.116520 -1.690513 -0.755820
-16.114374 -1.684605 -0.376298
-16.119295 -1.679425 -0.000144
-16.091385 -1.673692 0.375453
-16.078836 -1.666723 0.753668
-16.075533 -1.660702 1.129910
-16.065483 -1.653990 1.506563
-16.065865 -1.651207 1.888466
-16.050028 -1.643921 2.267263
-16.037096 -1.636935 2.648256
0.000005 -0.005396 -0.000195
-3.159748 -0.321551 -1.883437
-3.332956 -0.337733 -1.882136
-3.519674 -0.355748 -1.880877
-3.731562 -0.375537 -1.882899
-3.973857 -0.398189 -1.890331
-4.229247 -0.422705 -1.892311
-4.288491 -0.427043 -1.800097
-4.359012 -0.432439 -1.710473
-4.605043 -0.455749 -1.684278
-4.893691 -0.482279 -1.661578
-5.256130 -0.515765 -1.648012
-5.610515 -0.549201 -1.616506
-6.102967 -0.594816 -1.605275
-6.574610 -0.639224 -1.565202
-7.245989 -0.701422 -1.547442
-8.066530 -0.777432 -1.526925
-8.976302 -0.902494 -1.482264
-10.277449 -1.030777 -1.451730
-10.184244 -1.017887 -1.195185
-11.166581 -1.111632 -1.047044
-16.163445 -1.603926 -1.135911
-16.104366 -1.592404 -0.754788
-16.104155 -1.586714 -0.375827
-16.104784 -1.583932 -0.000137
-16.091059 -1.576925 0.375228
-16.064537 -1.568659 0.752558
-16.062956 -1.565680 1.128383
-16.044981 -1.558269 1.503783
-16.051622 -1.553271 1.885685
-16.031580 -1.548501 2.263374
-16.020687 -1.541806 2.644049
-16.013990 -1.535528 3.030802
-3.161534 -0.303066 -1.883427
-3.336538 -0.318385 -1.883106
-3.511088 -0.334187 -1.875234
-3.740753 -0.354408 -1.886478
-3.979659 -0.375339 -1.892033
-4.224299 -0.397361 -1.889047
-4.279819 -0.401015 -1.795462
-4.372540 -0.408062 -1.714828
-4.596335 -0.427890 -1.680164
-4.907675 -0.454826 -1.665409
-5.232356 -0.482748 -1.639662
-5.617383 -0.516931 -1.617598
-6.058088 -0.554984 -1.592602
-6.585900 -0.601753 -1.567037
-7.253783 -0.659742 -1.548264
-8.066928 -0.730312 -1.526175
-8.971511 -0.849575 -1.480634
-10.257537 -0.968854 -1.448102
-10.195828 -0.959467 -1.195872
0.000000 -0.004801 -0.000174
-16.160469 -1.509416 -1.135067
-16.095348 -1.497692 -0.753942
-16.093082 -1.491806 -0.375355
-16.095680 -1.489207 -0.000129
-16.077946 -1.481926 0.374725
-16.053375 -1.474000 0.751634
-16.055777 -1.471399 1.127275
-16.031853 -1.463569 1.501747
-16.040474 -1.458703 1.883370
-16.024431 -1.454434 2.261155
-16.009615 -1.447451 2.640814
-16.002951 -1.441218 3.027107
-3.163189 -0.284544 -1.883417
-3.334827 -0.298572 -1.881136
-3.518184 -0.314108 -1.878040
-3.735588 -0.331941 -1.882879
-3.976307 -0.351626 -1.889455
-4.228382 -0.372155 -1.889851
-4.276528 -0.375597 -1.793140
-4.367356 -0.381927 -1.711908
-4.593162 -0.399840 -1.678102
-4.912072 -0.426419 -1.666039
-5.236926 -0.452473 -1.640248
-5.601167 -0.481662 -1.612076
-6.047645 -0.518629 -1.589047
-6.593207 -0.562695 -1.567949
-7.204897 -0.611945 -1.537028
-8.043685 -0.679849 -1.520982
-8.976226 -0.797597 -1.480625
-10.209814 -0.902994 -1.440578
-10.387182 -0.916784 -1.217667
-10.383094 -0.912770 -0.972529
-16.157185 -1.412163 -1.134222
-16.085756 -1.403112 -0.753096
-16.089420 -1.397767 -0.375069
-16.080292 -1.391320 -0.000122
-16.070246 -1.387644 0.374361
-16.047642 -1.380043 0.750989
-16.048294 -1.374455 1.126166
-16.028332 -1.367123 1.500640
-16.026814 -1.364169 1.880822
-16.011036 -1.357194 2.258101
-16.000195 -1.350651 2.637903
-15.993330 -1.347259 3.023782
-3.168223 -0.265753 -1.885447
-3.336510 -0.278476 -1.881126
-3.518198 -0.292783 -1.877091
-3.739241 -0.309612 -1.883766
-3.981859 -0.328732 -1.891157
-4.223141 -0.346906 -1.886587
-4.280473 -0.350046 -1.793900
-4.375027 -0.356918 -1.714080
-4.604727 -0.373832 -1.681513
-4.903082 -0.396912 -1.662188
-5.233713 -0.421557 -1.638451
-5.607654 -0.449401 -1.613169
-6.060170 -0.484277 -1.591570
-6.609885 -0.525483 -1.571167
-7.145784 -0.566506 -1.523712
-7.970914 -0.628635 -1.506531
-8.970945 -0.743220 -1.478994
-10.226654 -0.844852 -1.442239
-10.378551 -0.853704 -1.216034
-11.077018 -0.906980 -1.036986
-16.149113 -1.317504 -1.133098
-16.075865 -1.305913 -0.752250
-16.075264 -1.303030 -0.374551
-16.072071 -1.297120 -0.000114
-16.054249 -1.290052 0.373812
-16.037386 -1.285885 0.750158
-16.034035 -1.279970 1.124639
-16.019810 -1.276036 1.499161
-16.026451 -1.270922 1.879901
-15.996843 -1.262963 2.255047
-15.985820 -1.259287 2.634344
-15.990999 -1.254071 3.021938
-3.167925 -0.247633 -1.884417
-3.339723 -0.259670 -1.882095
-3.526807 -0.273380 -1.880837
-3.737326 -0.288159 -1.881961
-3.980047 -0.305214 -1.889435
-4.226863 -0.322415 -1.887390
-4.274984 -0.325293 -1.790807
-4.380712 -0.331706 -1.715525
-4.595519 -0.346159 -1.677398
-4.907147 -0.368507 -1.662818
-5.247461 -0.391963 -1.642016
-5.610134 -0.416811 -1.613159
-6.049310 -0.448063 -1.588015
-6.591447 -0.485570 -1.566086
-7.182148 -0.526198 -1.530771
-8.017606 -0.584154 -1.514668
-8.970983 -0.692499 -1.478336
-10.211595 -0.784152 -1.439448
-10.365307 -0.794078 -1.213938
-11.065986 -0.843590 -1.035491
-16.138502 -1.222831 -1.131835
-16.064951 -1.214467 -0.751404
-16.066534 -1.208945 -0.374172
-16.055319 -1.202460 -0.000106
-16.045233 -1.198899 0.373448
-16.026550 -1.191866 0.749328
-16.023222 -1.186007 1.123391
-16.009195 -1.179350 1.497497
-16.007721 -1.176421 1.876889
-15.986048 -1.169227 2.252549
-15.981188 -1.163273 2.632406
-15.976376 -1.160111 3.017873
-3.169318 -0.228536 -1.884407
-3.337695 -0.239298 -1.880126
-3.517773 -0.251403 -1.875193
-3.733582 -0.265290 -1.879258
-3.972747 -0.280665 -1.885147
-4.224984 -0.297516 -1.885753
-4.276822 -0.299626 -1.790797
-4.369565 -0.304508 -1.710423
-4.597412 -0.319387 -1.677388
-4.901660 -0.338567 -1.660247
-5.242041 -0.359993 -1.639623
-5.606667 -0.383811 -1.611495
-6.046050 -0.411475 -1.586486
-6.597978 -0.447547 -1.566998
-7.202613 -0.485714 -1.534505
-7.991387 -0.535704 -1.509104
-8.969013 -0.638549 -1.477355
-10.225778 -0.725717 -1.440830
-10.324238 -0.729062 -1.208594
0.000014 -0.003591 -0.000130
-16.133322 -1.128752 -1.130990
-16.051926 -1.117451 -0.750465
-16.057428 -1.112185 -0.373792
-16.043999 -1.108449 -0.000098
-16.036072 -1.102276 0.373085
-16.021379 -1.095660 0.748776
-16.017813 -1.092597 1.122562
-16.001793 -1.085900 1.496205
-16.004496 -1.080465 1.875735
-15.976682 -1.075786 2.250330
-15.973812 -1.070000 2.630145
-15.967270 -1.063962 3.014918
-3.170556 -0.209974 -1.884396
-3.337275 -0.219677 -1.879136
-3.517392 -0.230740 -1.874244
-3.738595 -0.243714 -1.881043
-3.976080 -0.257598 -1.885992
-4.226617 -0.272891 -1.885743
-4.272921 -0.274334 -1.788474
-4.369366 -0.278921 -1.709685
-4.595418 -0.292385 -1.676010
-4.884612 -0.308863 -1.653835
-5.240207 -0.329272 -1.638422
-5.581882 -0.349533 -1.603768
-6.019328 -0.374560 -1.578878
-6.619851 -0.410441 -1.571600
-7.187695 -0.442851 -1.530753
-7.996288 -0.489503 -1.509465
-8.964638 -0.586073 -1.476049
-10.166544 -0.662435 -1.431914
-10.276695 -0.665967 -1.202554
-0.000001 -0.003303 -0.000120
-16.121613 -1.034378 -1.129727
-16.044094 -1.023790 -0.749804
-16.047600 -1.018402 -0.373413
-16.036129 -1.014861 -0.000091
-16.020185 -1.008240 0.372582
-16.007448 -1.001824 0.747853
-16.003912 -0.998807 1.121175
-15.991865 -0.992457 1.494726
-15.992581 -0.986881 1.873652
-15.962839 -0.982265 2.247555
-15.963918 -0.976723 2.627558
-15.959368 -0.970852 3.012334
-3.166531 -0.191098 -1.881325
-3.343676 -0.200452 -1.882065
-3.516862 -0.210059 -1.873295
-3.734565 -0.221568 -1.878341
-3.973876 -0.234193 -1.884271
-4.226276 -0.248141 -1.884920
-4.276261 -0.249538 -1.789235
-4.355996 -0.252598 -1.703855
-4.591374 -0.265293 -1.673948
-4.874943 -0.279786 -1.649984
-5.217207 -0.297386 -1.630667
-5.595317 -0.317748 -1.607066
-6.056154 -0.341551 -1.587986
-6.624025 -0.372118 -1.572051
-7.160797 -0.399521 -1.524506
-8.024466 -0.444548 -1.514270
-8.952097 -0.533217 -1.473446
-10.180048 -0.604156 -1.433297
-10.161361 -0.599498 -1.188628
-10.820530 -0.634397 -1.011313
-16.113354 -0.940423 -1.128742
-16.035753 -0.930281 -0.749144
-16.037201 -0.924747 -0.373034
-16.021706 -0.921041 -0.000083
-16.013735 -0.914991 0.372311
-15.994989 -0.908320 0.747022
-15.991444 -0.905307 1.119927
-15.979396 -0.899038 1.493062
-15.980132 -0.893476 1.871570
-15.954367 -0.889253 2.245615
-15.957439 -0.883829 2.625621
-15.943110 -0.877466 3.008268
-3.162409 -0.172283 -1.878254
-3.341280 -0.180712 -1.880095
-3.521520 -0.189688 -1.875162
-3.735774 -0.199769 -1.878331
-3.975148 -0.211009 -1.884261
-4.225775 -0.223387 -1.884096
-4.261024 -0.223750 -1.782288
-4.355498 -0.227112 -1.703117
-4.596553 -0.238733 -1.675306
-4.874562 -0.251310 -1.649334
-5.209282 -0.266553 -1.627678
-5.597037 -0.285222 -1.607056
-6.065721 -0.306744 -1.590002
-6.602723 -0.332508 -1.566508
-7.125847 -0.356146 -1.516595
-8.024900 -0.397922 -1.513890
-8.953020 -0.481242 -1.473112
-10.173449 -0.544690 -1.431896
-10.232075 -0.544243 -1.196506
-0.000005 -0.002709 -0.000098
-16.102535 -0.846472 -1.127618
-16.018892 -0.836489 -0.748112
-16.024273 -0.831151 -0.372608
-16.008762 -0.827546 -0.000075
-16.000744 -0.821536 0.371901
-15.987967 -0.815286 0.746471
-15.982421 -0.812195 1.118959
-15.968369 -0.805896 1.491584
-15.975089 -0.800655 1.870416
-15.943381 -0.796276 2.243396
-15.946489 -0.790852 2.623035
-15.928242 -0.784372 3.004574
-3.166785 -0.153944 -1.880284
-3.340504 -0.161075 -1.879105
-3.517251 -0.168852 -1.872335
-3.733275 -0.177780 -1.876526
-3.976276 -0.187803 -1.884250
-4.225204 -0.197938 -1.883272
-4.262213 -0.198888 -1.782277
-4.360445 -0.201894 -1.704562
-4.597867 -0.211146 -1.675296
-4.858863 -0.222147 -1.643561
-5.220251 -0.236672 -1.630647
-5.590915 -0.251343 -1.604840
