# This PCD file was generated using the MATLAB® pcwrite function
# from Computer Vision Toolbox®.
# .PCD v.7 - Point Cloud Data file format
VERSION .7
FIELDS x y z
SIZE 4 4 4
TYPE F F F
COUNT 1 1 1
WIDTH 1673
HEIGHT 1
VIEWPOINT 0 0 0 1 0 0 0
POINTS 1673
DATA ascii
0.429727 0.318645 -0.290772
2.780937 3.195943 -1.722975
2.966007 3.419840 -1.712147
3.173243 3.671888 -1.700233
3.416510 3.966295 -1.689780
3.680584 4.285680 -1.672162
4.002884 4.677376 -1.659953
4.369851 5.121379 -1.639510
4.817970 5.665733 -1.621285
5.343845 6.302120 -1.593342
5.940276 7.088151 -1.552178
6.759359 8.091130 -1.510618
7.850717 9.424110 -1.457197
9.450403 11.378368 -1.401019
10.468092 12.621396 -1.163865
10.584044 12.754217 -0.786401
10.606335 12.776846 -0.395279
29.257568 35.584095 -0.004081
55.349186 67.454216 2.028199
53.827911 65.570877 3.962177
41.650749 50.653831 4.594160
53.708000 65.353806 7.905428
0.000077 -0.207361 -0.007146
42.439114 51.523827 9.401209
0.000077 -0.207361 -0.007146
0.000077 -0.207361 -0.007146
0.369643 0.241868 -0.351919
0.380372 0.254571 -0.343125
0.379778 0.253518 -0.324458
0.376505 0.249387 -0.304132
0.397067 0.273974 -0.302298
0.421267 0.302934 -0.301569
0.431554 0.315021 -0.289991
2.801653 3.181588 -1.723693
2.984440 3.400096 -1.710771
3.197418 3.654758 -1.700864
3.433902 3.937425 -1.686198
3.717449 4.278044 -1.677114
4.030562 4.652353 -1.659438
4.397651 5.091156 -1.638119
4.856265 5.639520 -1.622108
5.382365 6.270594 -1.593334
5.980909 7.055156 -1.552170
6.808289 8.053891 -1.510889
7.911961 9.389620 -1.458581
9.523828 11.336475 -1.402312
10.558286 12.581185 -1.165671
10.568154 12.583994 -0.779790
10.586670 12.601809 -0.391848
29.562622 35.535538 -0.004074
0.000087 -0.207053 -0.007135
54.399471 65.470673 3.975502
41.650177 50.060101 4.562033
41.948597 50.384129 6.128622
40.498360 48.600246 7.413730
42.561852 51.050503 9.360821
40.568043 48.631824 10.428205
0.000087 -0.207053 -0.007135
0.369070 0.235935 -0.348849
0.380943 0.249853 -0.341156
0.384749 0.254252 -0.326326
0.383874 0.252873 -0.307711
0.399898 0.271894 -0.302288
0.420771 0.296520 -0.299119
0.432276 0.309918 -0.288439
2.819331 3.162358 -1.722229
3.003380 3.379747 -1.709394
3.215945 3.632217 -1.698935
3.457704 3.917875 -1.686190
3.741521 4.253262 -1.676003
4.054736 4.624906 -1.657911
4.429345 5.067540 -1.638572
4.892611 5.617103 -1.623347
5.419574 6.239787 -1.593327
6.022628 7.015765 -1.551514
6.866057 8.024295 -1.512829
7.972966 9.344462 -1.459039
9.601803 11.287552 -1.403420
10.626303 12.509436 -1.164830
10.669497 12.552024 -0.781646
10.573952 12.433245 -0.388649
29.915363 35.528488 -0.004064
0.000074 -0.206767 -0.007125
54.980816 65.400093 3.990322
0.000074 -0.206767 -0.007125
42.241787 50.145077 6.128985
0.000074 -0.206767 -0.007125
40.668900 48.201187 8.882667
37.260365 44.128151 9.511525
0.000074 -0.206767 -0.007125
0.378183 0.242051 -0.354959
0.377852 0.241343 -0.336248
0.387328 0.252404 -0.326316
0.391049 0.256484 -0.311290
0.401498 0.268518 -0.301422
0.424759 0.295861 -0.299922
0.436351 0.309208 -0.289200
2.832657 3.139249 -1.718584
3.027008 3.367525 -1.711437
3.239232 3.615385 -1.699566
3.482627 3.899645 -1.686777
3.768849 4.235525 -1.677096
4.079987 4.598824 -1.656890
4.458721 5.043017 -1.638563
4.926061 5.589128 -1.623339
5.457885 6.210272 -1.593689
6.061580 6.980799 -1.551183
6.904251 7.977044 -1.511152
8.030011 9.304636 -1.459727
9.677391 11.247733 -1.405085
10.703583 12.457818 -1.165521
11.464352 13.348301 -0.833833
10.693065 12.427388 -0.390310
37.740608 44.368343 -0.003294
57.146988 67.240944 2.051104
55.588978 65.355476 4.007008
0.000084 -0.206459 -0.007114
42.485935 49.848152 6.122468
0.000084 -0.206459 -0.007114
0.000084 -0.206459 -0.007114
18.323544 21.342911 4.642079
39.213924 45.878338 11.397759
0.380757 0.240162 -0.354949
0.386105 0.246108 -0.341135
0.393398 0.254490 -0.329122
0.396012 0.257225 -0.313075
0.406565 0.269234 -0.303123
0.428916 0.295017 -0.300725
0.436917 0.304186 -0.287648
2.847042 3.117532 -1.715665
3.046935 3.348374 -1.710744
3.262412 3.598399 -1.700197
3.508716 3.882732 -1.687959
3.791364 4.208996 -1.675435
4.112631 4.581419 -1.658907
4.473288 4.997576 -1.632562
4.959084 5.558615 -1.622916
5.493282 6.175086 -1.592941
6.099027 6.941572 -1.550203
6.955255 7.939249 -1.511702
8.088513 9.263065 -1.460416
9.752248 11.202712 -1.406379
10.576226 12.157881 -1.143772
0.000071 -0.206173 -0.007104
11.496529 13.219432 -0.416320
38.040855 44.186470 -0.003298
43.158985 50.141239 1.536831
41.836655 48.564030 2.993602
43.577477 50.557316 4.675535
43.359596 50.267673 6.205189
0.000071 -0.206173 -0.007104
39.838116 46.118969 8.583847
18.528316 21.323872 4.661542
0.000071 -0.206173 -0.007104
0.383401 0.238198 -0.354939
0.391049 0.246737 -0.343084
0.399582 0.256451 -0.331929
0.402274 0.259232 -0.315756
0.407015 0.264381 -0.301401
0.430601 0.291458 -0.299901
0.442353 0.304672 -0.289180
2.872795 3.107906 -1.719293
3.066113 3.329640 -1.710051
3.284923 3.579273 -1.700188
3.532896 3.862128 -1.687950
3.806654 4.175791 -1.671016
4.133351 4.548477 -1.655860
4.510850 4.980849 -1.635320
4.993483 5.531739 -1.623323
5.524785 6.137728 -1.591452
6.141325 6.905556 -1.550195
7.003335 7.900856 -1.511973
8.151054 9.222728 -1.461568
9.831509 11.158520 -1.408044
10.674655 12.128741 -1.146694
11.428461 12.990419 -0.820054
11.479089 13.039483 -0.412889
0.000080 -0.205864 -0.007094
42.478149 48.756390 1.502047
42.193367 48.393688 2.998444
41.672565 47.776718 4.441066
41.444527 47.480354 5.891360
43.591167 49.914764 7.765131
46.061981 52.736839 9.860087
18.742699 21.321299 4.684250
38.092285 43.514629 10.922111
0.382551 0.232390 -0.351868
0.395954 0.247410 -0.345033
0.402254 0.254455 -0.331918
0.407303 0.259900 -0.317540
0.416858 0.270488 -0.306524
0.434654 0.290636 -0.300705
0.448940 0.306586 -0.291481
2.890615 3.090217 -1.718556
3.085176 3.310806 -1.709358
3.306664 3.560590 -1.700180
3.556262 3.842013 -1.687942
3.841961 4.165635 -1.675417
4.159388 4.523448 -1.655345
4.534213 4.947779 -1.633006
5.027714 5.504638 -1.623731
5.565124 6.110536 -1.592554
6.182171 6.870371 -1.550188
7.053802 7.865158 -1.512800
8.211760 9.183416 -1.462721
9.908569 11.115483 -1.409709
11.243611 12.636281 -1.199515
11.427900 12.837530 -0.814652
11.457624 12.862204 -0.409458
38.695976 43.912907 -0.003297
59.018208 67.035362 2.075867
57.361309 65.101387 4.052023
0.000089 -0.205557 -0.007083
41.627720 47.138020 5.878524
40.897724 46.274899 7.237042
57.255878 64.842934 12.177535
40.671570 45.968773 10.106389
41.364983 46.722801 11.783355
0.381661 0.226625 -0.348798
0.399690 0.246715 -0.346003
0.411910 0.260369 -0.337541
0.412334 0.260520 -0.319325
0.418402 0.267038 -0.305658
0.441214 0.292446 -0.303135
0.451880 0.304295 -0.291471
2.905833 3.069640 -1.716365
3.105983 3.292744 -1.709349
3.327049 3.540388 -1.699530
3.576983 3.818928 -1.686741
3.855048 4.128703 -1.669897
4.183974 4.496828 -1.654323
4.564695 4.921080 -1.632998
5.060215 5.473565 -1.623307
5.598574 6.073309 -1.591436
6.224139 6.836454 -1.550504
7.100261 7.821997 -1.512515
8.270951 9.142226 -1.463641
9.993417 11.080922 -1.412487
11.237562 12.477062 -1.190867
11.395478 12.650713 -0.807111
11.442447 12.694584 -0.406305
39.016788 43.750156 -0.003299
59.627453 66.945862 2.083672
57.969994 65.033142 4.068429
0.000074 -0.205267 -0.007073
57.883087 64.843376 8.122096
0.000074 -0.205267 -0.007073
0.000074 -0.205267 -0.007073
0.000074 -0.205267 -0.007073
38.588058 43.067768 10.920615
0.384201 0.224638 -0.348788
0.397720 0.239442 -0.342074
0.420553 0.264792 -0.342225
0.416298 0.259709 -0.320212
0.427149 0.271655 -0.309926
0.447745 0.294288 -0.305564
0.457356 0.304646 -0.293003
2.922147 3.050371 -1.714901
3.127336 3.276503 -1.710024
3.346023 3.518639 -1.698241
3.600088 3.798556 -1.686732
3.876083 4.102443 -1.668235
4.213561 4.475822 -1.655328
4.598063 4.899362 -1.634372
5.091840 5.445514 -1.623299
5.628270 6.036400 -1.589947
6.265796 6.799690 -1.550496
7.147679 7.782743 -1.512786
8.332891 9.100688 -1.464794
10.072158 11.035076 -1.414153
11.230517 12.323314 -1.182499
11.399504 12.502861 -0.802081
11.423061 12.524606 -0.403059
0.000084 -0.204960 -0.007062
43.738998 48.468170 1.516404
58.593128 64.974884 4.085767
0.000084 -0.204960 -0.007062
0.000084 -0.204960 -0.007062
41.064770 45.395481 7.173109
48.182655 53.261833 10.112909
40.607346 44.839752 9.960733
38.753670 42.753201 10.897271
0.390072 0.226631 -0.351837
0.404867 0.242681 -0.345982
0.426730 0.266669 -0.345031
0.424875 0.264290 -0.324688
0.433520 0.273495 -0.312483
0.456743 0.298760 -0.309621
0.471343 0.314672 -0.299929
2.942101 3.035175 -1.715620
3.144807 3.255958 -1.708647
3.368678 3.501005 -1.698872
3.624379 3.779479 -1.687319
3.916371 4.097427 -1.674840
4.235243 4.446066 -1.653293
4.620827 4.865906 -1.632059
5.129237 5.419845 -1.624538
5.665189 6.003185 -1.589940
6.303491 6.763431 -1.550164
7.196208 7.744679 -1.513335
8.395391 9.066092 -1.466642
10.152149 10.998139 -1.416560
11.226069 12.174481 -1.174548
11.369624 12.328342 -0.795098
11.396737 12.349375 -0.399628
21.058674 22.976185 -0.005060
60.895771 66.804268 2.100909
45.659153 50.002670 3.162048
0.000071 -0.204673 -0.007052
41.782448 45.675079 5.786287
41.670479 45.535934 7.232835
0.000071 -0.204673 -0.007052
0.000071 -0.204673 -0.007052
39.862888 43.474686 11.138413
0.387960 0.219512 -0.347747
0.412235 0.245721 -0.349890
0.430698 0.265717 -0.345960
0.431272 0.266013 -0.327370
0.442449 0.277865 -0.316750
0.462099 0.299109 -0.311238
0.479410 0.317605 -0.303002
2.957477 3.013834 -1.713429
3.165939 3.239460 -1.709322
3.391898 3.482656 -1.699503
3.645356 3.755385 -1.686119
3.935869 4.069444 -1.672626
4.266695 4.425422 -1.654804
4.649933 4.839500 -1.632051
5.158886 5.387639 -1.623698
5.706188 5.976545 -1.591412
6.348714 6.730571 -1.551129
7.244541 7.706331 -1.513884
8.459634 9.026660 -1.468258
10.246688 10.968814 -1.420453
11.280996 12.092299 -1.172870
11.355965 12.165305 -0.789045
11.373627 12.175823 -0.396289
21.047012 22.697273 -0.005072
61.558910 66.732025 2.110062
44.073025 47.684910 3.032173
0.000081 -0.204366 -0.007042
41.683022 45.040062 5.736270
40.827599 44.080372 7.040609
43.604355 47.075527 9.036318
40.921066 44.134830 9.909793
41.320122 44.535709 11.471421
0.385726 0.212527 -0.343657
0.410076 0.238520 -0.345962
0.436997 0.267414 -0.348766
0.437616 0.267749 -0.330051
0.441534 0.271638 -0.314173
0.467566 0.299336 -0.312854
0.487432 0.320543 -0.306075
2.977225 2.998411 -1.714147
3.183759 3.218165 -1.707945
3.411776 3.461969 -1.698854
3.672004 3.738822 -1.687897
3.959825 4.044892 -1.672067
4.298563 4.406737 -1.656821
4.681108 4.813546 -1.632504
5.187954 5.352928 -1.622443
5.737400 5.937144 -1.589924
6.396595 6.702889 -1.553066
7.295402 7.667880 -1.514711
8.519406 8.985379 -1.469410
10.331180 10.931828 -1.423232
11.230227 11.892396 -1.160180
11.418830 12.091204 -0.788481
11.368499 12.028399 -0.393691
21.217924 22.610369 -0.005068
62.189835 66.641670 2.118471
60.475716 64.753510 4.137403
0.000067 -0.204078 -0.007032
42.485741 45.366119 5.809509
41.094151 43.857918 7.042694
0.000067 -0.204078 -0.007032
41.957947 44.720867 10.096293
38.862709 41.392040 10.722037
0.392901 0.215557 -0.347727
0.413889 0.237650 -0.346931
0.438581 0.263826 -0.347817
0.442854 0.268050 -0.331836
0.454243 0.279845 -0.321008
0.475471 0.302269 -0.316097
0.493064 0.320630 -0.307606
2.996175 2.980989 -1.714138
3.203405 3.200066 -1.707936
3.434759 3.443336 -1.699486
3.695323 3.717258 -1.687889
3.980284 4.018132 -1.670405
4.321851 4.377221 -1.655294
4.713938 4.791059 -1.633878
5.217181 5.320415 -1.621604
5.771317 5.902872 -1.589546
6.422610 6.649269 -1.549494
7.347378 7.633256 -1.516096
8.590092 8.952359 -1.472186
10.427054 10.902576 -1.427311
0.000076 -0.203771 -0.007021
11.343828 11.866326 -0.778427
11.376478 11.892562 -0.391511
22.051989 23.235371 -0.005002
0.000076 -0.203771 -0.007021
0.000076 -0.203771 -0.007021
44.321964 46.823498 4.515853
42.248756 44.592243 5.741645
0.000076 -0.203771 -0.007021
20.330648 21.329859 4.156944
42.125172 44.382713 10.074553
39.446384 41.518074 10.814637
0.400041 0.218579 -0.351797
0.422420 0.241882 -0.351819
0.443707 0.264163 -0.349684
0.450485 0.270974 -0.335415
0.458266 0.278831 -0.321853
0.479634 0.301145 -0.316900
0.494801 0.316741 -0.306825
3.013190 2.962643 -1.713401
3.222969 3.181877 -1.707927
3.453100 3.421060 -1.698196
3.716529 3.694833 -1.687284
3.991261 3.981529 -1.664884
4.348150 4.352549 -1.655285
4.750673 4.772564 -1.636636
5.247567 5.289176 -1.621180
5.806387 5.869835 -1.589538
6.463332 6.613908 -1.549810
7.393757 7.592558 -1.516366
8.656347 8.917447 -1.474497
10.490844 10.842651 -1.427305
11.076076 11.454752 -1.130480
0.000064 -0.203484 -0.007011
11.364635 11.741683 -0.388774
0.000064 -0.203484 -0.007011
63.520061 66.491211 2.137102
20.738443 21.556099 1.396653
0.000064 -0.203484 -0.007011
41.615261 43.414879 5.621170
41.805386 43.583382 7.076380
20.559662 21.323027 4.178388
43.752972 45.574944 10.400856
39.870735 41.483692 10.865009
0.404842 0.219049 -0.353827
0.416521 0.230929 -0.344952
0.451271 0.266983 -0.353430
0.454458 0.269970 -0.336302
0.466059 0.281709 -0.325265
0.488869 0.305264 -0.320957
0.511865 0.328812 -0.315293
3.033947 2.948212 -1.714847
3.238501 3.159502 -1.705866
3.475229 3.402779 -1.698828
3.740236 3.675036 -1.687871
4.017956 3.961535 -1.665978
4.368950 4.322176 -1.653251
4.787372 4.753835 -1.639393
5.280454 5.260560 -1.621587
5.842608 5.837990 -1.589900
6.507933 6.582561 -1.551099
7.450846 7.562996 -1.518864
8.722483 8.882076 -1.476809
10.554273 10.782351 -1.427299
11.234268 11.486013 -1.139674
11.187107 11.428770 -0.758598
11.380549 11.621600 -0.387008
20.809885 21.411438 -0.005136
20.796566 21.382442 0.690768
20.792673 21.363251 1.391897
0.000073 -0.203177 -0.007000
20.811226 21.359739 2.790721
20.826977 21.360910 3.500752
45.635220 47.030598 9.227590
42.667412 43.927826 10.081998
40.360226 41.512188 10.932791
0.394083 0.203415 -0.342596
0.416585 0.226317 -0.342983
0.453975 0.264679 -0.353419
0.465893 0.276618 -0.342572
0.473887 0.284505 -0.328677
0.494333 0.305358 -0.322573
2.863930 2.739896 -1.721868
3.053338 2.932319 -1.715565
3.264350 3.147811 -1.709277
3.494607 3.381643 -1.698179
3.762501 3.653727 -1.687862
4.041873 3.938629 -1.665969
4.390870 4.293079 -1.651724
4.807676 4.718130 -1.636619
5.310463 5.228964 -1.621163
5.880047 5.807354 -1.590633
6.562010 6.560847 -1.554657
7.495443 7.520260 -1.518856
8.788497 8.846249 -1.479121
10.607631 10.711682 -1.425994
11.229089 11.347051 -1.132420
11.313794 11.426012 -0.762594
20.249537 20.596081 -0.679143
20.250267 20.589497 -0.005195
20.239511 20.563871 0.668055
20.234417 20.544077 1.346280
20.256678 20.559576 2.023181
20.254776 20.543062 2.699814
20.274750 20.548950 3.387563
20.277399 20.544344 4.072016
41.157310 41.878567 9.667456
43.079781 43.813297 11.601031
0.407272 0.212504 -0.351766
0.420268 0.225453 -0.343952
0.457887 0.263608 -0.354348
0.472395 0.278042 -0.345254
0.476678 0.282059 -0.328667
0.503751 0.309229 -0.326630
2.875649 2.718391 -1.718776
3.071343 2.914987 -1.715556
3.282864 3.127355 -1.708584
3.516517 3.363104 -1.698810
3.781963 3.629578 -1.686662
4.065026 3.913511 -1.665409
4.415335 4.266649 -1.651209
4.840879 4.693957 -1.637994
5.341221 5.196270 -1.620740
5.914237 5.771282 -1.590255
6.600869 6.523264 -1.554649
7.550857 7.485852 -1.520797
8.829322 8.784451 -1.477259
10.526515 10.504459 -1.406864
11.227452 11.209410 -1.125445
11.320318 11.299746 -0.758587
19.824615 19.926701 -0.661177
23.857716 24.004805 -0.004887
65.490959 66.224945 2.164514
19.939640 20.007971 1.318761
20.392101 20.452085 2.024439
0.000070 -0.202583 -0.006980
41.738678 42.029041 6.940390
41.868401 42.130577 8.364601
20.425514 20.435143 4.765362
40.829697 41.036831 10.930555
0.406082 0.206707 -0.348696
0.420345 0.220780 -0.341983
0.463150 0.263701 -0.356215
0.479019 0.279332 -0.347936
0.484650 0.284650 -0.332079
0.509251 0.309192 -0.328247
2.899441 2.708116 -1.722621
3.091101 2.898325 -1.716275
3.300643 3.107348 -1.707891
3.537620 3.342487 -1.698801
3.801943 3.604676 -1.685462
4.085947 3.887616 -1.664298
4.443146 4.242046 -1.651706
4.871762 4.669063 -1.638907
5.373611 5.167110 -1.621147
5.951308 5.740189 -1.590987
6.648993 6.492676 -1.556586
7.596398 7.443944 -1.521068
8.897876 8.747688 -1.479803
10.653052 10.505639 -1.415214
11.225422 11.076983 -1.118749
11.300960 11.144916 -0.752813
28.887959 28.783648 -0.954572
0.000080 -0.202276 -0.006969
44.088318 43.988983 1.446135
19.964626 19.794886 1.312512
44.028595 43.882614 4.353694
42.275623 42.097710 5.576150
41.798870 41.591347 6.909006
42.414040 42.191494 8.424742
43.574814 43.321152 10.115384
0.000080 -0.202276 -0.006969
0.414520 0.210727 -0.353786
0.420304 0.216192 -0.340013
0.465810 0.261310 -0.356206
0.491935 0.286954 -0.355104
0.488712 0.283411 -0.332924
0.518685 0.313000 -0.332303
2.920099 2.695585 -1.724923
3.102289 2.874213 -1.712628
3.322333 3.091249 -1.709250
3.552577 3.317009 -1.696232
3.826518 3.585706 -1.686645
4.109412 3.864300 -1.664290
4.472787 4.220764 -1.653217
4.899733 4.641228 -1.638899
5.405821 5.137739 -1.621555
5.985424 5.706114 -1.590979
6.687424 6.454566 -1.556579
7.650138 7.410157 -1.523008
8.985892 8.733019 -1.485824
10.663681 10.393881 -1.408524
11.222241 10.944963 -1.112052
11.293787 11.008160 -0.748062
24.391104 23.991575 -0.802480
0.000067 -0.201989 -0.006959
24.409477 23.984285 0.792937
19.998529 19.599760 1.307197
45.061600 44.400574 4.430484
43.263203 42.590462 5.673929
0.000067 -0.201989 -0.006959
42.167206 41.462425 8.327828
43.925823 43.169628 10.138731
41.763725 41.005882 11.050928
0.412004 0.203827 -0.349695
0.423942 0.215287 -0.340982
0.470989 0.261404 -0.358073
0.496005 0.285661 -0.355991
0.497964 0.287242 -0.337191
0.564757 0.352441 -0.359134
2.928822 2.671265 -1.720290
3.122614 2.859213 -1.714074
3.340454 3.070455 -1.708557
3.575497 3.299459 -1.697503
3.844169 3.559906 -1.684849
4.133464 3.840154 -1.664281
4.509246 4.206055 -1.657259
4.928377 4.612376 -1.638891
5.434618 5.103154 -1.620715
6.020370 5.670804 -1.590971
6.734082 6.424552 -1.558516
7.702216 7.371874 -1.524392
9.041447 8.685610 -1.486513
10.652063 10.261434 -1.399049
11.239779 10.830980 -1.107307
11.305396 10.891476 -0.744613
0.000073 -0.201678 -0.006948
0.000073 -0.201678 -0.006948
67.581398 65.994980 2.195134
0.000073 -0.201678 -0.006948
45.120041 43.931843 4.410369
0.000073 -0.201678 -0.006948
41.851196 40.691315 6.839266
0.000073 -0.201678 -0.006948
42.600346 41.364918 9.775440
41.987671 40.752655 11.047589
0.416854 0.204061 -0.351725
0.427667 0.214286 -0.341952
0.473741 0.258911 -0.358063
0.504015 0.287986 -0.359570
0.507246 0.290950 -0.341459
2.796136 2.510947 -1.741027
2.945817 2.654137 -1.720281
3.145530 2.846658 -1.716974
3.359252 3.051473 -1.708548
3.596953 3.280421 -1.698134
3.868505 3.540655 -1.686031
4.155303 3.815259 -1.663721
4.527601 4.173597 -1.654719
4.955999 4.584198 -1.638883
5.468373 5.077097 -1.621954
6.057316 5.641492 -1.592074
6.777534 6.388919 -1.559480
7.755635 7.337351 -1.526332
9.092593 8.630727 -1.486274
10.629666 10.116533 -1.388088
11.228662 10.694118 -1.100053
11.280663 10.736896 -0.738746
0.000060 -0.201391 -0.006938
49.679348 47.919579 -0.002762
68.304825 65.914383 2.205867
0.000060 -0.201391 -0.006938
45.399273 43.696564 4.412874
44.414680 42.729382 5.759802
42.678917 41.022652 6.935714
20.706604 19.785278 4.039445
42.932629 41.223988 9.798463
20.721663 19.778723 5.418271
0.422839 0.205610 -0.354775
0.423700 0.206152 -0.337044
0.473742 0.254097 -0.356175
0.518346 0.296609 -0.367635
0.517906 0.295837 -0.346582
2.802469 2.486240 -1.735325
2.968370 2.644321 -1.724125
3.158994 2.824927 -1.714783
3.379270 3.033660 -1.709223
3.615565 3.258631 -1.697485
3.884471 3.513339 -1.683640
4.176970 3.790233 -1.663161
4.556919 4.151763 -1.656229
4.983490 4.555892 -1.638874
5.498174 5.043504 -1.621530
6.091875 5.605748 -1.592066
6.815639 6.352629 -1.559797
7.808920 7.302475 -1.528273
9.148937 8.587002 -1.487426
10.632513 10.004902 -1.381027
11.220670 10.561906 -1.093216
11.269446 10.604880 -0.734088
0.000070 -0.201084 -0.006927
0.000070 -0.201084 -0.006927
51.249069 48.854195 1.644419
67.002663 63.888420 4.322514
44.667679 42.494503 4.317636
44.164604 41.983994 5.694728
0.000070 -0.201084 -0.006927
43.184406 41.004211 8.385448
20.813305 19.644379 4.719636
43.116673 40.896175 11.219452
0.426479 0.204567 -0.355785
0.433680 0.211124 -0.342911
0.470034 0.245499 -0.351470
0.526481 0.298751 -0.371214
0.524766 0.296773 -0.349139
2.829841 2.481678 -1.742636
2.986541 2.628231 -1.724887
3.175537 2.805147 -1.714047
3.399215 3.015746 -1.709898
3.636043 3.237431 -1.697476
3.907828 3.491837 -1.684227
4.201277 3.767727 -1.663704
4.584058 4.126266 -1.656728
5.007952 4.524727 -1.637944
5.528296 5.012066 -1.621522
6.126651 5.572225 -1.592428
6.864430 6.321903 -1.562058
7.864932 7.269966 -1.530769
9.212439 8.543801 -1.489275
10.616296 9.869296 -1.371181
11.262194 10.478193 -1.091259
11.273914 10.481797 -0.730267
32.803482 30.860409 -1.053065
0.000080 -0.200776 -0.006917
69.715401 65.742226 2.226776
50.190037 47.240036 3.217893
44.812763 42.142345 4.307995
44.288074 41.617172 5.679476
43.575539 40.915459 7.002869
43.948284 41.252525 8.487360
44.893219 42.114056 10.132537
0.000080 -0.200776 -0.006917
0.420037 0.194162 -0.348634
0.434791 0.207739 -0.341921
0.473895 0.244302 -0.352399
0.534566 0.300902 -0.374793
0.536852 0.302694 -0.355118
2.841226 2.461874 -1.740186
3.004133 2.612551 -1.725648
3.194153 2.788382 -1.714765
3.412185 2.991276 -1.707153
3.655778 3.216733 -1.697467
3.926248 3.466974 -1.683026
4.228265 3.747695 -1.665349
4.607496 4.098786 -1.656212
5.039351 4.500093 -1.639318
5.561061 4.983091 -1.622345
6.164107 5.541168 -1.593531
6.900425 6.281201 -1.561727
7.912142 7.228908 -1.531597
9.281466 8.508571 -1.492282
10.591318 9.730662 -1.360592
11.215782 10.312492 -1.080938
11.256503 10.343246 -0.725237
25.189615 23.377596 -0.805904
25.196159 23.375387 -0.004853
25.178617 23.342415 0.795452
0.000067 -0.200490 -0.006907
46.344742 43.087772 4.431421
45.011444 41.812847 5.741189
0.000067 -0.200490 -0.006907
44.320995 41.124683 8.513250
46.315811 42.954292 10.397530
43.231731 40.052361 11.126091
0.424822 0.194378 -0.350664
0.434580 0.203157 -0.339952
0.479031 0.244262 -0.354267
0.530871 0.292021 -0.370297
2.685219 2.287982 -1.739395
2.855639 2.444035 -1.739364
3.020278 2.595499 -1.725639
3.211321 2.770246 -1.714756
3.433821 2.973826 -1.708512
3.672610 3.193349 -1.696178
3.947295 3.444600 -1.683018
4.248793 3.720233 -1.664238
4.633578 4.073773 -1.656711
5.067167 4.470426 -1.639310
5.593174 4.951646 -1.622753
6.205279 5.511436 -1.595374
6.952100 6.255087 -1.564960
7.963341 7.188868 -1.532981
9.334379 8.457980 -1.492739
0.000077 -0.200182 -0.006896
11.209150 10.182330 -1.074381
11.255473 10.221548 -0.721322
26.293591 24.128693 -0.836464
0.000077 -0.200182 -0.006896
71.142715 65.557137 2.248056
0.000077 -0.200182 -0.006896
0.000077 -0.200182 -0.006896
0.000077 -0.200182 -0.006896
44.668320 40.985107 7.101865
46.444298 42.592468 8.872459
0.000077 -0.200182 -0.006896
43.921234 40.224976 11.243506
0.424625 0.189825 -0.348614
0.443390 0.206763 -0.344839
0.477745 0.238121 -0.351440
0.533787 0.289165 -0.370286
2.704818 2.277644 -1.742809
2.866773 2.424144 -1.736915
3.035455 2.576589 -1.724859
3.231116 2.754513 -1.716202
3.449280 2.951774 -1.707135
3.689277 3.169874 -1.694889
3.962572 3.416954 -1.680626
4.272713 3.697291 -1.664780
4.656689 4.046020 -1.656196
5.095400 4.442766 -1.639763
5.621848 4.920625 -1.622745
6.238533 5.478321 -1.595736
6.991743 6.215371 -1.565276
8.008681 7.145867 -1.533530
9.403149 8.418847 -1.495515
10.536358 9.450730 -1.339042
11.271695 10.120603 -1.074654
11.266985 10.109024 -0.718153
0.000064 -0.199896 -0.006886
71.951744 65.564240 -0.001143
71.918396 65.487457 2.260230
69.857300 63.582344 4.410040
46.675236 42.386246 4.415067
46.292717 42.022282 5.842304
44.794617 40.627121 7.084426
55.163460 50.042156 10.483915
46.599617 42.227299 10.350806
43.067341 38.983654 10.966796
0.425518 0.186589 -0.347584
0.440482 0.199889 -0.340911
0.481505 0.236944 -0.352368
0.539152 0.288871 -0.372071
2.719052 2.262338 -1.742799
2.884538 2.410337 -1.738532
3.055006 2.563599 -1.727162
3.248073 2.736155 -1.716192
3.471540 2.935924 -1.709178
3.707214 3.147602 -1.694240
3.987578 3.398203 -1.682405
4.293668 3.671643 -1.664220
4.686816 4.024621 -1.658212
5.122059 4.413651 -1.639754
5.649209 4.884852 -1.621905
6.266271 5.436254 -1.594247
7.030358 6.179161 -1.565917
8.064044 7.111893 -1.536027
9.458494 8.373178 -1.496667
10.523650 9.331876 -1.330681
11.191890 9.929971 -1.061545
11.239927 9.969843 -0.712843
0.000074 -0.199589 -0.006875
35.591087 31.956545 -0.004064
72.652077 65.417519 2.271756
70.623856 63.540707 4.435209
70.537285 63.417690 6.640898
46.523170 41.729843 5.839878
0.000074 -0.199589 -0.006875
47.778923 42.815968 9.032281
48.913330 43.806221 10.806843
43.840275 39.228153 11.105698
0.425228 0.182047 -0.345534
0.445426 0.199882 -0.342860
0.484080 0.234374 -0.352358
0.542060 0.285979 -0.372060
2.732252 2.245246 -1.741935
2.899518 2.393981 -1.738523
3.065839 2.540800 -1.724070
3.264057 2.715901 -1.715456
3.486729 2.913671 -1.707801
3.725608 3.124598 -1.693591
4.007424 3.373505 -1.681800
4.317307 3.648419 -1.664763
4.701686 3.988033 -1.654659
5.145629 4.381789 -1.638824
5.674027 4.848650 -1.620650
6.304489 5.405591 -1.595721
7.076902 6.145545 -1.567855
8.117817 7.076211 -1.538246
9.525472 8.331791 -1.499210
10.507318 9.204505 -1.321577
11.180151 9.803129 -1.054987
11.225583 9.836687 -0.708185
29.995951 26.599087 -0.938382
35.954662 31.911211 -0.004054
0.000061 -0.199302 -0.006865
71.342239 63.425388 4.456553
71.241989 63.313442 6.672716
47.159363 41.813892 5.889320
0.000061 -0.199302 -0.006865
47.951874 42.474598 9.018350
45.234322 40.027725 9.942101
0.000061 -0.199302 -0.006865
0.431291 0.183327 -0.348583
0.445122 0.195311 -0.340890
0.481285 0.227197 -0.348593
0.539473 0.278394 -0.368461
2.746297 2.229784 -1.741925
2.911669 2.375121 -1.736887
3.084345 2.525856 -1.725602
3.277995 2.694890 -1.713992
3.501796 2.891370 -1.706424
3.744690 3.103393 -1.693582
4.022212 3.345627 -1.679409
4.339400 3.623800 -1.664754
4.722819 3.958633 -1.653638
5.171930 4.352387 -1.638815
5.702986 4.816178 -1.620642
6.339619 5.372095 -1.596453
7.119244 6.110235 -1.569143
8.164021 7.033581 -1.539073
9.583364 8.284998 -1.500595
10.503128 9.092683 -1.314330
10.986493 9.516846 -1.031562
11.160448 9.663709 -0.700549
29.983414 26.279297 -0.933243
0.000071 -0.198995 -0.006855
0.000071 -0.198995 -0.006855
72.113548 63.371815 4.481815
71.986763 63.237488 6.708164
54.581497 47.865517 6.782558
0.000071 -0.198995 -0.006855
46.144703 40.392883 8.634066
45.401482 39.710842 9.928147
44.239178 38.661613 11.090866
0.438646 0.185658 -0.352654
0.447385 0.193039 -0.340880
0.483711 0.224700 -0.348583
0.534147 0.268521 -0.363068
2.761594 2.215414 -1.742771
2.926884 2.358095 -1.736878
3.099969 2.508332 -1.725593
3.294590 2.676250 -1.713983
3.521477 2.872064 -1.707099
3.760770 3.079566 -1.692293
4.041125 3.321460 -1.678804
4.362011 3.598290 -1.664745
4.753977 3.938015 -1.656161
5.194419 4.318072 -1.637424
5.729692 4.779992 -1.619802
6.387397 5.347564 -1.600147
7.158403 6.072015 -1.569784
8.196365 6.976190 -1.537118
9.644019 8.240437 -1.502443
10.520473 9.000878 -1.309868
11.107028 9.506916 -1.037411
11.131293 9.524659 -0.695239
30.045010 26.027603 -0.930466
0.000058 -0.198708 -0.006845
0.000058 -0.198708 -0.006845
72.806793 63.241905 4.502133
72.742531 63.141033 6.743471
0.000058 -0.198708 -0.006845
50.548672 43.769119 7.831614
0.000058 -0.198708 -0.006845
47.362831 40.939690 10.303742
44.031864 38.032845 10.983438
0.435721 0.178846 -0.348563
0.448369 0.189524 -0.339891
0.490237 0.225601 -0.351389
0.543660 0.271478 -0.367544
2.778592 2.201638 -1.744473
2.943380 2.342172 -1.737682
3.113192 2.487790 -1.724043
3.314417 2.659390 -1.715429
3.536779 2.848958 -1.705722
3.783031 3.059971 -1.693564
4.059027 3.295214 -1.677604
4.391734 3.578898 -1.667493
4.779887 3.911283 -1.656659
5.222601 4.288740 -1.637877
5.760622 4.747489 -1.620210
6.424669 5.313711 -1.601250
7.208915 6.041359 -1.572694
8.237276 6.926424 -1.536833
9.717963 8.204158 -1.506146
10.641185 8.995894 -1.318031
11.158379 9.435934 -1.036848
11.200873 9.469176 -0.695977
30.160713 25.815226 -0.929264
0.000068 -0.198401 -0.006834
0.000068 -0.198401 -0.006834
0.000068 -0.198401 -0.006834
73.493645 63.032631 6.778219
0.000068 -0.198401 -0.006834
0.000068 -0.198401 -0.006834
47.392380 40.503742 8.776621
47.194256 40.304821 10.214537
47.202473 40.297417 11.714633
0.436576 0.175516 -0.347533
0.458550 0.194045 -0.345758
0.494014 0.224224 -0.352317
0.540929 0.264007 -0.363944
2.792379 2.185916 -1.744464
2.956147 2.324831 -1.736859
3.128613 2.470129 -1.724033
3.329390 2.639343 -1.714692
3.555185 2.830696 -1.706397
3.804616 3.040895 -1.694835
4.089256 3.280747 -1.681765
4.415687 3.557112 -1.668586
4.794632 3.876482 -1.653612
5.250558 4.262348 -1.638790
5.792610 4.719336 -1.621449
6.459836 5.281862 -1.602352
7.241725 5.997482 -1.572037
8.293496 6.894787 -1.539886
9.775235 8.156094 -1.507530
10.981658 9.180479 -1.353301
11.160418 9.329743 -1.032101
11.207732 9.363339 -0.692993
0.000074 -0.198089 -0.006823
0.000074 -0.198089 -0.006823
0.000074 -0.198089 -0.006823
0.000074 -0.198089 -0.006823
52.142044 44.158577 4.784053
0.000074 -0.198089 -0.006823
51.047161 43.165459 7.829736
0.000074 -0.198089 -0.006823
46.912567 39.610630 10.105222
47.743690 40.287086 11.790933
0.443981 0.177746 -0.351603
0.454148 0.186072 -0.340850
0.491039 0.217110 -0.348552
0.535396 0.254273 -0.358550
2.806056 2.170089 -1.744454
2.973835 2.309883 -1.738477
3.146739 2.454739 -1.725565
3.345689 2.620438 -1.714683
3.574517 2.811049 -1.707072
3.817406 3.014354 -1.692266
4.107761 3.256212 -1.681160
4.434953 3.528681 -1.667475
4.829877 3.859067 -1.657655
5.270966 4.226411 -1.636938
5.827673 4.690206 -1.623103
6.495257 5.246272 -1.603085
7.287835 5.964899 -1.574299
8.350555 6.858536 -1.542661
9.839872 8.114063 -1.510074
10.982222 9.072426 -1.346797
11.137435 9.196752 -1.024847
11.190811 9.238400 -0.688614
0.000061 -0.197802 -0.006813
0.000061 -0.197802 -0.006813
0.000061 -0.197802 -0.006813
0.000061 -0.197802 -0.006813
52.465385 43.900082 4.789628
54.947792 45.953686 6.691982
48.918190 40.874619 7.466464
49.357021 41.213543 9.051723
48.890118 40.792580 10.478869
0.000061 -0.197802 -0.006813
0.438276 0.168777 -0.345472
0.456411 0.183665 -0.340839
0.486713 0.208830 -0.343847
0.532578 0.246806 -0.354951
2.819638 2.154184 -1.744445
2.985427 2.290685 -1.736841
3.160988 2.435127 -1.724786
3.357554 2.597836 -1.712492
3.590343 2.789515 -1.706379
3.838753 2.995040 -1.693537
4.127596 3.232813 -1.681151
4.456342 3.503383 -1.667466
4.847197 3.826536 -1.655621
5.296334 4.196266 -1.636930
5.857901 4.660396 -1.623926
6.530091 5.213974 -1.604187
7.331837 5.928172 -1.575912
8.398645 6.816973 -1.544045
9.905793 8.069840 -1.512617
10.977373 8.957649 -1.339550
11.126983 9.079097 -1.018986
11.186730 9.122258 -0.684979
31.164848 25.756985 -0.946123
0.000071 -0.197495 -0.006803
0.000071 -0.197495 -0.006803
0.000071 -0.197495 -0.006803
52.698505 43.580956 4.787803
53.142601 43.934040 6.441756
0.000071 -0.197495 -0.006803
0.000071 -0.197495 -0.006803
49.242832 40.622513 10.505458
0.000071 -0.197495 -0.006803
0.445630 0.171018 -0.349542
0.458535 0.181411 -0.340829
0.499858 0.215387 -0.351348
0.551594 0.257771 -0.365708
2.833125 2.138201 -1.744436
3.003947 2.277245 -1.739271
3.174233 2.416578 -1.724005
3.375046 2.579948 -1.713210
3.608931 2.770280 -1.707054
3.857072 2.973177 -1.693528
4.141363 3.204424 -1.678760
4.474604 3.475515 -1.666355
4.870290 3.798857 -1.655612
5.326066 4.169698 -1.638304
5.886604 4.625840 -1.623918
6.569687 5.181662 -1.606030
7.372022 5.892470 -1.577201
8.445019 6.773843 -1.545151
9.962533 8.023552 -1.514233
10.969939 8.848366 -1.332488
11.121712 8.966962 -1.013682
11.169216 9.002797 -0.680785
0.000058 -0.197209 -0.006793
0.000058 -0.197209 -0.006793
0.000058 -0.197209 -0.006793
0.000058 -0.197209 -0.006793
52.641335 43.023849 4.759869
52.863132 43.174915 6.376496
50.397083 41.136749 7.619143
49.507450 40.378048 8.992950
49.679600 40.489998 10.546968
49.213043 40.093391 11.980189
0.457137 0.176284 -0.356672
0.466169 0.183385 -0.344737
0.499567 0.210486 -0.349460
2.712939 2.014108 -1.763677
2.845541 2.120520 -1.743571
3.016715 2.259039 -1.738449
3.192534 2.400314 -1.725538
3.397240 2.564871 -1.716110
3.625962 2.749748 -1.707045
3.881698 2.955317 -1.696080
4.171862 3.188524 -1.682921
4.506135 3.458468 -1.670205
4.895411 3.771405 -1.656110
5.355654 4.142925 -1.639679
5.920371 4.597096 -1.625573
6.603601 5.146508 -1.606763
7.418715 5.857650 -1.579462
8.498835 6.736666 -1.547648
10.041919 7.989695 -1.518864
10.974014 8.743176 -1.326540
11.155736 8.887945 -1.012003
11.167807 8.891260 -0.677429
0.000068 -0.196901 -0.006782
0.000068 -0.196901 -0.006782
0.000068 -0.196901 -0.006782
0.000068 -0.196901 -0.006782
53.096962 42.888763 4.778570
0.000068 -0.196901 -0.006782
0.000068 -0.196901 -0.006782
51.125378 41.214508 9.243554
49.526508 39.890659 10.465222
50.962540 41.023403 12.346521
0.453916 0.169616 -0.352582
0.469709 0.182088 -0.345707
0.507398 0.212330 -0.353205
2.706149 1.983060 -1.751105
2.863054 2.107785 -1.746128
3.032659 2.242544 -1.739253
3.205994 2.381027 -1.724758
3.413085 2.545559 -1.716101
3.646299 2.730824 -1.708404
3.892383 2.927268 -1.692870
4.195751 3.168324 -1.684699
4.515721 3.422332 -1.665787
4.915163 3.741030 -1.655089
5.375248 4.106522 -1.637826
5.948704 4.562178 -1.625565
6.630570 5.103842 -1.605645
7.454998 5.816371 -1.579779
8.547522 6.692625 -1.549032
10.102832 7.943263 -1.520944
10.974139 8.638933 -1.320407
11.099079 8.733109 -1.002100
11.157683 8.777015 -0.673701
0.000055 -0.196615 -0.006772
0.000055 -0.196615 -0.006772
0.000055 -0.196615 -0.006772
0.000055 -0.196615 -0.006772
0.000055 -0.196615 -0.006772
53.139713 42.372749 6.349336
52.863163 42.135906 7.916845
0.000055 -0.196615 -0.006772
51.059738 40.632946 10.737993
50.363892 40.061951 12.145006
0.454736 0.166144 -0.351552
0.467860 0.176338 -0.342758
0.509818 0.209613 -0.353195
2.730227 1.976176 -1.758274
2.869212 2.085939 -1.741841
3.043801 2.223071 -1.737617
3.219804 2.361127 -1.723978
3.424450 2.522690 -1.713910
3.663105 2.710087 -1.708395
3.911806 2.906291 -1.693501
4.212055 3.142024 -1.683499
4.539505 3.398960 -1.666881
4.942299 3.716556 -1.656599
5.401460 4.077001 -1.638279
5.982852 4.535249 -1.627635
6.663154 5.069474 -1.606377
7.498272 5.778493 -1.581392
8.594808 6.649767 -1.550416
10.147821 7.880989 -1.520474
10.979601 8.536767 -1.314830
11.090968 8.622155 -0.996796
11.143485 8.657533 -0.669693
0.000063 -0.196306 -0.006761
0.000063 -0.196306 -0.006761
0.000063 -0.196306 -0.006761
58.395115 46.100235 3.472581
0.000063 -0.196306 -0.006761
0.000063 -0.196306 -0.006761
0.000063 -0.196306 -0.006761
51.661972 40.658779 9.253560
50.697083 39.881191 10.614408
49.510693 38.915089 11.884599
0.455406 0.162836 -0.350521
0.475401 0.178323 -0.346666
0.520393 0.213604 -0.358818
2.733887 1.954564 -1.752881
2.882298 2.069672 -1.741832
3.060556 2.208061 -1.739234
3.235468 2.344531 -1.724740
3.440034 2.503211 -1.713901
3.682745 2.691568 -1.709753
3.935555 2.888672 -1.696053
4.226708 3.114487 -1.681703
4.560128 3.373054 -1.666872
4.960170 3.684747 -1.655072
5.424448 4.044928 -1.637810
6.006196 4.496356 -1.626380
6.695829 5.031360 -1.606739
7.537711 5.741706 -1.582681
8.646533 6.610255 -1.552635
10.206833 7.835566 -1.522553
10.973406 8.432538 -1.308325
11.094503 8.521462 -0.992608
11.136189 8.551040 -0.666336
0.000051 -0.196019 -0.006751
0.000051 -0.196019 -0.006751
0.000051 -0.196019 -0.006751
60.400082 47.126228 3.575735
53.041077 41.330570 4.707472
53.082226 41.332748 6.284813
55.165417 42.946842 8.186887
0.000051 -0.196019 -0.006751
51.031960 39.656521 10.634832
51.079838 39.679401 12.206109
0.452083 0.156190 -0.346431
0.469357 0.169370 -0.340778
0.521418 0.209724 -0.357869
2.740937 1.934203 -1.749282
2.894259 2.051720 -1.740967
3.071454 2.188448 -1.737598
3.250484 2.325588 -1.724731
3.454527 2.481921 -1.713164
3.696335 2.668307 -1.708377
3.955304 2.866744 -1.696684
4.247786 3.090820 -1.682290
4.582137 3.348220 -1.667414
4.993833 3.663839 -1.658608
5.454934 4.018673 -1.639645
6.034675 4.463194 -1.626787
6.735157 5.000216 -1.608952
7.575908 5.699592 -1.583322
8.691846 6.565523 -1.553740
10.262140 7.781255 -1.523706
10.977239 8.330942 -1.302749
11.073597 8.402658 -0.986328
11.126317 8.437337 -0.662701
33.061207 25.438408 -0.975725
0.000060 -0.195712 -0.006741
0.000060 -0.195712 -0.006741
0.000060 -0.195712 -0.006741
53.216225 40.975918 4.701879
0.000060 -0.195712 -0.006741
0.000060 -0.195712 -0.006741
54.367470 41.790321 9.651176
0.000060 -0.195712 -0.006741
0.000060 -0.195712 -0.006741
0.463642 0.161217 -0.353561
0.468689 0.164838 -0.338809
0.530744 0.212391 -0.362553
2.748914 1.915428 -1.746581
2.917198 2.043023 -1.746947
3.086580 2.172128 -1.738403
3.263476 2.305998 -1.723951
3.469887 2.462280 -1.713155
3.712758 2.647265 -1.708368
3.963828 2.837293 -1.692835
4.269666 3.068915 -1.683472
4.608562 3.326730 -1.669611
5.008295 3.629452 -1.656067
5.479105 3.987485 -1.639637
6.070719 4.435772 -1.629274
6.766518 4.962826 -1.609315
7.617559 5.662187 -1.584934
8.741627 6.524106 -1.555681
10.301600 7.717484 -1.522772
10.964546 8.220596 -1.295501
11.073856 8.301395 -0.982001
11.112427 8.324796 -0.658973
0.000048 -0.195425 -0.006731
0.000048 -0.195425 -0.006731
0.000048 -0.195425 -0.006731
0.000048 -0.195425 -0.006731
53.492043 40.699375 4.705360
53.148712 40.407349 6.236835
0.000048 -0.195425 -0.006731
0.000048 -0.195425 -0.006731
0.000048 -0.195425 -0.006731
51.838017 39.305229 12.276099
0.460218 0.154682 -0.349471
0.472150 0.163492 -0.339778
0.531682 0.208563 -0.361604
2.766710 1.904175 -1.750161
2.927161 2.024303 -1.745226
3.107853 2.159592 -1.742460
3.277831 2.287468 -1.723942
3.486599 2.443662 -1.713874
3.729559 2.625487 -1.708359
3.990292 2.821568 -1.696667
4.288384 3.044566 -1.683464
4.624778 3.296152 -1.667948
5.036407 3.605503 -1.658084
5.499156 3.951679 -1.638246
6.104343 4.404684 -1.630929
6.803289 4.927623 -1.610788
7.657454 5.623305 -1.586223
8.792376 6.480801 -1.557621
10.310594 7.630700 -1.517433
11.019176 8.162433 -1.296237
11.057285 8.185222 -0.976140
11.097623 8.212717 -0.655244
0.000057 -0.195118 -0.006720
0.000057 -0.195118 -0.006720
0.000057 -0.195118 -0.006720
0.000057 -0.195118 -0.006720
55.649105 41.827965 4.873315
55.451923 41.648514 6.478112
0.000057 -0.195118 -0.006720
54.538319 40.913990 9.595466
0.000057 -0.195118 -0.006720
0.000057 -0.195118 -0.006720
0.460911 0.151213 -0.348440
0.477055 0.163073 -0.341727
0.535476 0.206758 -0.362533
2.777683 1.886949 -1.749254
2.940270 2.007192 -1.745217
3.120311 2.140319 -1.741638
3.298424 2.272707 -1.727015
3.506680 2.426583 -1.716047
3.747744 2.604742 -1.709033
4.003562 2.794737 -1.694737
4.310598 3.021657 -1.684646
4.646948 3.270096 -1.668491
5.054198 3.572371 -1.656557
5.533027 3.926254 -1.641004
6.126830 4.365191 -1.629673
6.838300 4.890992 -1.611891
7.701300 5.585166 -1.588161
8.836578 6.432378 -1.558449
10.312349 7.536333 -1.510935
11.022344 8.062577 -1.290846
11.133976 8.140108 -0.978503
11.075312 8.093142 -0.651050
0.000067 -0.194811 -0.006709
41.890736 31.107458 -0.003889
0.000067 -0.194811 -0.006709
0.000067 -0.194811 -0.006709
54.939491 40.782837 4.789671
53.859879 39.948181 6.263955
54.825790 40.653053 7.992321
0.000067 -0.194811 -0.006709
0.000067 -0.194811 -0.006709
0.000067 -0.194811 -0.006709
0.457371 0.144761 -0.344350
0.477716 0.159595 -0.340737
0.529272 0.197668 -0.356889
2.782448 1.865909 -1.744758
2.948528 1.987292 -1.742641
3.128882 2.119894 -1.739188
3.312561 2.253961 -1.727006
3.518721 2.404438 -1.714583
3.764816 2.585180 -1.709708
4.026812 2.776441 -1.697289
4.332132 2.999361 -1.685828
4.666226 3.244401 -1.668482
5.074270 3.542380 -1.656041
5.555964 3.895610 -1.640995
6.139589 4.321939 -1.626339
6.869761 4.855363 -1.612622
7.742397 5.546919 -1.589773
8.882990 6.390311 -1.560111
10.291242 7.428639 -1.501422
10.970460 7.925806 -1.279328
11.047215 7.979604 -0.966926
11.073065 7.992722 -0.648158
0.000051 -0.194520 -0.006699
0.000051 -0.194520 -0.006699
0.000051 -0.194520 -0.006699
0.000051 -0.194520 -0.006699
55.069481 40.403496 4.781147
0.000051 -0.194520 -0.006699
54.506599 39.929512 7.911899
55.446854 40.606586 9.672023
54.835941 40.127388 11.179693
56.746601 41.501644 13.264697
0.469031 0.149540 -0.351480
0.475525 0.154042 -0.337788
0.540077 0.201177 -0.362512
2.802912 1.856476 -1.750133
2.961061 1.970590 -1.742631
3.146986 2.104822 -1.741619
3.328096 2.236234 -1.727768
3.535126 2.385523 -1.715301
3.782759 2.564201 -1.710383
4.046913 2.755730 -1.698560
4.350439 2.974648 -1.685820
4.685006 3.215835 -1.667922
5.097250 3.514518 -1.656540
5.583275 3.865157 -1.641909
6.164690 4.284578 -1.625915
6.910718 4.822883 -1.615206
7.780104 5.506035 -1.590738
8.937884 6.349493 -1.562886
10.282080 7.330844 -1.493764
10.962392 7.822831 -1.273008
11.037535 7.871843 -0.961901
11.049044 7.877264 -0.644057
0.000060 -0.194213 -0.006689
0.000060 -0.194213 -0.006689
0.000060 -0.194213 -0.006689
0.000060 -0.194213 -0.006689
0.000060 -0.194213 -0.006689
0.000060 -0.194213 -0.006689
55.236374 39.978642 7.984169
0.000060 -0.194213 -0.006689
0.000060 -0.194213 -0.006689
57.071651 41.236824 13.284689
0.466861 0.144007 -0.348410
0.483217 0.155587 -0.341697
0.532393 0.191020 -0.355930
2.810686 1.836971 -1.747431
2.976403 1.955915 -1.744333
3.161665 2.088041 -1.742423
3.340976 2.215678 -1.726987
3.554451 2.368687 -1.717474
3.794006 2.539375 -1.708322
4.066916 2.734900 -1.699831
4.370172 2.950965 -1.686406
4.704544 3.189081 -1.667913
5.123248 3.488802 -1.658050
5.606551 3.833230 -1.641900
6.202319 4.259515 -1.629232
6.945013 4.789097 -1.616679
7.823362 5.467000 -1.592676
8.981835 6.302855 -1.563992
10.271790 7.230426 -1.485875
10.774076 7.587722 -1.245893
11.019098 7.761735 -0.956318
11.035164 7.767443 -0.640515
38.694241 27.711920 -1.111763
0.000048 -0.193926 -0.006678
0.000048 -0.193926 -0.006678
0.000048 -0.193926 -0.006678
55.865910 39.991653 4.809190
0.000048 -0.193926 -0.006678
0.000048 -0.193926 -0.006678
56.415585 40.311913 9.757766
0.000048 -0.193926 -0.006678
55.873482 39.878044 12.951682
0.477138 0.147701 -0.354520
0.488000 0.155212 -0.343645
0.528790 0.184235 -0.352164
2.826340 1.824654 -1.750114
2.993136 1.942177 -1.746891
3.173263 2.069035 -1.741600
3.357378 2.199419 -1.728520
3.569164 2.348488 -1.717465
3.812736 2.519953 -1.709681
4.072911 2.704046 -1.695341
4.391307 2.928246 -1.687589
4.730220 3.166689 -1.670109
5.141219 3.457301 -1.657028
5.631236 3.802304 -1.642353
6.241397 4.231988 -1.632550
6.977665 4.750379 -1.617412
7.858070 5.425829 -1.593316
9.028756 6.258224 -1.565654
10.254902 7.131691 -1.477521
10.776846 7.498820 -1.241244
10.913652 7.590688 -0.943347
11.037162 7.675849 -0.638088
0.000057 -0.193619 -0.006668
0.000057 -0.193619 -0.006668
0.000057 -0.193619 -0.006668
0.000057 -0.193619 -0.006668
56.727409 40.118000 4.863353
0.000057 -0.193619 -0.006668
0.000057 -0.193619 -0.006668
0.000057 -0.193619 -0.006668
0.000057 -0.193619 -0.006668
56.935638 40.145634 13.143915
0.476363 0.143194 -0.352469
0.492926 0.154634 -0.345594
0.528122 0.179340 -0.350277
2.833896 1.805071 -1.747412
3.004273 1.923635 -1.746026
3.187734 2.052075 -1.742404
3.370002 2.178692 -1.727740
3.585689 2.328621 -1.718183
3.825224 2.496089 -1.708305
4.097777 2.685570 -1.698533
4.408202 2.901351 -1.686984
4.749486 3.139689 -1.670101
5.165948 3.429246 -1.658033
5.654167 3.770121 -1.642344
6.277980 4.204116 -1.635452
7.007624 4.711536 -1.617774
7.902568 5.387387 -1.595577
9.073856 6.212143 -1.567038
10.246225 7.034365 -1.470096
10.843438 7.449944 -1.243652
10.896334 7.484353 -0.938042
11.065686 7.597871 -0.637058
0.000045 -0.193332 -0.006658
0.000045 -0.193332 -0.006658
0.000045 -0.193332 -0.006658
0.000045 -0.193332 -0.006658
66.356186 46.387959 5.666843
63.477043 44.333588 7.231273
0.000045 -0.193332 -0.006658
0.000045 -0.193332 -0.006658
58.469666 40.744507 11.723905
58.254551 40.563431 13.392449
0.476870 0.139749 -0.351439
0.493484 0.151086 -0.344605
0.534620 0.179635 -0.353083
2.840952 1.785949 -1.744711
3.016433 1.906618 -1.746016
3.200595 2.033966 -1.742395
3.385125 2.160601 -1.728502
3.597107 2.306119 -1.716719
3.840655 2.474323 -1.708295
4.112727 2.661139 -1.697884
4.429073 2.878378 -1.688167
4.768601 3.112584 -1.670092
5.183537 3.397530 -1.657012
5.686496 3.744442 -1.645102
6.304816 4.169313 -1.635860
7.045467 4.678121 -1.619987
7.932936 5.340940 -1.595246
9.120328 6.166871 -1.568701
10.238777 6.941467 -1.463133
10.941212 7.425232 -1.249773
10.919080 7.406964 -0.936224
11.023447 7.473866 -0.632119
0.000054 -0.193025 -0.006647
0.000054 -0.193025 -0.006647
0.000054 -0.193025 -0.006647
67.064911 46.329098 3.803944
0.000054 -0.193025 -0.006647
0.000054 -0.193025 -0.006647
59.658596 41.113861 8.482873
0.000054 -0.193025 -0.006647
0.000054 -0.193025 -0.006647
19.973095 13.610138 4.568984
0.475955 0.135351 -0.349389
0.489710 0.144579 -0.340676
0.529484 0.171841 -0.348378
2.855248 1.771885 -1.746496
3.026965 1.888470 -1.745152
3.215269 2.016281 -1.743199
3.400136 2.142407 -1.729263
3.609904 2.284610 -1.715983
3.856412 2.451788 -1.708286
4.135346 2.641994 -1.700436
4.446682 2.853117 -1.688158
4.789730 3.085630 -1.670634
5.207324 3.370107 -1.658016
5.708130 3.709817 -1.644633
6.333805 4.134324 -1.636683
7.079115 4.639858 -1.621090
7.963058 5.294355 -1.594914
9.167700 6.119696 -1.570363
10.227334 6.846651 -1.455707
10.935665 7.328536 -1.244196
10.963978 7.342345 -0.936217
11.011425 7.372095 -0.628949
0.000041 -0.192738 -0.006637
0.000041 -0.192738 -0.006637
0.000041 -0.192738 -0.006637
0.000041 -0.192738 -0.006637
0.000041 -0.192738 -0.006637
0.000041 -0.192738 -0.006637
59.762646 40.679081 8.464037
0.000041 -0.192738 -0.006637
19.992554 13.459615 3.972081
20.255175 13.633714 4.615289
0.483563 0.136675 -0.353459
0.498922 0.146877 -0.345564
0.524330 0.164021 -0.343674
2.868318 1.756201 -1.747385
3.039274 1.870788 -1.745142
3.226419 1.996997 -1.742377
3.410878 2.120422 -1.727712
3.624541 2.263448 -1.715974
3.870026 2.428787 -1.707593
4.148950 2.615581 -1.699147
4.467853 2.829132 -1.689340
4.814885 3.062587 -1.672830
5.228376 3.339453 -1.658007
5.732132 3.678280 -1.645085
6.366735 4.103557 -1.638753
7.106822 4.599310 -1.621082
8.006879 5.255069 -1.597176
9.215359 6.074893 -1.572303
10.221275 6.753770 -1.448977
10.935633 7.233629 -1.239176
11.007177 7.279374 -0.936211
11.001546 7.269915 -0.625871
0.000051 -0.192431 -0.006626
0.000051 -0.192431 -0.006626
0.000051 -0.192431 -0.006626
0.000051 -0.192431 -0.006626
62.452007 42.040855 5.269177
0.000051 -0.192431 -0.006626
0.000051 -0.192431 -0.006626
21.924900 14.606248 3.712328
20.047949 13.329124 3.967545
19.924503 13.235690 4.521579
0.479744 0.130349 -0.349369
0.497964 0.142346 -0.343594
0.527829 0.162269 -0.344603
2.876527 1.737961 -1.745581
3.049605 1.852544 -1.744277
3.240494 1.979701 -1.743181
3.424145 2.101045 -1.727703
3.638609 2.242824 -1.715965
3.883475 2.405695 -1.706901
4.169790 2.595113 -1.701058
4.485171 2.803646 -1.689332
4.828761 3.031910 -1.671168
5.250229 3.310653 -1.658505
5.760791 3.649815 -1.646921
6.397866 4.071449 -1.640409
7.140842 4.562963 -1.622555
8.039757 5.210274 -1.597492
9.266080 6.031948 -1.574801
0.000061 -0.192124 -0.006616
10.918659 7.130886 -1.232485
10.958872 7.155054 -0.928537
10.991214 7.171146 -0.622887
37.735291 25.068554 -1.058564
0.000061 -0.192124 -0.006616
0.000061 -0.192124 -0.006616
0.000061 -0.192124 -0.006616
64.978767 43.206676 5.461416
0.000061 -0.192124 -0.006616
61.697388 40.952480 8.669459
22.037767 14.498721 3.717065
19.516104 12.807831 3.847217
19.664448 12.896682 4.445279
0.487333 0.131694 -0.353439
0.508595 0.145552 -0.349462
0.525454 0.156603 -0.341776
2.887587 1.721658 -1.745571
3.064330 1.837232 -1.745979
3.254842 1.961741 -1.743985
3.443449 2.085662 -1.730777
3.657236 2.225214 -1.718138
3.903523 2.386013 -1.708943
4.185760 2.571343 -1.701049
4.499150 2.775957 -1.688132
4.854233 3.007744 -1.673364
5.270312 3.280661 -1.658496
5.788365 3.619082 -1.648296
6.431237 4.039104 -1.642479
