# This PCD file was generated using the MATLAB® pcwrite function
# from Computer Vision Toolbox®.
# .PCD v.7 - Point Cloud Data file format
VERSION .7
FIELDS x y z
SIZE 4 4 4
TYPE F F F
COUNT 1 1 1
WIDTH 1641
HEIGHT 1
VIEWPOINT 0 0 0 1 0 0 0
POINTS 1641
DATA ascii
-4.321868 1.497847 -1.597273
-4.615131 1.621561 -1.575949
-4.930679 1.754754 -1.548130
-5.331556 1.922700 -1.529122
-5.732048 2.091807 -1.489161
-6.275767 2.321019 -1.463842
-6.984242 2.619490 -1.445405
-7.724621 2.889193 -1.393169
-8.669894 3.282695 -1.339812
-9.281260 3.536972 -1.194892
-9.295513 3.546517 -0.960773
-10.082582 3.876029 -0.786400
-10.304399 3.969800 -0.543750
-10.123286 3.898747 -0.277846
-17.515656 6.970716 -0.033089
-17.495501 6.965618 0.406690
-17.521700 6.983386 0.851618
-17.520046 6.989539 1.293537
-17.536428 7.003238 1.738709
-17.549562 7.011991 2.189532
-0.002070 -0.297810 -0.010264
-5.179192 1.862883 0.904484
-5.219361 1.880635 1.047934
-0.558427 -0.063994 -0.369064
-2.994843 0.959888 -1.839291
-3.151728 1.026397 -1.832149
-3.328012 1.101782 -1.827313
-3.543938 1.193290 -1.834859
-3.756541 1.284236 -1.830001
-3.819430 1.312207 -1.746544
-3.846947 1.324548 -1.645537
-4.082832 1.425642 -1.628533
-4.309722 1.522250 -1.596599
-4.582928 1.639463 -1.568740
-4.899308 1.775168 -1.542005
-5.313325 1.951406 -1.527558
-5.707450 2.120507 -1.486341
-6.257433 2.354798 -1.462964
-6.947928 2.650309 -1.441260
-7.718311 2.940605 -1.395405
-8.643647 3.330562 -1.338915
-9.291303 3.606113 -1.199051
-9.287226 3.608061 -0.962220
-10.176069 3.983820 -0.795421
-10.166591 3.983842 -0.537857
-10.124757 3.968115 -0.278468
-17.643059 7.143235 -0.033211
-17.627089 7.143450 0.410973
-17.681955 7.169928 0.861702
-17.668907 7.171394 1.307897
-17.673307 7.176563 1.756596
-17.679146 7.186001 2.211244
-17.697363 7.200685 2.667241
-8.349256 3.241073 1.468126
-5.221210 1.917064 1.050914
-0.560266 -0.059238 -0.371095
-2.986164 0.976211 -1.838284
-3.144290 1.044268 -1.832123
-3.316872 1.119228 -1.825487
-3.533639 1.213253 -1.833973
-3.747378 1.306130 -1.829971
-3.822233 1.338902 -1.751925
-3.842677 1.349168 -1.647696
-4.072849 1.449411 -1.628502
-4.297432 1.546585 -1.595924
-4.571683 1.666126 -1.568705
-4.876704 1.799080 -1.538648
-5.296738 1.980724 -1.526503
-5.691640 2.152859 -1.485838
-6.238008 2.390607 -1.462085
-6.905060 2.680870 -1.435996
-7.681959 2.976206 -1.392090
-8.615338 3.377447 -1.337738
-9.249260 3.649650 -1.196417
-9.276271 3.664830 -0.963292
-10.142064 4.038720 -0.794649
-10.111301 4.027470 -0.536171
-0.002087 -0.297243 -0.010244
-17.791077 7.326945 -0.033358
-17.796595 7.332660 0.416136
-17.813066 7.346759 0.870427
-17.812597 7.353608 1.321986
-17.829908 7.368083 1.776874
-17.843817 7.377434 2.237557
-17.857656 7.390462 2.698252
-7.905737 3.108791 1.393181
-5.206573 1.946579 1.050583
-0.555703 -0.057015 -0.369038
-2.976961 0.993506 -1.837276
-3.136279 1.063191 -1.832096
-3.313319 1.141318 -1.828158
-3.521314 1.233037 -1.832229
-3.736400 1.327257 -1.829126
-3.829392 1.369190 -1.759625
-3.831152 1.371472 -1.646936
-4.050653 1.467888 -1.623666
-4.272528 1.566284 -1.590751
-4.584443 1.704201 -1.577043
-4.873345 1.831279 -1.541380
-5.281355 2.011630 -1.525955
-5.679209 2.186674 -1.486262
-6.217053 2.424422 -1.460788
-6.882401 2.718505 -1.434832
-7.691357 3.034578 -1.397265
-8.579509 3.420979 -1.335438
-9.256667 3.718176 -1.200341
-9.294596 3.738336 -0.967560
-10.107783 4.093357 -0.793877
-0.002072 -0.296940 -0.010234
-10.274010 4.173738 -0.283661
-17.944931 7.515762 -0.033513
-17.930643 7.516674 0.420557
-17.972509 7.542048 0.880701
-17.967583 7.543303 1.337036
-17.980745 7.556195 1.796603
-17.996372 7.570183 2.262726
-18.012730 7.580732 2.728714
-0.002072 -0.296940 -0.010234
-5.257967 2.006122 1.063868
-0.554311 -0.053535 -0.369024
-2.966298 1.009512 -1.835287
-3.128396 1.081525 -1.832070
-3.308253 1.162110 -1.829929
-3.510775 1.252869 -1.831342
-3.732010 1.351245 -1.831543
-3.828170 1.395240 -1.763460
-3.831699 1.398322 -1.651284
-4.055885 1.498322 -1.629811
-4.259990 1.590387 -1.590076
-4.539708 1.716147 -1.565647
-4.871549 1.864275 -1.544665
-5.273274 2.044655 -1.527444
-5.679044 2.225943 -1.489929
-6.203070 2.461262 -1.461163
-6.866725 2.759173 -1.435158
-7.663033 3.075116 -1.395581
-8.554320 3.469029 -1.334821
-9.242472 3.775717 -1.201454
-9.287599 3.799312 -0.969194
-0.002080 -0.296656 -0.010224
-0.002080 -0.296656 -0.010224
-18.072958 7.692478 -0.492372
-18.104494 7.709861 -0.033673
-18.102921 7.716395 0.425904
-18.118856 7.730675 0.890339
-18.119131 7.734239 1.351954
-18.139093 7.750346 1.817251
-18.128706 7.752970 2.285366
-18.158951 7.769831 2.758075
-5.306589 2.062099 0.936500
-5.276957 2.051008 1.070529
-0.546606 -0.052856 -0.364922
-2.950772 1.023312 -1.830352
-3.120420 1.099802 -1.832043
-3.298164 1.180704 -1.829002
-3.500155 1.272610 -1.830455
-3.715499 1.370665 -1.828250
-3.811625 1.414534 -1.760338
-3.818478 1.419124 -1.649794
-4.055447 1.527269 -1.633896
-4.255976 1.618277 -1.592613
-4.514119 1.736279 -1.560829
-4.841125 1.885532 -1.539093
-5.257946 2.074477 -1.526897
-5.674619 2.264686 -1.492668
-6.190145 2.499936 -1.461955
-6.859205 2.805020 -1.437346
-7.611053 3.104997 -1.389652
-8.524603 3.516765 -1.333642
-9.235181 3.836466 -1.203504
-9.327477 3.881491 -0.975720
-10.277844 4.311386 -0.811057
-10.799844 4.547512 -0.576101
-18.234591 7.890062 -0.497827
-18.259157 7.908417 -0.033827
-18.247961 7.906877 0.430636
-18.283691 7.930244 0.900979
-18.282192 7.936924 1.367973
-18.298029 7.951373 1.838271
-18.312069 7.961206 2.314677
-18.316587 7.970589 2.789649
-5.234948 2.067797 0.926238
-5.254380 2.077586 1.068728
-0.554549 -0.045074 -0.371042
-2.950833 1.044686 -1.835235
-3.110469 1.117862 -1.831075
-3.286083 1.199067 -1.827175
-3.492706 1.293784 -1.831284
-3.710820 1.394605 -1.830667
-3.813152 1.442777 -1.765717
-3.813604 1.443711 -1.651952
-4.039752 1.548543 -1.631806
-4.258651 1.649354 -1.597719
-4.528376 1.774439 -1.569764
-4.830225 1.914468 -1.539611
-5.251242 2.108229 -1.528893
-5.668624 2.301665 -1.494945
-6.179783 2.537181 -1.463167
-6.831084 2.838630 -1.435065
-7.628468 3.167517 -1.396458
-8.500707 3.565259 -1.333306
-9.255714 3.912017 -1.209301
-9.251783 3.913946 -0.970392
-0.002073 -0.296069 -0.010203
-10.285556 4.390581 -0.550530
-0.002073 -0.296069 -0.010203
-18.420866 8.109174 -0.033990
-18.411768 8.112465 0.435903
-18.441357 8.129494 0.911350
-18.437714 8.135265 1.383444
-18.454506 8.146501 1.858923
-18.473742 8.162737 2.341462
-18.477545 8.171934 2.821777
-5.203720 2.089036 0.923057
-5.347833 2.157263 1.090846
-0.539095 -0.048183 -0.361829
-2.936962 1.058526 -1.831282
-3.108926 1.138471 -1.834812
-3.280940 1.219177 -1.828946
-3.480491 1.312043 -1.829540
-3.691382 1.410989 -1.825743
-3.821794 1.472864 -1.774190
-3.817359 1.471524 -1.657759
-4.041313 1.576902 -1.636578
-4.254610 1.676573 -1.600257
-4.511554 1.797572 -1.567936
-4.767270 1.918208 -1.523523
-5.237733 2.137808 -1.528855
-5.652259 2.332755 -1.494441
-6.170959 2.575238 -1.464796
-6.761812 2.852959 -1.424213
-6.818748 2.846109 -1.252398
-8.471807 3.609651 -1.332128
-9.255507 3.974755 -1.212287
-9.204630 3.954976 -0.967887
-10.049265 4.347054 -0.797168
-10.203006 4.422241 -0.547504
-0.002059 -0.295765 -0.010193
-10.176039 4.415831 -0.023312
-18.573160 8.312108 0.441079
-18.611506 8.333485 0.922357
-18.602097 8.336632 1.399601
-18.631060 8.353679 1.881779
-18.633410 8.362309 2.368017
-0.002059 -0.295765 -0.010193
-0.002059 -0.295765 -0.010193
-5.216431 2.132582 1.066596
-0.543839 -0.041781 -0.365905
-2.933600 1.078456 -1.834200
-3.095578 1.154936 -1.831961
-3.267047 1.236637 -1.826219
-3.468977 1.332799 -1.828652
-3.684488 1.434723 -1.827343
-3.811235 1.495806 -1.774158
-3.806504 1.495097 -1.657727
-3.999542 1.586739 -1.624192
-4.235620 1.699601 -1.597652
-4.495237 1.823755 -1.566704
-4.832269 1.983653 -1.548394
-5.228039 2.172510 -1.530342
-5.638331 2.367369 -1.494862
-6.160385 2.616513 -1.466423
-6.715814 2.881890 -1.418575
-6.791047 2.882628 -1.250717
-8.450298 3.660966 -1.332351
-9.213835 4.022288 -1.210117
-9.188246 4.014049 -0.968765
-10.364670 4.567930 -0.824051
-10.122389 4.458357 -0.544667
-10.127540 4.464893 -0.282994
-10.156937 4.480679 -0.023256
-18.746090 8.528028 0.446661
-18.789822 8.556249 0.934102
-18.776157 8.553461 1.416865
-18.786833 8.566132 1.903179
-18.804747 8.582244 2.396883
-0.002070 -0.295478 -0.010182
-0.002070 -0.295478 -0.010182
-0.002070 -0.295478 -0.010182
-0.543924 -0.037634 -0.366914
-2.920921 1.093376 -1.831229
-3.085590 1.172268 -1.830993
-3.259775 1.256498 -1.827090
-3.454660 1.350704 -1.826049
-3.666234 1.452266 -1.823235
-3.809187 1.521987 -1.777992
-3.806207 1.522101 -1.662074
-4.002217 1.616496 -1.629650
-4.230896 1.727521 -1.600188
-4.517372 1.866395 -1.578628
-4.810403 2.007580 -1.545590
-5.205003 2.198704 -1.527758
-5.621150 2.399241 -1.494358
-6.124114 2.642927 -1.461780
-6.578725 2.863803 -1.393564
-6.769080 2.920269 -1.250017
-8.420214 3.706459 -1.331172
-9.203155 4.082402 -1.211930
-9.213613 4.091144 -0.973971
-10.309476 4.614949 -0.821856
-10.240926 4.586477 -0.552336
-10.099979 4.523397 -0.282928
-10.111223 4.530744 -0.023167
-18.949350 8.757652 0.452993
-18.925980 8.754226 0.943664
-18.948067 8.768486 1.433991
-18.974386 8.788822 1.927694
-18.980854 8.799672 2.426207
-8.041754 3.559108 1.232333
-8.126197 3.602921 1.459549
-19.032661 8.843782 3.942072
-0.543979 -0.033476 -0.367922
-2.914459 1.111216 -1.832184
-3.077080 1.190314 -1.830966
-3.254002 1.277094 -1.828861
-3.445131 1.370861 -1.826020
-3.667618 1.479213 -1.828913
-3.797009 1.543375 -1.777188
-3.799021 1.545918 -1.663501
-4.006338 1.647199 -1.635794
-4.208959 1.747178 -1.596300
-4.492848 1.886815 -1.574407
-4.790148 2.032175 -1.543339
-5.188823 2.228077 -1.527210
-5.598547 2.428452 -1.492463
-6.094794 2.672434 -1.458809
-6.574568 2.908802 -1.396498
-6.748683 2.958621 -1.249643
-8.389892 3.751734 -1.329992
-9.218940 4.155473 -1.217256
-9.335217 4.215450 -0.989333
-10.180449 4.625896 -0.813847
-0.002064 -0.294890 -0.010162
-10.201613 4.644518 -0.286370
-19.097128 8.956132 -0.034669
-19.089418 8.960241 0.457829
-19.135984 8.990683 0.957045
-19.114538 8.984029 1.450847
-19.147448 9.007881 1.950930
-19.058571 8.972526 2.443114
-7.677424 3.439238 1.179385
-0.002064 -0.294890 -0.010162
-19.204149 9.062843 3.988929
-0.550184 -0.026287 -0.373020
-2.904758 1.127495 -1.831176
-3.063716 1.205982 -1.828115
-3.238487 1.292950 -1.825235
-3.433849 1.390183 -1.825132
-3.657022 1.501243 -1.828882
-3.802917 1.573639 -1.784886
-3.800067 1.573799 -1.668577
-3.989691 1.668737 -1.633702
-4.197129 1.771675 -1.596266
-4.471644 1.908731 -1.571381
-4.777976 2.061704 -1.543854
-5.179419 2.260768 -1.528697
-5.582288 2.461914 -1.492420
-6.075323 2.707972 -1.458345
-6.551912 2.946312 -1.395705
-6.728059 2.996855 -1.249268
-8.363969 3.800847 -1.329654
-9.200308 4.212260 -1.218132
-9.141052 4.187003 -0.971592
-9.583361 4.407866 -0.768825
-9.936559 4.583160 -0.539027
-0.002050 -0.294585 -0.010151
-10.588936 4.912210 -0.023718
-19.288776 9.194751 0.464167
-19.313398 9.214864 0.968885
-19.300777 9.216597 1.469491
-0.002050 -0.294585 -0.010151
-19.088634 9.123686 2.454042
-7.807875 3.560424 1.203181
-0.002050 -0.294585 -0.010151
-13.073933 6.169098 2.720022
-0.543957 -0.025032 -0.369940
-2.899376 1.146564 -1.833112
-3.059500 1.226785 -1.830910
-3.232204 1.314029 -1.827004
-3.423803 1.410813 -1.825102
-3.640103 1.519291 -1.825589
-3.800005 1.600594 -1.788718
-3.802233 1.603270 -1.674382
-3.980006 1.692808 -1.634355
-4.155995 1.782438 -1.585310
-4.455076 1.933809 -1.570149
-4.769495 2.092042 -1.545477
-5.169343 2.294356 -1.530183
-5.566333 2.494297 -1.492378
-6.031716 2.730039 -1.452030
-6.531397 2.983386 -1.395285
-6.710172 3.037889 -1.249545
-8.336694 3.847479 -1.329035
-9.344118 4.351982 -1.240554
-9.174891 4.271628 -0.977923
-10.065082 4.716695 -0.809173
-10.061207 4.718947 -0.547169
-10.143178 4.764001 -0.286234
-19.476225 9.423103 -0.035056
-19.478989 9.432589 0.470380
-0.002057 -0.294303 -0.010141
-0.002057 -0.294303 -0.010141
-19.502220 9.464240 1.999063
-7.960233 3.691548 1.020391
-7.790851 3.608258 1.204064
-7.827552 3.629896 1.417860
-0.002057 -0.294303 -0.010141
-0.540855 -0.022389 -0.368904
-2.892590 1.164315 -1.834067
-3.050711 1.244656 -1.830883
-3.219712 1.331290 -1.825177
-3.412306 1.429987 -1.824215
-3.626331 1.538879 -1.823927
-3.790685 1.623565 -1.789459
-3.791253 1.625421 -1.674350
-3.970188 1.716823 -1.635008
-4.164236 1.816912 -1.592985
-4.440473 1.958854 -1.569516
-4.762518 2.123251 -1.547653
-5.161270 2.327859 -1.532178
-5.558839 2.531018 -1.494653
-5.953185 2.733976 -1.437353
-6.092153 2.807243 -1.305827
-6.694394 3.078542 -1.250150
-8.312712 3.895701 -1.328977
-9.148756 4.320995 -1.218240
-9.216000 4.358766 -0.985006
-9.971951 4.742477 -0.804001
-9.738003 4.628362 -0.531353
-9.946177 4.737759 -0.281588
-19.664402 9.659127 -0.035247
-0.002066 -0.294019 -0.010131
-0.002066 -0.294019 -0.010131
-0.002066 -0.294019 -0.010131
-19.630379 9.670407 2.018271
-13.318126 6.471529 1.719306
-7.907752 3.724226 1.225930
-7.973727 3.761084 1.448826
-0.002066 -0.294019 -0.010131
-0.537758 -0.019785 -0.367869
-2.887246 1.182831 -1.836003
-3.035500 1.259291 -1.827091
-3.208713 1.349280 -1.824249
-3.400728 1.449069 -1.823327
-3.618975 1.561684 -1.825527
-0.002051 -0.293714 -0.010120
-3.791721 1.653481 -1.679425
-3.960192 1.740822 -1.635661
-4.160440 1.845473 -1.596163
-4.418941 1.980312 -1.566490
-4.748529 2.150918 -1.547616
-5.149518 2.359608 -1.533155
-5.558050 2.571294 -1.498780
-5.913057 2.756838 -1.431874
-6.037545 2.823613 -1.297959
-6.068738 2.807463 -1.137465
-8.284923 3.941988 -1.328358
-9.189219 4.408275 -1.227077
-9.169558 4.402065 -0.982875
-10.118555 4.890168 -0.817970
-10.029474 4.848722 -0.548465
-10.066461 4.871916 -0.285610
-9.983213 4.831192 -0.022850
-0.002051 -0.293714 -0.010120
-6.245482 2.917263 0.309306
-6.284604 2.938637 0.475884
-0.002051 -0.293714 -0.010120
-0.002051 -0.293714 -0.010120
-13.071363 6.443980 2.039381
-8.102845 3.885950 1.476897
-12.835120 6.332978 2.694144
-0.533106 -0.017982 -0.365811
-2.877164 1.198913 -1.834995
-3.024947 1.276222 -1.826122
-3.199195 1.368029 -1.824220
-3.389019 1.468096 -1.822439
-3.608217 1.582801 -1.825495
-3.781449 1.674493 -1.795578
-3.793678 1.682443 -1.685229
-3.965071 1.772570 -1.642489
-4.148065 1.869680 -1.596128
-4.434551 2.021019 -1.576619
-4.730952 2.176748 -1.546471
-5.127287 2.385936 -1.531080
-5.551799 2.608958 -1.501517
-5.833012 2.758478 -1.416780
-6.021229 2.859538 -1.298285
-6.026244 2.829941 -1.132849
-0.002060 -0.293430 -0.010110
-9.186670 4.474215 -1.230292
-9.130005 4.448644 -0.981495
-9.881426 4.840996 -0.801314
-9.909305 4.859661 -0.543530
-9.981551 4.901475 -0.284032
-0.002060 -0.293430 -0.010110
-0.002060 -0.293430 -0.010110
-6.356205 3.020896 0.315989
-6.267642 2.975980 0.476068
-0.002060 -0.293430 -0.010110
-13.137202 6.571612 1.706138
-8.059302 3.919284 1.257243
-0.002060 -0.293430 -0.010110
-0.002060 -0.293430 -0.010110
-0.526961 -0.017047 -0.362732
-2.868520 1.215756 -1.834968
-3.009610 1.290624 -1.822330
-3.183267 1.383377 -1.820593
-3.383615 1.490405 -1.824982
-3.593797 1.602764 -1.823833
-3.774935 1.699125 -1.797865
-3.788825 1.708030 -1.688115
-3.957736 1.798979 -1.644514
-4.162318 1.908002 -1.606371
-4.390793 2.030729 -1.565821
-4.723011 2.208663 -1.548646
-5.111778 2.415705 -1.531040
-5.558539 2.654910 -1.507959
-5.790613 2.780485 -1.410882
-6.007614 2.898270 -1.299356
-6.022128 2.872231 -1.135415
-6.881982 3.327237 -1.111636
-9.162572 4.529184 -1.230696
-9.213519 4.559904 -0.993276
-9.631973 4.784435 -0.783666
-9.845881 4.899226 -0.541648
-9.505914 4.723913 -0.271699
-11.003089 5.518953 -0.024085
-7.027263 3.419854 0.165449
-6.206308 2.988605 0.309309
-6.258733 3.018968 0.476939
-6.307537 3.047506 0.647550
-13.057065 6.626024 1.700934
-12.930435 6.564386 2.029892
-7.934876 3.917984 1.455116
-0.002044 -0.293128 -0.010100
-0.534400 -0.008776 -0.368851
-2.861063 1.233856 -1.835922
-3.003274 1.310410 -1.824183
-3.176406 1.404221 -1.822363
-3.365025 1.506469 -1.820663
-3.582818 1.623725 -1.823801
-3.772823 1.726991 -1.802469
-3.780163 1.732531 -1.689541
-3.943960 1.821148 -1.643794
-4.124159 1.919512 -1.596701
-4.402143 2.070584 -1.574752
-4.705158 2.234276 -1.547501
-5.093921 2.445355 -1.530490
-5.546622 2.689916 -1.509306
-5.769380 2.812213 -1.410002
-5.994348 2.935881 -1.300428
-6.008479 2.910968 -1.136348
-0.002053 -0.292844 -0.010090
-9.165341 4.600587 -1.234846
-9.167012 4.605378 -0.991330
-9.562091 4.818485 -0.780339
-9.702175 4.897511 -0.535472
-9.669856 4.884338 -0.276983
-0.002053 -0.292844 -0.010090
-13.472454 6.929144 0.327661
-6.082855 2.969915 0.303992
-6.193823 3.030714 0.473418
-6.263630 3.070854 0.645028
-7.757441 3.876635 1.009630
-0.002053 -0.292844 -0.010090
-7.425537 3.702878 1.365326
-12.627509 6.508236 2.675263
-0.526722 -0.008708 -0.364749
-2.853754 1.251434 -1.836876
-2.989345 1.325446 -1.821333
-3.160302 1.419373 -1.818736
-3.357778 1.527842 -1.822348
-3.573346 1.645474 -1.824585
-3.764358 1.750752 -1.803982
-3.789708 1.766121 -1.698992
-3.920189 1.837818 -1.638957
-4.108013 1.941718 -1.595381
-4.406904 2.106222 -1.581292
-4.702338 2.268062 -1.551336
-5.081472 2.476781 -1.531466
-5.551560 2.734210 -1.515285
-5.747976 2.843797 -1.409121
-5.967016 2.965941 -1.298519
-5.988193 2.944865 -1.135975
-8.177419 4.130514 -1.326999
-9.123043 4.646005 -1.232908
-9.117638 4.646997 -0.989009
-9.841187 5.041070 -0.805217
-9.754653 4.998353 -0.539887
-0.002039 -0.292539 -0.010079
-0.002039 -0.292539 -0.010079
-0.002039 -0.292539 -0.010079
-6.063971 3.005159 0.304038
-6.158830 3.058000 0.472229
-0.002039 -0.292539 -0.010079
-0.002039 -0.292539 -0.010079
-8.000215 4.068608 1.259903
-7.856383 3.993556 1.449756
-0.002039 -0.292539 -0.010079
-0.528093 -0.003742 -0.366780
-2.843279 1.267307 -1.835867
-2.983078 1.344622 -1.823186
-3.155082 1.440425 -1.821404
-3.340902 1.543965 -1.818887
-3.558921 1.664560 -1.822922
-3.754161 1.773566 -1.804722
-3.774518 1.786417 -1.697500
-3.917721 1.866098 -1.643040
-4.091759 1.963804 -1.594061
-4.388002 2.129091 -1.579461
-4.690876 2.297253 -1.552404
-5.058662 2.502554 -1.529391
-5.554484 2.777706 -1.520801
-5.736652 2.880936 -1.410747
-5.965359 3.010044 -1.302197
-5.974642 2.982430 -1.136908
-8.148344 4.175914 -1.326379
-9.096184 4.699714 -1.233076
-9.118725 4.715992 -0.992140
-9.593509 4.978801 -0.787573
-9.689027 5.035454 -0.537911
-9.723446 5.058589 -0.280008
-10.512103 5.494842 -0.023365
-13.321843 7.047702 0.326164
-6.216322 3.134864 0.312999
-6.121953 3.084053 0.470903
-6.144279 3.099030 0.636679
-7.637621 3.926833 1.000309
-7.834544 4.037252 1.237593
-7.529305 3.871780 1.393454
-12.489867 6.621347 2.662919
-0.529417 0.001263 -0.368810
-0.506055 -0.011513 -0.334969
-2.976685 1.363795 -1.825039
-3.140382 1.456249 -1.818677
-3.330290 1.563460 -1.818856
-3.550444 1.687716 -1.824520
-3.737356 1.792770 -1.802369
-3.767381 1.811127 -1.699655
-3.899926 1.886855 -1.640947
-4.073759 1.984838 -1.592099
-4.378984 2.157411 -1.581217
-4.668734 2.321570 -1.550151
-5.042483 2.531939 -1.529349
-5.553132 2.820430 -1.525388
-5.726258 2.919995 -1.412791
-6.149537 3.160180 -1.346473
-5.972940 3.026655 -1.140125
-8.121706 4.224463 -1.326318
-9.091605 4.765810 -1.236289
-9.103633 4.776476 -0.993577
-10.940493 5.804110 -0.899599
-9.668653 5.097291 -0.538413
-10.128974 5.358330 -0.292095
-10.388528 5.507665 -0.023177
-13.256657 7.111902 0.325681
-7.049280 3.647600 0.357529
-6.072212 3.104033 0.468618
-6.170958 3.161982 0.641685
-6.287165 3.228341 0.824331
-0.002035 -0.291948 -0.010058
-6.614431 3.417377 1.227003
-12.420704 6.677063 2.656747
-0.514191 -0.002918 -0.359598
-0.527146 0.004613 -0.349679
-2.965269 1.380858 -1.824069
-3.123742 1.471626 -1.815050
-3.317964 1.582026 -1.817967
-3.538990 1.708421 -1.824488
-3.724937 1.815189 -1.802336
-3.768165 1.840427 -1.705458
-3.902025 1.917906 -1.647087
-4.062222 2.009493 -1.592706
-4.363143 2.181943 -1.580582
-4.643563 2.343026 -1.546791
-5.039596 2.568860 -1.533377
-5.540195 2.855532 -1.526733
-5.721835 2.959944 -1.416090
-6.094306 3.174344 -1.338604
-6.150809 3.173752 -1.177614
-8.104180 4.276317 -1.327660
-9.092567 4.837528 -1.240436
-9.106357 4.849279 -0.997082
-9.824786 5.256996 -0.811382
-0.002043 -0.291666 -0.010048
-10.104965 5.421772 -0.292265
-10.398467 5.592301 -0.023157
-0.002043 -0.291666 -0.010048
-6.155597 3.194952 0.312004
-6.194863 3.219937 0.479927
-6.210479 3.230061 0.647974
-6.228791 3.243170 0.819317
-0.002043 -0.291666 -0.010048
-12.469548 6.794022 2.329849
-12.353016 6.733183 2.650944
-0.518544 0.003642 -0.363673
-0.536078 0.013883 -0.356537
-2.949772 1.394167 -1.820278
-3.118492 1.492002 -1.817718
-3.303987 1.599598 -1.816222
-3.521067 1.725438 -1.821194
-3.714700 1.837180 -1.803076
-3.752597 1.860528 -1.703965
-3.877846 1.934074 -1.642250
-4.062048 2.040682 -1.597809
-4.335598 2.199704 -1.575762
-4.621651 2.366182 -1.544539
-5.021381 2.597148 -1.532827
-5.523660 2.888650 -1.527152
-5.710916 2.999011 -1.418133
-6.061716 3.203863 -1.335948
-6.085106 3.181908 -1.168754
-8.093210 4.332046 -1.330124
-9.081019 4.898376 -1.242712
-9.115515 4.922100 -1.001151
-0.002028 -0.291361 -0.010038
-9.945721 5.403442 -0.556962
-10.477817 5.712797 -0.303566
-7.227774 3.853215 -0.019134
-6.805665 3.612515 0.163510
-7.029432 3.743996 0.359001
-0.002028 -0.291361 -0.010038
-6.299964 3.330666 0.659775
-6.196274 3.272318 0.817755
-7.889968 4.250227 1.259037
-12.423871 6.866163 2.329294
-12.281707 6.786781 2.644404
-0.509352 0.002681 -0.358549
-0.540291 0.020833 -0.360450
-2.939710 1.411942 -1.820249
-3.109403 1.511664 -1.818587
-3.298966 1.623086 -1.819621
-3.514130 1.748730 -1.823608
-3.695636 1.855764 -1.799950
-3.765517 1.898032 -1.715603
-3.856840 1.951944 -1.638785
-4.028503 2.053593 -1.590065
-4.324039 2.227598 -1.576920
-4.588026 2.382381 -1.538413
-5.009154 2.630116 -1.534310
-5.506952 2.921667 -1.527570
-5.707083 3.041002 -1.421848
-6.041501 3.238992 -1.335900
-6.049021 3.209344 -1.165768
-6.304827 3.358742 -1.041709
-9.075850 4.967387 -1.246155
-9.139546 5.008341 -1.007097
-0.002037 -0.291077 -0.010028
-9.961859 5.491727 -0.559653
-9.871522 5.443644 -0.287453
-10.501201 5.811724 -0.023223
-7.052005 3.809943 0.170466
-6.159292 3.293382 0.314468
-6.029860 3.219308 0.470136
-6.922514 3.742218 0.728500
-12.555642 7.030785 1.673485
-6.571952 3.542173 1.050568
-0.002037 -0.291077 -0.010028
-6.504339 3.508507 1.400440
-0.506154 0.005034 -0.357513
-0.535479 0.022458 -0.358473
-2.931381 1.430027 -1.821161
-3.097430 1.528931 -1.817658
-3.281660 1.638682 -1.816159
-3.502327 1.769227 -1.823576
-3.691163 1.881980 -1.803781
-3.752864 1.919961 -1.715569
-3.824438 1.962962 -1.630518
-4.044283 2.094384 -1.601590
-4.309472 2.252742 -1.576882
-4.592398 2.420792 -1.545013
-4.997245 2.662158 -1.535794
-5.479973 2.948678 -1.525209
-5.709678 3.087057 -1.427235
-6.054886 3.294043 -1.343300
-6.045794 3.254382 -1.168983
-8.042855 4.427523 -1.330563
-9.071125 5.034927 -1.249599
-9.076274 5.041992 -1.003458
-10.587361 5.932280 -0.882003
-9.974890 5.576626 -0.562154
-10.308685 5.777633 -0.300643
-7.031347 3.849458 -0.018837
-6.930078 3.792896 0.167998
-6.133396 3.326011 0.314244
-6.043921 3.274521 0.472931
-6.067473 3.291124 0.639492
-6.775033 3.711993 0.901401
-12.364282 7.017770 1.992487
-12.257369 6.960038 2.313687
-6.492502 3.552174 1.402700
-0.513313 0.013495 -0.363632
-0.544138 0.032065 -0.365330
-2.918397 1.445363 -1.819250
-3.086912 1.547020 -1.817628
-3.270500 1.657840 -1.816128
-3.483784 1.786512 -1.820281
-3.673845 1.900654 -1.801429
-3.746464 1.945650 -1.718452
-3.802953 1.981074 -1.627052
-4.040250 2.123746 -1.605408
-4.260350 2.257240 -1.564290
-4.591084 2.457157 -1.549953
-4.975188 2.688189 -1.534226
-5.472343 2.988425 -1.528405
-5.702964 3.129206 -1.430531
-6.052044 3.341316 -1.347346
-6.049018 3.303549 -1.173504
-7.984076 4.457236 -1.325452
-9.062497 5.100567 -1.252575
-9.091605 5.121964 -1.008464
-10.010429 5.673568 -0.837301
-9.971824 5.652665 -0.563796
-10.230659 5.811553 -0.299353
-6.750806 3.738611 -0.018460
-0.002030 -0.290491 -0.010007
-6.138183 3.376928 0.315659
-5.913077 3.245036 0.464189
-5.955555 3.273114 0.629809
-0.002030 -0.290491 -0.010007
-12.295197 7.075998 1.988436
-12.202267 7.025798 2.311523
-12.117529 6.977535 2.636201
-0.510025 0.015931 -0.362597
-0.546686 0.038275 -0.368261
-2.911066 1.464769 -1.821102
-3.072890 1.563761 -1.815799
-3.254582 1.674137 -1.813524
-3.471752 1.806846 -1.820248
-3.663929 1.924625 -1.802940
-3.759008 1.982916 -1.730089
-3.783364 1.999352 -1.624273
-4.016550 2.141387 -1.601518
-4.283147 2.304780 -1.578002
-4.580099 2.486846 -1.551573
-4.964572 2.721093 -1.536218
-5.460017 3.024220 -1.530212
-5.695490 3.168389 -1.433410
-6.157604 3.451900 -1.375228
-6.044497 3.349840 -1.176717
-7.953218 4.501375 -1.324829
-9.054151 5.168906 -1.255782
-9.098538 5.199764 -1.012716
-0.002038 -0.290207 -0.009997
-10.047511 5.779173 -0.569914
-6.713154 3.766014 -0.200455
-6.722351 3.774598 -0.018400
-0.002038 -0.290207 -0.009997
-5.935788 3.302811 0.306060
-5.942097 3.309299 0.468221
-6.311928 3.534755 0.670444
-6.548419 3.681080 0.877109
-12.269504 7.157220 1.991287
-12.203407 7.119689 2.319664
-0.002038 -0.290207 -0.009997
-0.506841 0.018162 -0.361561
-0.532956 0.034332 -0.360395
-2.899727 1.480362 -1.820133
-3.067055 1.583987 -1.818467
-3.250932 1.697849 -1.817780
-3.456526 1.825174 -1.818585
-3.651505 1.945344 -1.802907
-3.753801 2.009680 -1.733702
-3.778125 2.026304 -1.627668
-4.004101 2.165755 -1.602123
-4.268130 2.329697 -1.577964
-4.567314 2.515473 -1.552640
-4.953736 2.753979 -1.538209
-5.439200 3.054865 -1.529704
-5.689846 3.211651 -1.437123
-6.183803 3.518560 -1.385976
-6.061143 3.406426 -1.183849
-7.917053 4.542216 -1.323366
-9.040494 5.230005 -1.258055
-9.060943 5.246621 -1.011897
-10.245712 5.975363 -0.862504
-10.214554 5.958488 -0.581085
-6.670922 3.793407 -0.199867
-6.673250 3.797849 -0.018314
-6.669274 3.796845 0.163246
-5.986539 3.381073 0.309932
-6.028403 3.409487 0.476926
-6.373980 3.624525 0.679680
-6.613463 3.773080 0.889132
-12.322580 7.287167 2.007123
-12.312209 7.286361 2.349070
-6.431840 3.668678 1.404329
-0.507922 0.023261 -0.363591
-0.539902 0.043282 -0.366270
-2.887652 1.496919 -1.819162
-3.057403 1.603386 -1.819335
-3.236002 1.715500 -1.816033
-3.445841 1.846300 -1.819367
-3.641325 1.969202 -1.804417
-3.748005 2.037114 -1.737314
-3.758357 2.044337 -1.624890
-3.989460 2.189764 -1.602086
-4.252512 2.355269 -1.577925
-4.536414 2.532868 -1.547620
-4.892892 2.757030 -1.524943
-5.426446 3.090549 -1.531510
-5.686190 3.254994 -1.441254
-6.145113 3.543982 -1.382201
-0.002033 -0.289618 -0.009977
-7.889100 4.588013 -1.323304
-9.046417 5.307890 -1.263367
-9.024564 5.298461 -1.011451
-9.548074 5.624772 -0.807193
-10.403111 6.159279 -0.593679
-6.634686 3.825815 -0.199472
-6.561226 3.781651 -0.018150
-0.002033 -0.289618 -0.009977
-6.013855 3.447398 0.312623
-6.125605 3.518172 0.486594
-5.913374 3.388928 0.632159
-12.473204 7.476717 1.692356
-12.468736 7.476604 2.038431
-12.462660 7.478541 2.386531
-6.466602 3.743464 1.417271
-0.503207 0.024629 -0.361534
-0.543876 0.050376 -0.370182
-2.881825 1.516608 -1.821956
-3.043429 1.619356 -1.817506
-3.224405 1.734396 -1.816002
-3.431934 1.865435 -1.818519
-3.628251 1.990432 -1.804383
-3.751877 2.069868 -1.745303
-3.759148 2.075254 -1.631028
-3.973514 2.211980 -1.601407
-4.224293 2.371866 -1.573104
-4.513562 2.555156 -1.545366
-4.930908 2.820521 -1.542192
-5.410179 3.124114 -1.532390
-5.687183 3.301548 -1.446639
-6.126255 3.581697 -1.382895
-6.987483 4.085019 -1.373015
-7.859209 4.632596 -1.322961
-9.030872 5.370724 -1.265638
-9.046198 5.384495 -1.017393
-0.002017 -0.289315 -0.009966
-10.653415 6.399973 -0.609797
-6.651519 3.889754 -0.200583
-6.546154 3.824956 -0.018107
-6.815652 3.997555 0.168452
-6.002383 3.488627 0.313219
-5.943186 3.452638 0.473590
-6.058893 3.528321 0.650394
-12.634962 7.679039 1.720765
-12.654983 7.694413 2.076648
-12.626351 7.682163 2.426895
-6.763997 3.983578 1.488394
-0.502840 0.028727 -0.362542
-0.533095 0.048171 -0.364280
-2.868393 1.531580 -1.820045
-3.032393 1.637140 -1.817476
-3.206600 1.749344 -1.812540
-3.419092 1.886053 -1.818485
-3.610402 2.008605 -1.802030
-3.739799 2.092731 -1.745997
-3.749807 2.100840 -1.633050
-3.951060 2.230020 -1.598160
-4.210521 2.397455 -1.573664
-4.533863 2.605970 -1.558051
-4.904755 2.843962 -1.539605
-5.388203 3.155386 -1.531880
-5.682246 3.346068 -1.450768
-6.103189 3.618262 -1.382843
-6.940509 4.111742 -1.368716
-7.829858 4.679440 -1.322897
-9.021616 5.437817 -1.268845
-9.055402 5.463468 -1.022019
-9.417680 5.698025 -0.801947
-10.141061 6.160205 -0.582947
-6.490709 3.841315 -0.196598
-6.604268 3.916666 -0.018155
-6.821208 4.056349 0.169305
-5.876071 3.456814 0.307623
-6.299323 3.729614 0.504561
-6.329878 3.752050 0.682593
-12.798134 7.885634 1.749638
-12.800968 7.893394 2.108793
-6.002774 3.550055 1.152781
-6.762464 4.037555 1.493605
-0.498042 0.030139 -0.360485
-0.535486 0.054435 -0.367210
-2.860506 1.550776 -1.821896
-3.014905 1.651523 -1.813848
-3.194451 1.768631 -1.812507
-3.399974 1.902649 -1.815189
-3.596706 2.030282 -1.801995
-3.736563 2.122234 -1.751067
-3.738721 2.125376 -1.634386
-3.967862 2.274272 -1.610966
-4.208933 2.432011 -1.579004
-4.474673 2.605947 -1.543624
-4.869851 2.862783 -1.534476
-5.361135 3.183360 -1.529980
-5.672073 3.387452 -1.453644
-6.076595 3.652559 -1.382046
-6.889369 4.137138 -1.363763
-7.795239 4.722892 -1.321992
-8.972445 5.481863 -1.266666
-0.002011 -0.288727 -0.009945
-0.002011 -0.288727 -0.009945
-10.341060 6.374219 -0.596392
-6.529946 3.921205 -0.198386
-6.696832 4.031967 -0.018245
-6.781878 4.088336 0.169007
-6.253161 3.749914 0.329352
-6.312223 3.791031 0.507639
-6.370991 3.832006 0.689812
-12.946226 8.089048 1.776904
-12.969986 8.110524 2.145085
-0.002011 -0.288727 -0.009945
-5.892169 3.530296 1.305112
-0.497704 0.034132 -0.361493
-0.529172 0.054863 -0.364252
-2.850186 1.567026 -1.821866
-3.005515 1.669611 -1.814717
-3.184437 1.787716 -1.813333
-3.390761 1.923882 -1.816787
-3.585246 2.051639 -1.802734
-3.743318 2.156596 -1.760514
-3.736200 2.153703 -1.639153
-3.951904 2.295650 -1.610287
-4.219232 2.472489 -1.588529
-4.484149 2.648052 -1.552436
-4.866730 2.899774 -1.539009
-5.338413 3.211407 -1.529007
-5.654731 3.421509 -1.454431
-5.929656 3.604752 -1.353697
-6.937333 4.223175 -1.378064
-7.765474 4.765557 -1.321649
-8.936740 5.530016 -1.266128
-9.036918 5.599493 -1.027324
-9.473427 5.888406 -0.812417
-10.435871 6.518384 -0.603837
-6.593398 4.014725 -0.200854
-6.530282 3.976599 -0.018014
-6.936417 4.243470 0.173809
-6.605045 4.030016 0.349810
-6.751789 4.129166 0.545764
-6.492823 3.962729 0.705848
-13.130232 8.312819 1.809004
-13.139895 8.325355 2.181376
-0.002022 -0.288440 -0.009935
-5.895392 3.579601 1.310686
-0.488603 0.032632 -0.356369
-0.512580 0.048683 -0.354423
-2.837662 1.583219 -1.820896
-2.992367 1.686708 -1.813786
-3.169060 1.804866 -1.811586
-3.376448 1.942655 -1.815939
-3.568228 2.071125 -1.801153
-3.734939 2.183186 -1.763395
-3.726767 2.178590 -1.641175
-3.945991 2.325612 -1.614102
-4.201189 2.496710 -1.587892
-4.478374 2.681557 -1.556268
-4.833227 2.919257 -1.534389
-5.314941 3.240217 -1.528034
-5.649562 3.465127 -1.458560
-5.746790 3.532481 -1.317158
-5.801607 3.533809 -1.158421
-7.734609 4.809373 -1.321306
-8.887154 5.573370 -1.263949
-9.041710 5.679618 -1.031758
-9.324506 5.868376 -0.802716
-6.478645 3.992076 -0.379973
-6.576088 4.059562 -0.201040
-6.505622 4.014403 -0.017959
-6.896059 4.276000 0.173513
-7.320490 4.560432 0.390411
-6.307111 3.890486 0.511181
-6.438354 3.980511 0.702596
-14.535624 9.357620 2.011734
-5.871916 3.608944 0.972904
-5.815530 3.574262 1.129413
-5.880507 3.620234 1.312580
-0.491040 0.038584 -0.359422
-0.516433 0.055778 -0.358335
-2.828311 1.600802 -1.821807
-2.977978 1.702215 -1.811957
-3.152436 1.820374 -1.808981
-3.358977 1.959324 -1.813459
-3.551527 2.089867 -1.799573
-3.734570 2.214279 -1.769923
-3.729670 2.211808 -1.648685
-3.946609 2.359134 -1.620487
-4.186655 2.522225 -1.588450
-4.459624 2.706499 -1.555674
-4.830738 2.958111 -1.539430
-5.289688 3.267804 -1.526598
-5.650574 3.513177 -1.464360
-5.726334 3.566890 -1.317481
-5.754890 3.551009 -1.153477
-7.714994 4.860729 -1.322924
-8.854896 5.625849 -1.264112
-9.013816 5.736302 -1.032437
-9.423216 6.012090 -0.814107
-6.691329 4.188457 -0.393534
-6.590809 4.124343 -0.202148
-6.548857 4.097717 -0.017988
-7.263300 4.579765 0.184087
-0.002017 -0.287852 -0.009915
-6.224950 3.888101 0.506424
-0.002017 -0.287852 -0.009915
-14.448507 9.420369 2.007469
-0.002017 -0.287852 -0.009915
-5.811207 3.620073 1.133008
-5.838337 3.641124 1.308211
-0.486291 0.039775 -0.357364
-0.508653 0.055141 -0.354395
-2.820316 1.619328 -1.823658
-2.972377 1.723639 -1.815523
-3.146243 1.842826 -1.812379
-3.345993 1.978914 -1.813426
-3.540831 2.112644 -1.801083
-3.732439 2.244393 -1.775722
-3.729214 2.243025 -1.654822
-3.918752 2.373608 -1.615311
-4.171993 2.547645 -1.589008
-4.434351 2.727029 -1.552866
-4.816757 2.989438 -1.540911
-5.277161 3.303980 -1.528866
-5.644764 3.556951 -1.468489
-5.700794 3.597880 -1.316686
-5.724509 3.578855 -1.151795
-7.685221 4.905360 -1.322861
-8.804245 5.665903 -1.261700
-9.061440 5.844188 -1.041755
-0.002024 -0.287570 -0.009905
-6.678667 4.236166 -0.394239
-6.648044 4.218602 -0.204515
-6.566535 4.164819 -0.017985
-7.279805 4.652120 0.185346
-0.002024 -0.287570 -0.009905
-6.336139 4.016095 0.517751
-14.274210 9.416406 1.582535
-14.364433 9.484677 2.003665
-0.002024 -0.287570 -0.009905
-5.777192 3.645958 1.130803
-5.799365 3.663879 1.304579
-0.494326 0.049651 -0.364504
-0.505245 0.057352 -0.353400
-2.810735 1.636838 -1.824569
-2.956343 1.737973 -1.812794
-3.135409 1.862230 -1.813204
-3.334391 1.999473 -1.814207
-3.526950 2.133291 -1.801048
-3.713192 2.262976 -1.773498
-3.725411 2.272208 -1.659587
-3.903368 2.396420 -1.615274
-4.143018 2.563258 -1.584187
-4.405829 2.745184 -1.548952
-4.775515 3.002043 -1.533749
-5.266019 3.341212 -1.531598
-5.620928 3.588569 -1.468021
-5.676709 3.629817 -1.316263
-5.702149 3.612044 -1.151745
-7.651939 4.947567 -1.322236
-8.750148 5.703328 -1.258821
-9.014464 5.888693 -1.040367
-9.405988 6.159118 -0.818768
-10.222384 6.723703 -0.600461
-10.175912 6.696759 -0.308910
-6.512744 4.183604 -0.017894
-12.982733 8.632774 0.339820
-6.233050 3.997592 0.335087
-6.329336 4.065222 0.519318
-14.201669 9.487427 1.580808
-14.273559 9.543830 1.998941
-5.650397 3.604959 0.947081
-5.660186 3.614448 1.112164
-5.786228 3.704171 1.306840
-0.482490 0.045917 -0.357337
-0.503257 0.060532 -0.353387
-2.803967 1.656299 -1.827361
-2.944623 1.755268 -1.812763
-3.115567 1.875384 -1.808884
-3.316273 2.016380 -1.811727
-3.505377 2.148594 -1.797149
-0.002018 -0.286981 -0.009884
-3.716340 2.298843 -1.662294
-3.883193 2.415893 -1.613310
-4.128110 2.588447 -1.584745
-4.422463 2.795732 -1.561080
-4.786633 3.050810 -1.543365
-5.241213 3.370453 -1.530623
-5.588207 3.615428 -1.465463
-5.659808 3.668225 -1.317701
-5.674725 3.641745 -1.150715
-7.619120 4.992036 -1.321890
-8.730207 5.764081 -1.260854
-9.000036 5.955525 -1.042734
-9.446246 6.269698 -0.825483
-6.493202 4.221056 -0.386414
-10.119103 6.744115 -0.308343
-0.002018 -0.286981 -0.009884
-12.914732 8.696251 0.339478
-6.337821 4.123858 0.342343
-0.002018 -0.286981 -0.009884
-14.164660 9.586589 1.583310
-14.224848 9.631813 2.000204
-14.275335 9.673991 2.418445
-5.649866 3.657285 1.114794
-5.854995 3.801869 1.327886
-0.481908 0.050050 -0.358345
-0.502600 0.064809 -0.354354
-0.546503 0.095762 -0.364522
-2.932464 1.772988 -1.812731
-3.110073 1.899323 -1.813139
-3.305946 2.037832 -1.813323
-3.495393 2.172826 -1.799431
-3.702922 2.320742 -1.782905
-3.721340 2.334573 -1.671174
-3.859356 2.433715 -1.610060
-4.098488 2.604389 -1.579923
-4.409340 2.824773 -1.562698
-4.765180 3.078316 -1.542812
-5.216883 3.398626 -1.529649
-5.589594 3.664776 -1.471679
-5.659407 3.716924 -1.322861
-5.657788 3.680155 -1.151969
-7.585354 5.033839 -1.321265
-8.681149 5.806932 -1.258909
-9.050806 6.070928 -1.052798
-9.444236 6.349513 -0.828518
-9.915866 6.685846 -0.587256
-6.375458 4.198977 -0.198628
-0.002003 -0.286678 -0.009874
-0.002003 -0.286678 -0.009874
-14.196808 9.720947 0.782650
-6.322041 4.170517 0.523142
-14.267028 9.780793 1.601434
-0.002003 -0.286678 -0.009874
-14.301867 9.815721 2.432928
-5.893008 3.878027 1.168018
-5.562637 3.647195 1.266426
-0.495387 0.064044 -0.369572
-0.496311 0.064945 -0.351396
-0.541421 0.097134 -0.362627
-2.917648 1.788062 -1.810902
-3.097424 1.917502 -1.813106
-3.291000 2.056081 -1.812474
-3.482671 2.194283 -1.800169
-3.699983 2.350960 -1.788703
-3.715374 2.362788 -1.675253
-3.840539 2.453989 -1.608738
-4.087989 2.632671 -1.582274
-4.380396 2.842592 -1.558783
-4.764595 3.119505 -1.548868
-5.197146 3.430041 -1.530064
-5.574703 3.702881 -1.473718
-5.890248 3.931696 -1.381999
-5.660588 3.731242 -1.157137
-7.557815 5.080019 -1.321761
-8.649142 5.859422 -1.259304
-9.018928 6.126678 -1.053286
-9.272574 6.309233 -0.816837
-10.129416 6.923875 -0.602018
-0.002011 -0.286395 -0.009863
-10.679757 7.323473 -0.022912
-10.928574 7.506232 0.288367
-14.456064 10.029122 0.800543
-0.002011 -0.286395 -0.009863
-14.472963 10.051744 1.631507
-14.505488 10.082191 2.057091
-0.002011 -0.286395 -0.009863
-5.693971 3.786946 1.132943
-5.666141 3.769860 1.295577
-0.482175 0.059161 -0.361383
-0.498517 0.071139 -0.354326
-0.539210 0.100522 -0.362613
-2.904197 1.804088 -1.809971
-3.081743 1.933489 -1.811358
-3.273014 2.072084 -1.809994
-3.462350 2.210270 -1.797042
-3.686241 2.373610 -1.789395
-0.001997 -0.286090 -0.009853
-3.810869 2.466376 -1.602920
-4.066486 2.653089 -1.580441
-4.384114 2.883821 -1.566486
-4.749608 3.150577 -1.550348
-5.170929 3.456779 -1.528626
-5.534225 3.722577 -1.469072
-5.869035 3.968151 -1.382690
-6.741356 4.557509 -1.381835
-7.523574 5.121428 -1.321135
-8.605562 5.903606 -1.258061
-9.035181 6.217183 -1.059406
-0.001997 -0.286090 -0.009853
-10.364881 7.182088 -0.618204
-6.495275 4.396636 -0.203646
-10.371369 7.194403 -0.022502
-13.790349 9.667737 0.368144
-14.705742 10.335937 0.818076
-0.001997 -0.286090 -0.009853
-14.726251 10.361588 1.667283
-14.759388 10.392925 2.102123
-0.001997 -0.286090 -0.009853
-5.664005 3.815322 1.131706
-0.001997 -0.286090 -0.009853
-0.476020 0.059170 -0.358304
-0.495035 0.073267 -0.353331
-0.552665 0.115338 -0.372946
-2.892115 1.821070 -1.809939
-3.067463 1.950421 -1.810468
-3.258985 2.091741 -1.809959
-3.447907 2.230472 -1.797006
-3.664850 2.390694 -1.786440
-0.002005 -0.285806 -0.009843
-3.791918 2.486315 -1.601598
-4.047933 2.675640 -1.579803
-4.366785 2.911201 -1.566996
-4.737539 3.183883 -1.552845
-5.145504 3.485374 -1.527651
-5.537146 3.775307 -1.476121
-5.908642 4.050862 -1.397897
-6.711764 4.595376 -1.381449
-7.492944 5.167442 -1.321348
-8.564954 5.949843 -1.257286
-9.021721 6.286982 -1.062146
-9.086833 6.339005 -0.807201
-10.605752 7.449149 -0.634861
-9.945150 6.972271 -0.307768
-10.599743 7.455455 -0.022746
-13.900686 9.869961 0.372879
-0.002005 -0.285806 -0.009843
-14.907981 10.621011 1.263483
-14.969730 10.673758 1.702515
-15.003758 10.702229 2.146239
-0.002005 -0.285806 -0.009843
-5.521783 3.762740 1.107908
-5.547724 3.783055 1.279103
-0.478114 0.065333 -0.361355
-0.487286 0.072344 -0.349391
-0.544594 0.114700 -0.369169
-2.876683 1.836372 -1.808109
-3.055595 1.969949 -1.811292
-3.243765 2.109683 -1.809109
-3.432927 2.251171 -1.796970
-3.650404 2.413793 -1.787132
-3.697278 2.449332 -1.688171
-3.784534 2.515823 -1.605412
-4.053315 2.716925 -1.588727
-4.346757 2.935447 -1.566400
-4.710653 3.207616 -1.550765
-5.131525 3.521025 -1.529918
-5.537212 3.824919 -1.482335
-5.957695 4.140202 -1.415337
-6.689036 4.640085 -1.382693
-7.477374 5.222521 -1.324086
-8.519817 5.994942 -1.256042
-9.214882 6.512107 -1.089289
-0.001990 -0.285503 -0.009832
-10.191670 7.240437 -0.612988
-9.871352 7.008863 -0.306763
-0.001990 -0.285503 -0.009832
-13.798412 9.921597 0.371839
-27.495558 20.069269 1.551963
-28.121294 20.539249 2.402640
-28.245899 20.645899 3.235310
-0.001990 -0.285503 -0.009832
-0.001990 -0.285503 -0.009832
-5.484118 3.784147 1.105058
-5.573985 3.853673 1.290944
-0.477464 0.069391 -0.362363
-0.492195 0.080643 -0.354284
-0.549338 0.123405 -0.373857
-2.858697 1.848916 -1.804481
-3.042566 1.987795 -1.811259
-3.229913 2.128623 -1.809075
-3.413841 2.267870 -1.794617
-3.637780 2.437298 -1.788553
-3.688971 2.476517 -1.691562
-3.785020 2.550356 -1.612436
-4.042061 2.745096 -1.591077
-4.340453 2.969929 -1.570783
-4.699761 3.241927 -1.553770
-5.112618 3.553151 -1.530795
-5.521271 3.862903 -1.484372
-5.928980 4.172356 -1.414538
-6.654245 4.674087 -1.381329
-7.462996 5.278802 -1.327103
-8.477157 6.039427 -1.255033
-9.298440 6.657077 -1.103664
-9.729145 6.981078 -0.870699
-0.001998 -0.285219 -0.009822
-10.264670 7.391619 -0.319834
-10.761301 7.765688 -0.022873
-0.001998 -0.285219 -0.009822
-13.769889 10.031051 0.775739
-0.001998 -0.285219 -0.009822
-19.306610 14.194281 2.217911
-19.132574 14.073545 2.763890
-18.951748 13.942391 3.297057
-5.498471 3.844380 1.112845
-5.562622 3.895427 1.293943
-0.469922 0.068283 -0.358262
-0.490096 0.083744 -0.354270
-0.551203 0.130039 -0.376665
-2.850649 1.868865 -1.807146
-3.025098 2.002314 -1.808653
-3.215978 2.147469 -1.809040
-3.400542 2.288911 -1.795353
-3.627988 2.462993 -1.791432
-3.690977 2.511631 -1.699754
-3.765592 2.570130 -1.611113
-4.041276 2.781309 -1.597609
-4.310915 2.987039 -1.566867
-4.670135 3.262208 -1.550674
-5.079598 3.574576 -1.527505
-5.506633 3.902032 -1.486827
-5.914166 4.215046 -1.417088
-6.636608 4.720937 -1.383551
-7.460858 5.344652 -1.332361
-8.439012 6.087237 -1.254725
-9.310726 6.750425 -1.109778
-9.539143 6.925386 -0.857461
-0.001987 -0.284912 -0.009812
-10.213913 7.446066 -0.319552
-11.030452 8.066883 -0.023164
-13.174758 9.697573 0.357962
-19.519260 14.515607 1.108788
-19.349556 14.391615 1.664781
-19.176910 14.270559 2.212735
-19.021095 14.162110 2.759897
-18.850582 14.037158 3.293893
-5.535866 3.922852 1.125468
-5.491522 3.891950 1.282943
-0.470610 0.073355 -0.360292
-0.487959 0.086848 -0.354256
-0.550199 0.134569 -0.377591
-2.838206 1.885535 -1.807114
-3.011878 2.019991 -1.808620
-3.204804 2.168478 -1.810636
-3.388602 2.310984 -1.796862
-3.609151 2.481867 -1.789936
-3.682281 2.538838 -1.703146
-3.750598 2.593208 -1.611716
-4.023539 2.804833 -1.597568
-4.284379 3.006248 -1.564059
-4.641963 3.283439 -1.548086
-5.057284 3.604062 -1.527456
-5.497945 3.945884 -1.490951
-5.897492 4.256518 -1.419266
-6.628061 4.774928 -1.387731
-7.455074 5.408244 -1.337059
-8.403750 6.137228 -1.254884
-9.213112 6.760673 -1.102940
-9.518077 6.996228 -0.859218
-10.965869 8.109682 -0.667021
-10.646970 7.871037 -0.334015
-11.010749 8.152439 -0.023105
-12.883827 9.594673 0.351530
-19.402006 14.603707 1.107121
-19.242558 14.486055 1.663012
-19.064344 14.359171 2.209581
-18.913956 14.253497 2.756596
-0.001995 -0.284628 -0.009801
-5.815022 4.188455 1.188057
-5.492280 3.942979 1.288890
-0.469902 0.077393 -0.361300
-0.491314 0.094211 -0.358167
-0.550579 0.140163 -0.379458
-2.829896 1.905421 -1.809780
-3.002851 2.040905 -1.811159
-3.181968 2.180470 -1.805710
-3.372150 2.329609 -1.796053
-3.594623 2.504050 -1.790627
-3.677830 2.569510 -1.708594
-3.727986 2.610401 -1.609109
-4.004175 2.827073 -1.596929
-4.262319 3.028805 -1.562909
-4.621332 3.310411 -1.548040
-5.034808 3.633412 -1.527407
-5.473482 3.977774 -1.490899
-5.880537 4.297950 -1.421443
-6.612870 4.824162 -1.390605
-7.445681 5.469528 -1.341196
-8.361903 6.182171 -1.254108
-9.364502 6.962578 -1.125757
-9.591144 7.140363 -0.869458
-11.337414 8.498444 -0.692216
-0.002004 -0.284344 -0.009791
-12.850538 9.680716 -0.025288
-13.213717 9.969336 0.362546
-19.290707 14.695845 1.105820
-19.125675 14.572393 1.660417
-18.949827 14.445745 2.206244
-18.804815 14.342926 2.753065
-18.632792 14.213673 3.285078
-5.547771 4.034168 1.138146
-5.585702 4.066620 1.316943
-0.462393 0.076139 -0.357199
-0.479520 0.089798 -0.351284
-0.545334 0.141444 -0.377562
-2.815821 1.920886 -1.808848
-2.983718 2.054000 -1.807696
-3.168737 2.200717 -1.806490
-3.357034 2.349287 -1.796017
-3.574117 2.521544 -1.788401
-3.678547 2.605517 -1.716784
-3.712739 2.633288 -1.609712
-3.986195 2.850371 -1.596888
-4.248642 3.059070 -1.565078
-4.582329 3.322886 -1.541894
-5.014549 3.665902 -1.528283
-5.451182 4.012878 -1.491681
-5.870222 4.346435 -1.425480
-6.583329 4.862461 -1.390543
-7.445711 5.540750 -1.347291
-8.326092 6.231730 -1.254267
-9.158014 6.887758 -1.105969
-9.496688 7.158037 -0.864847
-11.266226 8.547836 -0.690883
-11.084018 8.410841 -0.350162
-11.959038 9.103703 -0.024174
-12.997203 9.922029 0.358205
-19.178988 14.787195 1.104519
-19.010517 14.664909 1.658240
-18.848000 14.547105 2.204749
-18.695293 14.431563 2.749534
-18.515327 14.299698 3.279706
-5.534458 4.077047 1.140779
-5.626909 4.151339 1.332840
-0.462947 0.081290 -0.359228
-0.477305 0.092907 -0.351270
-0.542813 0.144943 -0.377548
-2.801303 1.936727 -1.807917
-2.971205 2.073083 -1.808519
-3.151514 2.216949 -1.804824
-3.341363 2.369444 -1.795980
-3.557400 2.543004 -1.788362
-3.670686 2.633948 -1.720860
-3.695382 2.655543 -1.609672
-3.979482 2.883763 -1.601626
-4.224809 3.080181 -1.563375
-4.594120 3.376834 -1.553030
-4.993227 3.696231 -1.528696
-5.433981 4.050599 -1.493716
-5.869574 4.401292 -1.431751
-6.554224 4.902947 -1.390807
-7.433785 5.601028 -1.351146
-8.287299 6.281293 -1.254191
-9.469487 7.223069 -1.148484
-9.572451 7.307118 -0.875509
-11.991321 9.232057 -0.738021
-11.578660 8.910714 -0.366921
-0.001997 -0.283758 -0.009771
-13.629774 10.550475 0.378051
-19.057962 14.876114 1.102857
-18.897585 14.753272 1.656058
-18.734234 14.633322 2.201596
-18.581253 14.521424 2.745776
-18.406237 14.386590 3.275437
-5.584856 4.169433 1.156629
-5.592817 4.178776 1.331053
-0.462180 0.085309 -0.360236
-0.477837 0.098123 -0.353219
-0.536197 0.145037 -0.374711
-2.785673 1.950892 -1.806086
-2.956178 2.089316 -1.807628
-3.137059 2.235353 -1.804789
-3.324581 2.387791 -1.795171
-3.542528 2.564893 -1.789053
-3.668446 2.667123 -1.727679
-3.679863 2.678264 -1.610274
-3.968602 2.912913 -1.604573
-4.209858 3.108367 -1.564991
-4.565437 3.397448 -1.550443
-4.992939 3.743538 -1.535591
-5.422636 4.093163 -1.497422
-5.882246 4.467408 -1.441370
-6.533512 4.948276 -1.392702
-7.350331 5.604395 -1.342112
-8.246250 6.326720 -1.253648
-9.384167 7.244123 -1.143333
-9.894221 7.655838 -0.908648
-10.528262 8.170383 -0.652005
-13.782227 10.791132 -0.436744
-0.001982 -0.283453 -0.009760
-19.118189 15.094566 0.536913
-18.946983 14.967099 1.101647
-18.793579 14.848349 1.654703
-18.618568 14.717466 2.198259
-18.467838 14.605995 2.741785
-18.295237 14.471446 3.270892
-5.557571 4.200556 1.156361
-17.987797 14.242901 4.323834
-0.461378 0.089333 -0.361244
-0.474290 0.100042 -0.352224
-0.525492 0.141732 -0.369053
-2.776927 1.970564 -1.808751
-2.942472 2.106589 -1.807595
-3.115414 2.247915 -1.800678
-3.306291 2.404849 -1.793589
-3.526067 2.585541 -1.789015
-3.665969 2.700352 -1.734497
-3.668621 2.704483 -1.612803
-3.956054 2.940826 -1.606921
-4.197701 3.138923 -1.567712
-4.544162 3.423974 -1.550396
-4.980223 3.781126 -1.538782
-5.406445 4.132022 -1.499874
-5.868474 4.512698 -1.444662
-6.495612 4.979893 -1.391010
-7.362451 5.684331 -1.350449
-8.203432 6.370622 -1.252871
-9.383957 7.333460 -1.148503
-9.800317 7.673995 -0.904177
-11.687129 9.212620 -0.725934
-0.001991 -0.283169 -0.009750
-19.197353 15.331025 -0.032721
-19.001398 15.181971 0.536272
-18.843365 15.063601 1.100894
-18.684484 14.938933 1.652935
-18.508726 14.805817 2.195658
-18.361784 14.696021 2.738945
-0.001991 -0.283169 -0.009750
-0.001991 -0.283169 -0.009750
-17.914503 14.355191 4.326566
-0.460544 0.093368 -0.362252
-0.478802 0.108584 -0.357116
-0.521683 0.143906 -0.368098
-2.759765 1.983408 -1.806022
-2.924482 2.120341 -1.804989
-3.100802 2.266096 -1.800644
-3.293598 2.426492 -1.795097
-3.509484 2.606097 -1.788977
-3.655983 2.727675 -1.737887
-3.660133 2.733077 -1.616615
-3.934484 2.961412 -1.605684
-4.182370 3.167005 -1.569327
-4.513800 3.442974 -1.547300
-4.937241 3.793916 -1.532714
-5.376393 4.159649 -1.498568
-5.855916 4.559217 -1.448326
-6.468252 5.020003 -1.391600
-7.323367 5.723157 -1.349539
