# This PCD file was generated using the MATLAB® pcwrite function
# from Computer Vision Toolbox®.
# .PCD v.7 - Point Cloud Data file format
VERSION .7
FIELDS x y z
SIZE 4 4 4
TYPE F F F
COUNT 1 1 1
WIDTH 1581
HEIGHT 1
VIEWPOINT 0 0 0 1 0 0 0
POINTS 1581
DATA ascii
-3.651602 -4.145873 -2.001576
-3.960589 -4.491571 -2.015078
-4.327617 -4.900497 -2.032564
0.000023 -0.042087 -0.001454
-4.726858 -5.343139 -1.861694
-5.173582 -5.840061 -1.843650
-5.740992 -6.473702 -1.835041
-6.432535 -7.243389 -1.821938
-7.323938 -8.307891 -1.817258
-8.410192 -9.530516 -1.784978
-9.969243 -11.281566 -1.757565
-11.295647 -12.768043 -1.591058
-12.416119 -14.025507 -1.311395
-12.700589 -14.335863 -0.895492
-18.345613 -20.681793 -0.645958
-18.335213 -20.655636 -0.004826
-18.314886 -20.618362 0.634730
-18.217199 -20.501469 1.272702
-18.186466 -20.452646 1.906812
-6.463505 -7.293524 0.903613
-6.140764 -6.926614 1.076226
-6.093178 -6.868486 1.283388
-14.322525 -16.082466 3.528850
-5.843326 -6.581702 1.649772
-0.397106 -0.485122 -0.354501
-0.409641 -0.498797 -0.346366
-0.440877 -0.533473 -0.352689
-0.489403 -0.587202 -0.369464
-2.756032 -3.110941 -1.954566
-2.963148 -3.340437 -1.976281
-3.166858 -3.564744 -1.980780
-3.411231 -3.833936 -1.993898
-3.675725 -4.126538 -2.002244
-3.989949 -4.472627 -2.016983
-4.350404 -4.869532 -2.030163
-4.461414 -4.990993 -1.912970
-4.750835 -5.308372 -1.859143
-5.196748 -5.800683 -1.840402
-5.783167 -6.446051 -1.836686
-6.452818 -7.182618 -1.815989
-7.359443 -8.254825 -1.814640
-8.429978 -9.446240 -1.777989
-10.022562 -11.215089 -1.755913
-11.309323 -12.640760 -1.583031
-12.516670 -13.980920 -1.313741
-12.975148 -14.481389 -0.909099
-18.327803 -20.423887 -0.641158
-18.310898 -20.397993 -0.004761
-18.282339 -20.352022 0.629690
-18.176908 -20.220774 1.261777
-18.155905 -20.190420 1.891810
-6.426480 -7.168651 0.892686
-6.226874 -6.942463 1.084369
-6.095387 -6.794392 1.275898
-14.480786 -16.072664 3.545084
-5.813676 -6.473306 1.630918
-0.400799 -0.483808 -0.355511
-0.418110 -0.502589 -0.351254
-0.449632 -0.537175 -0.357374
-0.488913 -0.580101 -0.366760
-2.776091 -3.097409 -1.956263
-2.980210 -3.319808 -1.974639
-3.184602 -3.543427 -1.979222
-3.421716 -3.801535 -1.987332
-3.697354 -4.101583 -2.000859
-4.012852 -4.446496 -2.015686
-4.378135 -4.844118 -2.030145
-4.458305 -4.928643 -1.899165
-4.752392 -5.249202 -1.847977
-5.219011 -5.756529 -1.836231
-5.803903 -6.392567 -1.831258
-6.465874 -7.112000 -1.807816
-7.389380 -8.193012 -1.810400
-8.435062 -9.340037 -1.767379
-10.081391 -11.151018 -1.754958
-11.337516 -12.526505 -1.576864
-12.467654 -13.761431 -1.300014
-12.810811 -14.134144 -0.891880
-18.272629 -20.128399 -0.635145
-18.265753 -20.106810 -0.004691
-18.244171 -20.076120 0.624419
-18.128630 -19.935333 1.250480
-18.117823 -19.909578 1.875555
-6.453876 -7.113927 0.890666
0.000012 -0.041520 -0.001435
-6.306318 -6.944993 1.311516
0.000012 -0.041520 -0.001435
0.000012 -0.041520 -0.001435
-0.399930 -0.477333 -0.352439
-0.417320 -0.495975 -0.348304
-0.454974 -0.536831 -0.359242
-0.499369 -0.584811 -0.372135
-2.791210 -3.078438 -1.954537
-2.994110 -3.296943 -1.971370
-3.202828 -3.521471 -1.977665
-3.444573 -3.782853 -1.988045
-3.719392 -4.078550 -2.000159
-4.043299 -4.428613 -2.018231
-4.400546 -4.812932 -2.027745
-4.438124 -4.850322 -1.878742
-4.773111 -5.211508 -1.844412
-5.247876 -5.721812 -1.834829
-5.816701 -6.335349 -1.824165
-6.490590 -7.059641 -1.803720
-7.426956 -8.137126 -1.807782
-8.504545 -9.308546 -1.770698
-10.139081 -11.081964 -1.753538
-11.418111 -12.466055 -1.577764
-12.126517 -13.232328 -1.256521
-12.557412 -13.691513 -0.868592
-18.259363 -19.882793 -0.630673
-18.218405 -19.824467 -0.004622
-18.201452 -19.792261 0.618964
-18.089861 -19.664339 1.240019
-18.074987 -19.634520 1.859440
-6.448710 -7.029208 0.884563
0.000008 -0.041238 -0.001425
0.000008 -0.041238 -0.001425
-15.119931 -16.396990 3.655313
-15.166190 -16.435585 4.203690
-0.409385 -0.482379 -0.358551
-0.419840 -0.493338 -0.348294
-0.457820 -0.533915 -0.359232
-2.638517 -2.881007 -1.948312
-2.807421 -3.060701 -1.953667
-3.014051 -3.280699 -1.972169
-3.227847 -3.508088 -1.980734
-3.472411 -3.769486 -1.991668
-3.742580 -4.056781 -2.000143
-4.067959 -4.402871 -2.017574
-4.419650 -4.776675 -2.023556
-4.442132 -4.799109 -1.868797
-4.787845 -5.165843 -1.838314
-5.281496 -5.690297 -1.834810
-5.837671 -6.280859 -1.818737
-6.506594 -6.993455 -1.796659
-7.345858 -7.959228 -1.777259
-8.552384 -9.253335 -1.769560
-10.193812 -11.017615 -1.752351
-11.702842 -12.633747 -1.607313
0.000003 -0.040955 -0.001415
-12.432994 -13.400765 -0.854644
-18.188028 -19.578009 -0.624287
-18.186144 -19.562365 -0.004557
-18.177176 -19.539131 0.614338
-18.058777 -19.398619 1.230022
-18.044573 -19.376669 1.844855
-6.805377 -7.328192 0.927631
0.000003 -0.040955 -0.001415
-6.984529 -7.509604 1.434483
0.000003 -0.040955 -0.001415
-17.984577 -19.252014 4.953491
-0.410894 -0.478327 -0.357520
-0.423781 -0.491742 -0.349263
-0.465652 -0.535962 -0.362977
-2.658276 -2.867167 -1.950093
-2.830765 -3.048476 -1.957076
-3.036286 -3.264602 -1.973781
-3.242638 -3.481311 -1.976864
-3.486182 -3.738441 -1.986558
-3.764468 -4.030837 -1.998759
-4.091914 -4.374896 -2.016276
-4.431462 -4.731278 -2.015791
-4.439432 -4.738084 -1.855544
-4.804447 -5.120768 -1.832722
-5.302511 -5.643505 -1.830178
-5.866247 -6.234853 -1.815805
-6.496206 -6.897648 -1.782188
-7.381930 -7.900991 -1.774317
-8.616628 -9.209306 -1.771208
-10.255199 -10.949061 -1.751395
-11.737247 -12.516805 -1.601517
-12.245264 -13.047731 -1.252689
-12.707536 -13.529351 -0.867783
-18.168505 -19.319323 -0.619536
-18.165066 -19.302238 -0.004494
-18.138100 -19.260241 0.609067
-6.581497 -7.009727 0.444492
0.000020 -0.040651 -0.001405
0.000020 -0.040651 -0.001405
-6.947407 -7.384384 1.179598
-6.730457 -7.150102 1.373319
0.000020 -0.040651 -0.001405
0.000020 -0.040651 -0.001405
-0.413335 -0.475734 -0.357509
-0.425098 -0.487816 -0.348272
-0.465879 -0.530570 -0.361088
-2.670327 -2.848105 -1.947386
-2.845017 -3.029705 -1.955349
-3.051149 -3.245180 -1.972139
-3.263760 -3.466111 -1.978391
-3.514479 -3.726707 -1.990908
-3.788583 -4.012836 -2.000111
-4.110077 -4.346932 -2.013698
-4.426431 -4.675183 -2.002066
-4.444852 -4.692853 -1.847255
-4.814466 -5.076227 -1.826116
-5.314281 -5.597096 -1.824162
-5.894541 -6.199534 -1.814537
-6.541375 -6.870646 -1.784391
-7.493670 -7.930920 -1.790519
-8.608801 -9.101963 -1.759483
-10.311860 -10.887035 -1.750672
0.000011 -0.040364 -0.001395
-12.502497 -13.177566 -1.271664
-12.966299 -13.655423 -0.880361
-18.129658 -19.063864 -0.614551
-18.124077 -19.051409 -0.004430
-6.595860 -6.954206 0.219350
0.000011 -0.040364 -0.001395
0.000011 -0.040364 -0.001395
-6.913589 -7.274652 0.931014
-6.940335 -7.297583 1.171729
-7.194741 -7.560988 1.460113
-6.712029 -7.051528 1.592102
0.000011 -0.040364 -0.001395
-0.411070 -0.468098 -0.353417
-0.430089 -0.487591 -0.350221
-0.471161 -0.530155 -0.362956
-2.685204 -2.831101 -1.946473
-2.859675 -3.010381 -1.953623
-3.071380 -3.228053 -1.972937
-3.283424 -3.446966 -1.978375
-3.538251 -3.708817 -1.992348
-3.806868 -3.984598 -1.997358
-4.133492 -4.321545 -2.013041
-4.413264 -4.608149 -1.984170
-4.460358 -4.653682 -1.842274
-4.839351 -5.043963 -1.824579
-5.316031 -5.533023 -1.813533
-5.910574 -6.143100 -1.808278
-6.568087 -6.817302 -1.780664
-7.507525 -7.854613 -1.783034
-8.673393 -9.061869 -1.761688
-10.364504 -10.817166 -1.749020
-12.350240 -12.873009 -1.665075
-11.928362 -12.426015 -1.205815
-13.043107 -13.578822 -0.880237
-18.102901 -18.817802 -0.609940
-18.086580 -18.787819 -0.004366
0.000007 -0.040081 -0.001385
0.000007 -0.040081 -0.001385
-6.510897 -6.777262 0.652696
-6.935633 -7.211761 0.928251
-6.939203 -7.212963 1.164556
-6.776354 -7.039757 1.366686
-6.783711 -7.042479 1.599251
-6.792573 -7.049195 1.836430
-0.417191 -0.469058 -0.356467
-0.429085 -0.480990 -0.347271
-0.482665 -0.535909 -0.369519
-2.706702 -2.819956 -1.950050
-2.875991 -2.991784 -1.952752
-3.088418 -3.208726 -1.972109
-3.301003 -3.424498 -1.976818
-3.548232 -3.675464 -1.985783
-3.829523 -3.962326 -1.997342
-4.156177 -4.293952 -2.011744
-4.404261 -4.544748 -1.968062
-4.489538 -4.630384 -1.843360
-4.866254 -5.012117 -1.823548
-5.331251 -5.485359 -1.807979
-5.930543 -6.093289 -1.803681
-6.598748 -6.770664 -1.778421
-7.508363 -7.762956 -1.772305
-8.788714 -9.076798 -1.774479
-10.426867 -10.753772 -1.748762
-11.700919 -12.054538 -1.567948
-11.920134 -12.275386 -1.197821
-12.036792 -12.386536 -0.807453
-18.060400 -18.552355 -0.604770
-18.047550 -18.532774 -0.004303
0.000001 -0.039797 -0.001375
-17.931992 -18.388800 1.192167
-6.534250 -6.723685 0.651184
0.000001 -0.039797 -0.001375
-7.056668 -7.248027 1.177109
-6.826253 -7.010245 1.368653
0.000001 -0.039797 -0.001375
-6.689549 -6.861151 1.797592
-0.419649 -0.466353 -0.356456
-0.438968 -0.485692 -0.353140
-0.481796 -0.529058 -0.366691
-2.720160 -2.801490 -1.948240
-2.899300 -2.981336 -1.957017
-3.106616 -3.190602 -1.972094
-3.319138 -3.403828 -1.976032
-3.569119 -3.654695 -1.985768
-3.850723 -3.938583 -1.996641
-4.183257 -4.272346 -2.013007
-4.399247 -4.487802 -1.954338
-4.506432 -4.594600 -1.839483
-4.890715 -4.979595 -1.822010
-5.373465 -5.465337 -1.811651
-5.888191 -5.980945 -1.780364
-6.612505 -6.707165 -1.771732
-7.533328 -7.699598 -1.767740
-8.853101 -9.038458 -1.776962
-10.495356 -10.700344 -1.749896
0.000019 -0.039495 -0.001365
-11.944188 -12.159376 -1.193182
-12.061406 -12.269807 -0.804342
-18.024834 -18.304022 -0.600020
-18.006216 -18.278824 -0.004242
-17.996506 -18.256313 0.590283
-17.882858 -18.128681 1.181981
0.000019 -0.039495 -0.001365
-17.870794 -18.097639 2.366016
0.000019 -0.039495 -0.001365
-6.867671 -6.971942 1.368952
0.000019 -0.039495 -0.001365
-6.737004 -6.830590 1.799833
-0.425739 -0.467302 -0.359507
-0.434151 -0.475455 -0.347250
-0.480890 -0.522250 -0.363863
-2.733504 -2.782969 -1.946431
-2.911079 -2.959179 -1.953579
-3.119559 -3.167208 -1.968825
-3.343677 -3.389604 -1.979101
-3.585925 -3.629839 -1.983569
-3.871779 -3.914725 -1.995941
-4.202214 -4.242553 -2.010430
-4.389682 -4.427014 -1.938826
-4.532591 -4.568294 -1.839466
-4.913601 -4.945594 -1.819965
-5.396348 -5.425763 -1.808864
-5.950010 -5.974288 -1.788665
-6.641044 -6.658976 -1.769117
-7.514679 -7.592851 -1.753118
-8.869850 -8.951953 -1.769974
-10.545370 -10.628201 -1.748012
0.000013 -0.039211 -0.001355
-11.964463 -12.040647 -1.188262
0.000013 -0.039211 -0.001355
-17.999746 -18.069464 -0.595691
-17.975254 -18.038687 -0.004182
-17.956930 -18.007832 0.585609
-17.855322 -17.893732 1.173376
-17.849857 -17.882076 1.760680
-17.826532 -17.846369 2.346570
-6.924102 -6.950984 1.141643
-6.941107 -6.965558 1.375648
-12.856996 -12.859934 2.979647
-6.892952 -6.907941 1.830941
-0.424543 -0.460921 -0.356435
-0.436651 -0.472655 -0.347239
-0.492420 -0.527882 -0.370426
-2.750526 -2.768152 -1.947314
-2.927847 -2.942082 -1.953565
-3.142709 -3.154052 -1.972065
-3.356360 -3.363514 -1.975230
-3.610505 -3.612768 -1.985737
-3.896712 -3.894730 -1.997294
-4.226347 -4.217997 -2.010413
-4.380928 -4.367833 -1.923910
-4.553121 -4.536424 -1.837243
-4.923883 -4.899274 -1.813361
-5.412053 -5.379292 -1.803771
-5.968781 -5.924547 -1.784070
-6.667848 -6.609300 -1.766133
-7.535662 -7.526918 -1.747905
-8.947720 -8.926963 -1.775243
-10.614608 -10.575395 -1.749378
-12.182412 -12.123244 -1.604134
-11.962543 -11.901033 -1.181247
-12.205697 -12.133727 -0.804564
-12.352040 -12.270226 -0.406847
-17.953527 -17.810791 -0.004125
-17.939291 -17.784346 0.581719
-17.835648 -17.669550 1.165420
-17.827414 -17.655302 1.748460
-17.792753 -17.608824 2.328793
-6.938344 -6.885608 1.137486
-7.241726 -7.182502 1.427123
-12.828010 -12.684264 2.956023
0.000008 -0.038928 -0.001345
-0.424517 -0.455775 -0.354384
-0.439129 -0.469836 -0.347228
-0.485161 -0.514868 -0.362903
-2.763641 -2.749475 -1.945505
-2.945806 -2.926152 -1.954406
-3.158513 -3.132496 -1.970422
-3.372813 -3.341264 -1.973673
-3.631026 -3.591631 -1.985721
-3.918177 -3.869944 -1.996593
-4.243567 -4.186683 -2.007195
-4.371636 -4.308895 -1.908995
-4.556324 -4.486206 -1.827850
-4.932406 -4.851640 -1.806249
-5.447805 -5.350865 -1.805137
-5.976965 -5.862798 -1.776146
-6.740495 -6.602237 -1.775005
-7.553315 -7.458226 -1.742043
-8.973446 -8.847079 -1.769926
-10.685048 -10.523573 -1.750978
-11.819550 -11.628757 -1.547561
-12.200854 -11.994337 -1.197706
-12.265149 -12.053171 -0.803882
-12.396546 -12.173438 -0.405979
-17.915682 -17.563831 -0.004065
-17.901056 -17.543451 0.577229
-17.799704 -17.432234 1.156534
-17.788864 -17.409548 1.734568
-17.802601 -17.410868 2.316584
-6.603661 -6.480430 1.076469
0.000002 -0.038644 -0.001335
-12.815155 -12.522272 2.935963
-12.815279 -12.518064 3.366858
-0.428202 -0.454146 -0.355394
-0.445440 -0.470582 -0.350157
-0.484156 -0.507988 -0.360074
-2.782247 -2.735237 -1.947286
-2.961598 -2.907088 -1.953536
-3.180208 -3.117779 -1.972848
-3.394995 -3.323470 -1.975200
-3.653398 -3.571051 -1.986433
-3.938821 -3.845723 -1.995893
-4.266733 -4.159822 -2.006537
-4.369418 -4.256075 -1.897059
-4.573579 -4.451617 -1.824525
-4.959476 -4.820656 -1.805724
-5.461514 -5.302932 -1.799583
-5.969535 -5.788631 -1.764061
-6.766861 -6.552135 -1.772021
-7.590111 -7.406116 -1.740399
-8.994169 -8.766012 -1.764053
-10.744208 -10.456940 -1.750487
-11.214551 -10.905461 -1.459927
0.000020 -0.038341 -0.001325
-12.198416 -11.846520 -0.794888
-17.914965 -17.368116 -0.582704
-17.891193 -17.339123 -0.004008
-17.865120 -17.301886 0.572785
-17.764601 -17.192804 1.147649
-17.768003 -17.190140 1.722905
0.000020 -0.038341 -0.001325
-7.145187 -6.926143 1.158184
-7.269117 -7.043179 1.416318
-12.791575 -12.356262 2.914283
0.000020 -0.038341 -0.001325
-0.428121 -0.449016 -0.353343
-0.449184 -0.468933 -0.351127
-0.494513 -0.512249 -0.365698
-2.795137 -2.716401 -1.945476
-2.975454 -2.887196 -1.951810
-3.192610 -3.094076 -1.969579
-3.408524 -3.298481 -1.972101
-3.672324 -3.548371 -1.985690
-3.962041 -3.823995 -1.996561
-4.283551 -4.128363 -2.003319
-4.357739 -4.196307 -1.881548
-4.603089 -4.428901 -1.826162
-4.974329 -4.779720 -1.801147
-5.470592 -5.250962 -1.792644
-5.960065 -5.713420 -1.751562
-6.009795 -5.756790 -1.565254
-7.605364 -7.336047 -1.734213
-9.007098 -8.678130 -1.756786
-10.801150 -10.391861 -1.749996
0.000016 -0.038059 -0.001315
-12.059627 -11.586157 -1.170682
-12.427866 -11.930494 -0.805318
-12.686414 -12.169450 -0.410724
-17.867641 -17.118069 -0.003953
-17.850021 -17.089340 0.569172
-17.753258 -16.985102 1.140621
-12.808774 -12.260921 1.234834
-12.794580 -12.238875 1.646188
-7.167473 -6.868155 1.155419
-6.847577 -6.561052 1.326779
-7.180171 -6.873118 1.626291
0.000016 -0.038059 -0.001315
-0.435477 -0.450996 -0.357413
-0.452918 -0.467249 -0.352096
-0.484420 -0.496957 -0.356296
-2.810531 -2.699989 -1.945462
-2.990492 -2.868482 -1.950939
-3.212821 -3.077876 -1.971192
-3.428590 -3.279785 -1.972857
-3.681659 -3.516659 -1.979853
-3.981061 -3.798263 -1.995177
-4.301534 -4.098152 -2.000741
-4.352447 -4.143348 -1.869016
-4.624082 -4.398064 -1.824490
-5.002951 -4.752032 -1.801636
-5.503347 -5.221750 -1.793548
-6.009743 -5.694815 -1.756535
-6.045475 -5.724484 -1.565975
-7.642964 -7.287770 -1.733218
-9.076823 -8.644917 -1.760662
-10.864924 -10.333313 -1.750666
-12.031540 -11.430852 -1.548964
0.000010 -0.037775 -0.001305
-11.818349 -11.217296 -0.761681
-17.845989 -16.907356 -0.574049
-17.840689 -16.896488 -0.003898
-17.854868 -16.898132 0.566251
-12.798335 -12.114832 0.817450
0.000010 -0.037775 -0.001305
-12.763175 -12.069082 1.633228
-12.767865 -12.065119 2.048065
-7.476184 -7.077909 1.440836
-12.762974 -12.047964 2.876106
-6.693782 -6.332362 1.728898
-0.442863 -0.452896 -0.361484
-0.456668 -0.465547 -0.353065
-0.484466 -0.491448 -0.354407
-2.816680 -2.674922 -1.939165
-3.008063 -2.852162 -1.951780
-3.227612 -3.056548 -1.969550
-3.448558 -3.260969 -1.973613
-3.709800 -3.502744 -1.984204
-4.004023 -3.776273 -1.995846
-4.320681 -4.069145 -1.998803
-4.348072 -4.091874 -1.857080
-4.630848 -4.354050 -1.817304
-5.015857 -4.709672 -1.796551
-5.520302 -5.177765 -1.789379
-6.032175 -5.650485 -1.753604
0.000005 -0.037492 -0.001295
-6.111088 -5.767882 -1.378575
-6.151115 -5.803412 -1.187097
0.000005 -0.037492 -0.001295
-6.278894 -5.914989 -0.804595
-11.824714 -11.102425 -1.135415
-11.853356 -11.121492 -0.759786
-17.821568 -16.690714 -0.570142
-17.832224 -16.694885 -0.003846
-12.792109 -11.978496 0.403158
0.000005 -0.037492 -0.001295
-12.764822 -11.940580 1.217341
0.000005 -0.037492 -0.001295
0.000005 -0.037492 -0.001295
-6.522125 -6.108733 1.250054
0.000005 -0.037492 -0.001295
-6.535591 -6.112785 1.678954
-0.440209 -0.445379 -0.357392
-0.457832 -0.461425 -0.352075
-0.494860 -0.495574 -0.360032
-2.837073 -2.663231 -1.942741
-3.024222 -2.834509 -1.951766
-3.243600 -3.036382 -1.968721
-3.460275 -3.234500 -1.969742
-3.720101 -3.472182 -1.979094
-4.021333 -3.749036 -1.993777
-4.331280 -4.032341 -1.993022
-4.339072 -4.036736 -1.843357
-4.659862 -4.330928 -1.818942
-5.037004 -4.675200 -1.794507
-5.548380 -5.144290 -1.788899
-6.062969 -5.614057 -1.753169
-6.793537 -6.281687 -1.740817
-7.717276 -7.190656 -1.731228
-9.136132 -8.502908 -1.753094
-10.896774 -10.127307 -1.736916
-11.800954 -10.956928 -1.502968
-6.379826 -5.938569 -0.609903
0.000022 -0.037188 -0.001285
0.000022 -0.037188 -0.001285
0.000022 -0.037188 -0.001285
-6.631647 -6.156546 0.207282
0.000022 -0.037188 -0.001285
0.000022 -0.037188 -0.001285
0.000022 -0.037188 -0.001285
0.000022 -0.037188 -0.001285
-6.571538 -6.084188 1.252855
0.000022 -0.037188 -0.001285
-7.129086 -6.588079 1.821833
-0.446427 -0.445951 -0.360443
-0.460353 -0.458417 -0.352064
-0.493646 -0.488746 -0.357203
-2.851286 -2.644855 -1.941829
-3.036767 -2.812569 -1.949184
-3.259995 -3.015567 -1.967892
-3.480552 -3.214870 -1.970498
-3.741804 -3.451023 -1.979806
-4.041902 -3.723559 -1.993076
-4.329707 -3.983310 -1.981478
-4.338727 -3.988771 -1.833209
-4.669610 -4.288671 -1.812858
-5.062998 -4.643636 -1.793982
-5.554100 -5.088721 -1.781038
-6.081462 -5.564529 -1.748989
-6.766469 -6.182853 -1.724494
-6.778715 -6.246013 -1.512532
-6.742488 -6.210680 -1.287058
-6.737124 -6.201463 -1.068506
-12.216756 -11.207584 -1.547391
-11.730892 -10.759590 -1.114262
-6.572970 -6.040772 -0.417337
0.000013 -0.036901 -0.001275
0.000013 -0.036901 -0.001275
0.000013 -0.036901 -0.001275
-6.574426 -6.027444 0.412594
0.000013 -0.036901 -0.001275
-6.877311 -6.296872 0.865385
-6.955176 -6.363325 1.097247
-7.618398 -6.964178 1.444795
-12.679896 -11.558448 2.811711
-7.067430 -6.454218 1.796317
-0.448779 -0.443089 -0.360432
-0.464054 -0.456632 -0.353033
-0.476601 -0.467838 -0.343105
-2.864924 -2.626903 -1.940917
-3.054053 -2.795972 -1.950025
-3.274379 -2.994008 -1.966250
-3.494691 -3.190786 -1.968170
-3.765546 -3.432872 -1.981974
-4.057473 -3.694896 -1.990323
-4.315778 -3.925066 -1.964811
-4.344381 -3.948103 -1.826041
-4.668303 -4.238282 -1.802915
-5.073607 -4.599879 -1.788391
-5.570068 -5.044656 -1.776868
-6.111754 -5.527841 -1.748554
-6.629166 -5.988552 -1.680755
-6.619774 -6.030407 -1.469361
-6.588489 -6.000005 -1.251105
-6.606028 -6.011701 -1.042252
0.000009 -0.036618 -0.001265
0.000009 -0.036618 -0.001265
-6.588157 -5.985134 -0.416104
-6.609000 -5.999782 -0.208835
-6.614789 -6.002926 -0.002167
-6.624014 -6.007070 0.204872
0.000009 -0.036618 -0.001265
-12.703692 -11.474892 1.192352
-12.683639 -11.448846 1.588806
-12.693419 -11.449658 1.993175
-7.552104 -6.824584 1.424789
-12.672613 -11.419017 2.795537
-12.649289 -11.390121 3.199408
-0.447255 -0.436759 -0.357360
-0.466483 -0.453682 -0.353023
-2.720585 -2.469489 -1.942417
-2.873130 -2.604121 -1.936415
-3.071240 -2.779256 -1.950867
-3.295428 -2.978453 -1.968676
-3.512794 -3.170320 -1.968155
-3.776696 -3.403407 -1.977592
-4.079875 -3.672434 -1.990992
-4.315440 -3.879687 -1.954547
-4.352583 -3.910054 -1.820066
-4.688117 -4.207215 -1.801244
-5.107045 -4.576743 -1.790907
-5.600270 -5.013506 -1.777311
-6.130090 -5.480563 -1.744791
-6.667743 -5.953912 -1.681846
-6.639474 -5.978744 -1.466097
-6.630101 -5.968285 -1.252478
-6.637367 -5.970630 -1.041768
-6.636336 -5.965556 -0.832415
-6.646998 -5.973011 -0.625352
-11.940426 -10.693296 -0.749218
0.000003 -0.036334 -0.001255
0.000003 -0.036334 -0.001255
-6.659781 -5.969875 0.204938
0.000003 -0.036334 -0.001255
0.000003 -0.036334 -0.001255
-6.575455 -5.884503 0.818843
-12.678757 -11.304842 1.980670
0.000003 -0.036334 -0.001255
0.000003 -0.036334 -0.001255
0.000003 -0.036334 -0.001255
-0.452123 -0.436163 -0.359390
-0.470182 -0.451854 -0.353992
-2.730585 -2.449990 -1.939585
-2.889210 -2.588433 -1.937299
-3.084261 -2.758835 -1.949140
-3.310951 -2.957938 -1.967848
-3.533556 -3.152200 -1.969682
-3.794634 -3.380094 -1.976849
-4.099329 -3.647347 -1.990291
-4.310497 -3.830714 -1.942363
-4.370516 -3.880854 -1.818262
-4.696182 -4.165903 -1.795161
-5.104025 -4.521417 -1.780756
-5.627379 -4.979609 -1.776832
-6.161346 -5.444895 -1.744772
-7.035613 -6.208054 -1.765560
-6.698721 -5.962367 -1.471592
-9.276718 -8.240240 -1.742972
-10.883859 -9.654826 -1.698737
-12.001908 -10.635488 -1.496720
-11.968192 -10.602018 -1.119209
-11.716949 -10.372963 -0.731451
0.000021 -0.036032 -0.001245
-12.711934 -11.238981 -0.002923
-12.688411 -11.210410 0.389622
-12.668467 -11.185024 0.784065
-12.663799 -11.177023 1.176528
-12.652703 -11.159456 1.568819
0.000021 -0.036032 -0.001245
0.000021 -0.036032 -0.001245
0.000021 -0.036032 -0.001245
0.000021 -0.036032 -0.001245
-0.451828 -0.430999 -0.357339
-0.484371 -0.459168 -0.362800
-2.743097 -2.432765 -1.938632
-2.907905 -2.574997 -1.939977
-3.102618 -2.743125 -1.950838
-3.325484 -2.935563 -1.966206
-3.541707 -3.123030 -1.964269
-3.813815 -3.357891 -1.976834
-4.116446 -3.618989 -1.988223
-4.303677 -3.780658 -1.929538
0.000015 -0.035748 -0.001235
-4.698818 -4.118754 -1.786872
-5.122464 -4.485322 -1.778205
-5.622820 -4.916521 -1.766204
-6.187412 -5.402827 -1.743089
-7.049824 -6.146601 -1.759982
-7.838019 -6.889960 -1.712952
-9.296896 -8.160013 -1.737656
-10.939066 -9.591712 -1.698712
-12.713820 -11.134274 -1.577407
-11.935963 -10.447929 -1.110380
-12.104518 -10.591270 -0.751777
-12.229670 -10.692921 -0.379442
-12.686170 -11.082964 -0.002883
-12.674142 -11.068626 0.387246
-12.660109 -11.048672 0.779630
-12.649852 -11.032025 1.169173
-12.623764 -11.001639 1.557155
-12.651689 -11.022051 1.956587
-7.811496 -6.814232 1.451277
-7.549188 -6.582010 1.639420
0.000015 -0.035748 -0.001235
-0.452880 -0.426913 -0.356308
-0.486873 -0.455997 -0.362789
-2.755945 -2.415019 -1.937679
-2.926969 -2.560910 -1.942655
-3.114526 -2.720847 -1.948256
-3.344897 -2.918468 -1.967818
-3.565555 -3.106493 -1.967338
-3.836293 -3.337359 -1.978274
-4.132730 -3.591255 -1.986154
-4.299962 -3.732539 -1.917995
0.000010 -0.035465 -0.001225
-4.725177 -4.093858 -1.787958
-5.154645 -4.459605 -1.780214
-5.646393 -4.879966 -1.764801
-6.195937 -5.347724 -1.736830
-7.084894 -6.105620 -1.759962
-7.927815 -6.885623 -1.723637
-9.325524 -8.090512 -1.734290
-10.968504 -9.502997 -1.694507
0.000010 -0.035465 -0.001225
-11.994203 -10.377435 -1.110213
0.000010 -0.035465 -0.001225
-12.233587 -10.569013 -0.377597
-12.672266 -10.942904 -0.002844
-12.651447 -10.917328 0.384594
-12.638861 -10.898854 0.774359
-12.634274 -10.891107 1.161956
0.000010 -0.035465 -0.001225
-12.703060 -10.934857 1.954527
-7.226506 -6.233732 1.335864
-7.621237 -6.567697 1.646894
-13.013825 -11.181880 3.225430
-0.457736 -0.426239 -0.358338
-0.478692 -0.443855 -0.354940
-2.769604 -2.398825 -1.937665
-2.933304 -2.536766 -1.937256
-3.132697 -2.704933 -1.949953
-3.358663 -2.896503 -1.966176
-3.580374 -3.083236 -1.965781
-3.855235 -3.314920 -1.978258
-4.155999 -3.569546 -1.987507
-4.296647 -3.686585 -1.907092
-4.423844 -3.792029 -1.812849
-4.720618 -4.042652 -1.777464
-5.177106 -4.427080 -1.779184
-5.647491 -4.824441 -1.756480
-6.212991 -5.300287 -1.733067
-7.077741 -6.028878 -1.749568
-7.913121 -6.793449 -1.711936
-9.346144 -8.014532 -1.729531
-10.957869 -9.383966 -1.684499
-12.022891 -10.285376 -1.476738
0.000005 -0.035182 -0.001216
-12.017212 -10.269724 -0.738839
-12.455432 -10.635463 -0.382510
-12.648031 -10.795597 -0.002805
-12.625544 -10.768896 0.381940
-12.622033 -10.758351 0.769553
0.000005 -0.035182 -0.001216
-12.711244 -10.822742 1.552572
-12.818633 -10.906211 1.962679
-7.265104 -6.194298 1.336440
0.000005 -0.035182 -0.001216
0.000005 -0.035182 -0.001216
-0.462617 -0.425536 -0.360368
-0.489021 -0.447541 -0.360808
-2.781806 -2.381398 -1.936712
-2.949026 -2.520699 -1.938139
-3.149388 -2.687717 -1.950794
-3.372284 -2.874471 -1.964534
-3.592217 -3.057529 -1.962682
-3.869787 -3.288790 -1.976060
-4.171978 -3.541651 -1.985438
-4.287137 -3.635906 -1.893627
-4.438091 -3.760069 -1.809854
-4.740669 -4.012642 -1.776344
-5.168205 -4.368313 -1.767513
-5.671984 -4.789047 -1.755539
-6.229723 -5.252846 -1.729304
-7.103105 -5.980177 -1.747325
-7.992607 -6.781841 -1.720674
-9.373772 -7.944970 -1.726166
-10.824708 -9.162898 -1.655920
-11.516748 -9.739613 -1.407715
-11.756989 -9.938571 -1.077609
-11.965898 -10.107435 -0.732090
-12.485662 -10.537539 -0.381550
-12.630177 -10.655364 -0.002767
-12.615172 -10.635260 0.379796
-0.000001 -0.034898 -0.001206
-12.738596 -10.727651 1.160201
-12.832651 -10.798994 1.559838
-12.946481 -10.886806 1.972688
-7.634423 -6.431917 1.397656
-0.000001 -0.034898 -0.001206
-7.508255 -6.317315 1.842354
-0.464855 -0.422573 -0.360358
-0.490064 -0.443326 -0.359818
-2.793922 -2.363930 -1.935759
-2.963296 -2.503393 -1.938125
-3.160458 -2.665792 -1.948213
-3.391401 -2.857067 -1.966147
-3.609556 -3.036499 -1.962667
-3.891323 -3.268543 -1.977499
-4.186325 -3.512485 -1.982686
-4.278633 -3.586656 -1.880802
-4.459468 -3.734165 -1.809837
-4.750185 -3.973953 -1.771364
-5.199025 -4.343127 -1.769522
-5.690286 -4.748582 -1.752754
-6.110480 -5.093097 -1.688101
-7.091785 -5.901305 -1.736190
-8.061647 -6.760721 -1.727142
-9.400916 -7.875355 -1.722800
-10.779446 -9.018749 -1.641038
0.000018 -0.034596 -0.001196
-11.701877 -9.777221 -1.067384
-12.005265 -10.022744 -0.730943
0.000018 -0.034596 -0.001196
0.000018 -0.034596 -0.001196
-12.594480 -10.494452 0.377373
-12.756986 -10.621921 0.770352
-12.864437 -10.707332 1.166081
-12.971062 -10.788174 1.569146
-7.530826 -6.273568 1.141510
-7.654341 -6.373658 1.394617
0.000018 -0.034596 -0.001196
-13.419489 -11.132419 3.278073
-0.473718 -0.425078 -0.365449
-0.476265 -0.426900 -0.348049
-2.801843 -2.343028 -1.931989
-2.980232 -2.488281 -1.939906
-3.171368 -2.643817 -1.945631
-3.404761 -2.834870 -1.964505
-3.619651 -3.009518 -1.958797
-3.906999 -3.243430 -1.976029
-4.210635 -3.491609 -1.984722
-4.278528 -3.544864 -1.871821
-4.458545 -3.689975 -1.800882
-4.777251 -3.949904 -1.773002
-5.225244 -4.314058 -1.770012
-5.733878 -4.728994 -1.757810
-6.142531 -5.060018 -1.688914
-7.152836 -5.882476 -1.742839
-8.106317 -6.718909 -1.728418
-9.427575 -7.805693 -1.719434
-10.826382 -8.952439 -1.640316
0.000012 -0.034312 -0.001186
-11.723883 -9.681495 -1.064284
-12.101163 -9.984889 -0.733250
-12.519275 -10.321399 -0.378885
0.000012 -0.034312 -0.001186
0.000012 -0.034312 -0.001186
-12.894963 -10.611343 0.775029
-12.998176 -10.692237 1.172657
-13.100531 -10.768544 1.577341
-7.580451 -6.241134 1.143620
-13.323135 -10.939342 2.416888
0.000012 -0.034312 -0.001186
-13.562309 -11.119362 3.297348
-0.470618 -0.417700 -0.361357
-0.485259 -0.429354 -0.352937
-2.812363 -2.324348 -1.930097
-2.990144 -2.467398 -1.937199
-3.191951 -2.629786 -1.949040
-3.422257 -2.816092 -1.965304
-3.633869 -2.986019 -1.957240
-3.921068 -3.217064 -1.973830
-4.218789 -3.457535 -1.979233
-4.264817 -3.492430 -1.857076
-4.481019 -3.665167 -1.801462
-4.801218 -3.923259 -1.773537
-5.228756 -4.266577 -1.762901
-5.745695 -4.683377 -1.753179
-6.317410 -5.142367 -1.728832
-7.166518 -5.824844 -1.738003
-8.132440 -6.661863 -1.725801
-9.455282 -7.737235 -1.716348
-6.826023 -5.591234 -1.029772
0.000007 -0.034029 -0.001176
-11.742098 -9.583338 -1.060905
0.000007 -0.034029 -0.001176
-12.506910 -10.190876 -0.376714
-12.524489 -10.201550 -0.002650
-12.544848 -10.210842 0.372388
-13.022397 -10.590739 0.779055
-13.127547 -10.672208 1.178816
-13.236423 -10.752812 1.586278
0.000007 -0.034029 -0.001176
0.000007 -0.034029 -0.001176
-8.088514 -6.572439 1.706625
-13.719163 -11.116123 3.319954
-0.468807 -0.411465 -0.358285
-0.488894 -0.427366 -0.353907
-2.822738 -2.305602 -1.928205
-3.002730 -2.448748 -1.936288
-3.205427 -2.609936 -1.948169
-3.433950 -2.792622 -1.962848
-3.652247 -2.965915 -1.957996
-3.934975 -3.190651 -1.971632
-4.235501 -3.430546 -1.977849
-4.265432 -3.452115 -1.848734
-4.513781 -3.648571 -1.806213
-4.817530 -3.890456 -1.771315
-5.234915 -4.221609 -1.756804
-5.763260 -4.642641 -1.750393
-6.328383 -5.090968 -1.723822
-7.142918 -5.737816 -1.724275
-8.122824 -6.576262 -1.715723
-9.477886 -7.664988 -1.712425
-10.793732 -8.718271 -1.620070
-11.487360 -9.269778 -1.377671
-11.658482 -9.404035 -1.048446
-12.418994 -10.008178 -0.745424
-12.501253 -10.067093 -0.374776
-12.512610 -10.072642 -0.002615
-12.533053 -10.081881 0.370334
-13.160916 -10.577741 0.783733
-13.267997 -10.659754 1.185950
-13.375648 -10.738336 1.595587
0.000001 -0.033745 -0.001166
-13.600977 -10.907044 2.444483
-7.948704 -6.383808 1.669379
-7.987319 -6.410105 1.923495
-0.477760 -0.413730 -0.363376
-0.492594 -0.425259 -0.354876
-2.838938 -2.290725 -1.930069
-3.017009 -2.430600 -1.936274
-3.214997 -2.586086 -1.944731
-3.445970 -2.768503 -1.960392
-3.666687 -2.941608 -1.956439
-3.955113 -3.168129 -1.972344
-4.242332 -3.394572 -1.971675
-4.260387 -3.406466 -1.837831
-4.514182 -3.604846 -1.797854
-4.829774 -3.853167 -1.767438
-5.253586 -4.185377 -1.754759
-5.792029 -4.609283 -1.750836
-6.339852 -5.038496 -1.718810
-7.085601 -5.623233 -1.702397
-8.217090 -6.571901 -1.727380
-6.847745 -5.480358 -1.231671
-10.782860 -8.604347 -1.610760
-11.333000 -9.035202 -1.352725
0.000015 -0.033438 -0.001155
-12.294837 -9.788737 -0.734475
-12.513551 -9.955186 -0.373350
-12.507688 -9.947007 -0.002579
-12.510942 -9.942504 0.367958
-13.300000 -10.559937 0.788318
-13.409040 -10.642460 1.192945
-13.518587 -10.721488 1.605082
-13.629416 -10.801410 2.028540
0.000015 -0.033438 -0.001155
-7.741447 -6.143054 1.618198
0.000015 -0.033438 -0.001155
-0.474544 -0.406437 -0.359284
-0.479750 -0.410265 -0.344087
-2.853290 -2.275153 -1.930994
-3.029337 -2.411780 -1.935362
-3.228233 -2.566140 -1.943861
-3.461663 -2.748329 -1.960378
-3.690642 -2.925857 -1.960279
-3.976020 -3.147303 -1.973784
-4.245343 -3.357060 -1.964133
-4.260354 -3.366426 -1.829491
-4.510593 -3.559680 -1.788303
-4.833503 -3.810793 -1.760804
-5.278931 -4.155961 -1.755249
-5.792207 -4.555212 -1.742977
-6.393232 -5.020862 -1.725447
-7.082023 -5.554262 -1.693856
-8.248405 -6.519317 -1.726061
-9.530652 -7.524943 -1.705973
-10.803905 -8.519731 -1.606556
-11.312578 -8.912940 -1.344145
-11.632249 -9.160606 -1.036380
-11.633921 -9.155382 -0.691884
-12.527990 -9.849393 -0.372065
-12.515763 -9.836312 -0.002547
-12.504800 -9.820708 0.366135
-13.445376 -10.549363 0.793368
-13.545339 -10.623761 1.199662
-13.661505 -10.706933 1.614762
-13.782009 -10.793368 2.042032
0.000011 -0.033155 -0.001146
-7.851203 -6.156353 1.633774
-7.993103 -6.262551 1.907251
-0.478042 -0.404466 -0.360294
-0.484687 -0.409362 -0.346036
-2.863344 -2.256216 -1.929102
-3.044407 -2.395115 -1.936245
-3.241335 -2.546114 -1.942991
-3.479159 -2.728580 -1.961177
-3.710151 -2.906528 -1.961806
-3.987990 -3.119506 -1.970858
0.000005 -0.032871 -0.001136
-4.246491 -3.316046 -1.815386
-4.517246 -3.522872 -1.782924
-4.864967 -3.788819 -1.764096
-5.317914 -4.137042 -1.760298
-5.795824 -4.502659 -1.736039
-6.405683 -4.969435 -1.720853
-7.063258 -5.472282 -1.681611
-6.876884 -5.376735 -1.432771
-9.553024 -7.450970 -1.702050
-10.781978 -8.402280 -1.596086
-11.341497 -8.830282 -1.341516
-11.437056 -8.898034 -1.014284
-11.720987 -9.114867 -0.693912
-12.505257 -9.715600 -0.369708
-12.508847 -9.711420 -0.002513
-12.488202 -9.691987 0.364035
-12.478231 -9.677341 0.732951
-13.686884 -10.603907 1.206658
-13.801843 -10.685036 1.623885
-17.251978 -13.343053 2.545083
-17.217697 -13.307056 3.052380
-8.051558 -6.235854 1.667822
-17.208450 -13.285637 4.089208
-0.485708 -0.405538 -0.364365
-0.496576 -0.413606 -0.352884
-2.879300 -2.241063 -1.930966
-3.056948 -2.375636 -1.935334
-3.255750 -2.527117 -1.942977
-3.488806 -2.703758 -1.957907
-3.722724 -2.880804 -1.959477
-4.008669 -3.098477 -1.972298
-4.239114 -3.272389 -1.943575
-4.260818 -3.287809 -1.813449
-4.535746 -3.495356 -1.782312
-4.886515 -3.760455 -1.764079
-5.312225 -4.083770 -1.750654
-5.816821 -4.465384 -1.734638
-6.367784 -4.883512 -1.703363
-6.938710 -5.314625 -1.644915
-8.322113 -6.420677 -1.725695
-9.578291 -7.382284 -1.698964
-10.721103 -8.253275 -1.579813
-11.368198 -8.743176 -1.338516
-11.443562 -8.797774 -1.010347
-0.000000 -0.032589 -0.001126
-12.492501 -9.590882 -0.367677
-12.491282 -9.583065 -0.002478
-12.464255 -9.555532 0.361703
-12.454157 -9.544398 0.728328
-12.445415 -9.530871 1.092287
-12.445704 -9.527681 1.457976
-17.228821 -13.167345 2.530491
-17.200901 -13.136600 3.036000
-8.037382 -6.153435 1.657797
-17.164040 -13.094389 4.060741
-0.489135 -0.403555 -0.365374
-0.498699 -0.410543 -0.352873
-2.888762 -2.222522 -1.929074
-3.071418 -2.359330 -1.936217
-3.272949 -2.510229 -1.944674
-3.507049 -2.685545 -1.959520
-3.741520 -2.861917 -1.961005
-4.026248 -3.075047 -1.972282
-4.230715 -3.227262 -1.931244
-4.250756 -3.241241 -1.801266
-4.535803 -3.453951 -1.774549
-4.900227 -3.726186 -1.761306
-5.323102 -4.043511 -1.746584
-5.840695 -4.430359 -1.734159
-6.407382 -4.853585 -1.706256
-7.032761 -5.320328 -1.659714
-8.381224 -6.391707 -1.730540
-9.599937 -7.311167 -1.695320
-10.659190 -8.111406 -1.564004
0.000018 -0.032286 -0.001116
0.000018 -0.032286 -0.001116
-11.721231 -8.900352 -0.687793
-12.478750 -9.466651 -0.365647
-12.469478 -9.452830 -0.002443
-12.447027 -9.432479 0.359694
-12.444943 -9.424112 0.724634
-12.428224 -9.404713 1.086043
-12.414335 -9.387464 1.447794
-12.407720 -9.379111 1.814163
-12.377121 -9.349316 2.174794
-7.993117 -6.044852 1.641290
-17.160437 -12.936007 4.042266
-0.496839 -0.404492 -0.369445
-0.499534 -0.406240 -0.351883
-2.898888 -2.202950 -1.927182
-3.082316 -2.338645 -1.934408
-3.283251 -2.487235 -1.942092
-3.517891 -2.661749 -1.957064
-3.755286 -2.837175 -1.959448
-4.047235 -3.053066 -1.973723
-4.221937 -3.182335 -1.918913
-4.254533 -3.204356 -1.794846
-4.533051 -3.409575 -1.765594
-4.915259 -3.693037 -1.759084
-5.332842 -4.001181 -1.742007
-5.862793 -4.394038 -1.733218
-6.441334 -4.821004 -1.707902
-7.104104 -5.309922 -1.669327
-8.434609 -6.353431 -1.733763
-9.629014 -7.245985 -1.693069
-10.667172 -8.017974 -1.558177
-11.000570 -8.261602 -1.283982
-11.626840 -8.726978 -1.017560
-12.141722 -9.105439 -0.709234
-12.457607 -9.334745 -0.363384
-12.454597 -9.329141 -0.002410
-12.428855 -9.303191 0.357593
-12.425150 -9.293703 0.720290
-12.413181 -9.281435 1.080077
-12.397712 -9.263205 1.439653
-12.396007 -9.255236 1.804440
-12.362233 -9.226782 2.162858
-8.084624 -6.040816 1.652977
-12.350013 -9.204356 2.895977
-0.486534 -0.392119 -0.360251
-0.503089 -0.404113 -0.352852
-2.915601 -2.189085 -1.929986
-3.094110 -2.319509 -1.933497
-3.295450 -2.467497 -1.941222
-3.531505 -2.640076 -1.956236
-3.768410 -2.813026 -1.957891
-4.059539 -3.026813 -1.971524
0.000007 -0.031719 -0.001096
0.000007 -0.031719 -0.001096
-4.544161 -3.378273 -1.762599
-4.928514 -3.658686 -1.756310
-5.351802 -3.968758 -1.740977
-5.875270 -4.350699 -1.729510
-6.452199 -4.773084 -1.703723
-7.127137 -5.265244 -1.667826
-8.426465 -6.271589 -1.724658
-9.641737 -7.168918 -1.688033
-10.665072 -7.920692 -1.551189
-11.436896 -8.485458 -1.329143
0.000007 -0.031719 -0.001096
-12.074840 -8.947279 -0.702302
-12.441795 -9.214892 -0.361401
-12.432261 -9.201176 -0.002375
-12.412818 -9.180170 0.355631
-12.404291 -9.170568 0.716131
-12.400372 -9.161033 1.074390
-12.373678 -9.138071 1.430956
-12.378502 -9.134988 1.794484
-12.349521 -9.107057 2.151480
-12.342500 -9.098604 2.513748
-12.340804 -9.090753 2.881938
-0.499651 -0.397247 -0.368403
-2.821362 -2.095537 -1.965627
-2.922271 -2.167803 -1.926216
-3.108269 -2.302954 -1.934380
-3.306512 -2.446069 -1.939496
-3.542033 -2.616174 -1.953781
-3.781380 -2.788820 -1.956334
-4.082746 -3.007496 -1.974420
0.000001 -0.031435 -0.001086
0.000001 -0.031435 -0.001086
-4.567013 -3.353204 -1.763775
-4.949321 -3.629963 -1.756294
-5.356288 -3.923011 -1.734880
-5.899220 -4.314340 -1.729031
-6.512700 -4.756275 -1.712024
-7.172373 -5.232959 -1.671141
-8.442048 -6.210154 -1.720744
-9.661910 -7.097812 -1.684390
-10.657633 -7.823211 -1.543737
-11.360120 -8.330738 -1.314800
-11.692348 -8.567214 -1.014576
-12.295434 -9.000932 -0.712076
-12.424993 -9.092145 -0.359372
-12.416985 -9.079696 -0.002342
-12.397415 -9.058833 0.353714
-12.383980 -9.042462 0.711880
-12.384958 -9.039891 1.068564
-12.354997 -9.011526 1.422629
-12.366389 -9.013238 1.784993
-12.340637 -8.987981 2.140656
-12.340160 -8.984369 2.502432
-12.321152 -8.964041 2.864938
-0.497683 -0.390868 -0.365332
-2.802819 -2.055519 -1.944057
-2.934900 -2.150146 -1.926202
-3.114845 -2.278421 -1.929878
-3.326634 -2.430344 -1.942905
-3.558782 -2.595889 -1.954579
-3.793183 -2.762817 -1.954006
-4.106374 -2.987283 -1.977315
-4.201489 -3.053536 -1.885340
-4.277939 -3.107410 -1.781992
-4.587629 -3.327690 -1.764355
-4.962777 -3.594643 -1.753520
-5.369184 -3.885053 -1.731823
-5.912727 -4.272084 -1.725785
-6.507191 -4.696757 -1.703686
-7.195815 -5.186706 -1.669639
-8.436440 -6.126991 -1.711964
-9.684389 -7.026156 -1.681025
-10.706644 -7.758865 -1.543945
-11.260396 -8.152590 -1.297482
-11.734686 -8.491571 -1.013852
-12.278734 -8.877330 -0.708036
-12.407139 -8.966573 -0.357296
-12.402267 -8.956517 -0.002309
-12.380946 -8.934639 0.351751
-12.365898 -8.920564 0.707907
-12.362018 -8.911254 1.062041
-12.343431 -8.894664 1.415415
-12.354949 -8.896422 1.775965
-12.316354 -8.862242 2.127608
-12.316103 -8.858829 2.487226
-12.295665 -8.837708 2.847196
-0.510889 -0.395802 -0.373484
-2.802725 -2.031445 -1.936205
-2.950999 -2.136516 -1.929006
-3.133155 -2.264847 -1.933454
-3.330093 -2.403522 -1.936900
-3.574985 -2.576132 -1.955379
-3.809895 -2.742390 -1.954762
-4.120280 -2.961133 -1.975844
-4.189723 -3.008327 -1.872326
-4.283210 -3.073649 -1.776853
-4.584733 -3.285453 -1.755996
-4.958111 -3.547912 -1.744681
-5.408641 -3.866090 -1.737379
-5.917975 -4.224163 -1.720232
-6.544349 -4.664577 -1.706164
-7.187772 -5.116397 -1.660729
-8.375587 -6.011835 -1.692804
-9.703555 -6.955040 -1.677382
-10.638035 -7.619075 -1.527906
-10.952058 -7.837325 -1.256922
-12.182975 -8.708315 -1.048186
-12.383272 -8.847746 -0.711184
-12.389959 -8.846011 -0.355313
-12.388255 -8.838314 -0.002277
-12.362019 -8.816436 0.349834
-12.353368 -8.803823 0.704305
-12.356003 -8.799231 1.057189
-12.325937 -8.771447 1.407460
-12.337728 -8.776598 1.766241
-12.300725 -8.743939 2.116228
-12.305440 -8.740857 2.474613
-12.291621 -8.727880 2.834637
-0.503203 -0.385532 -0.366331
-2.817394 -2.016504 -1.938151
-2.957677 -2.114624 -1.925236
-3.140506 -2.241815 -1.929850
-3.350024 -2.387598 -1.940309
-3.580630 -2.548923 -1.950483
-3.827407 -2.720497 -1.955518
-4.140658 -2.938504 -1.977284
-4.185278 -2.968761 -1.862732
-4.310498 -3.054428 -1.780680
-4.607097 -3.260108 -1.757172
-4.983021 -3.522340 -1.746319
-5.413862 -3.821437 -1.731789
-5.924497 -4.177463 -1.715140
-6.538862 -4.604108 -1.697826
-7.242714 -5.092655 -1.666637
-8.277070 -5.867364 -1.665858
-9.727082 -6.887357 -1.674575
-10.634153 -7.521232 -1.520919
-11.652807 -8.232705 -1.331646
-12.286593 -8.675629 -1.052770
-12.371622 -8.729023 -0.707518
-12.378235 -8.727237 -0.353471
-12.368383 -8.717116 -0.002244
-12.346819 -8.695562 0.347963
-12.334849 -8.680758 0.700332
-12.332769 -8.676112 1.050944
-12.309198 -8.653205 1.399875
-12.314531 -8.650557 1.755589
-12.285786 -8.627265 2.105126
-12.290693 -8.624334 2.461675
-12.273709 -8.606102 2.818747
-0.498195 -0.377436 -0.361219
-2.817351 -1.992002 -1.930299
-2.966731 -2.095254 -1.923344
-3.148806 -2.220364 -1.927144
-3.357595 -2.363848 -1.936872
-3.596562 -2.529011 -1.951281
-3.835263 -2.692873 -1.951649
-4.164971 -2.919622 -1.980907
-4.182042 -2.930393 -1.853822
-4.330958 -3.031433 -1.781945
-4.609913 -3.222363 -1.751197
-4.991981 -3.485645 -1.742442
-5.438787 -3.792117 -1.732786
-5.932265 -4.131922 -1.710510
-6.579566 -4.576093 -1.701552
-7.291165 -5.063990 -1.671064
-8.274901 -5.794490 -1.658701
-9.753401 -6.821893 -1.672325
-10.559700 -7.377890 -1.504183
-11.073644 -7.729785 -1.260407
0.000003 -0.030282 -0.001046
-12.359155 -8.614050 -0.703946
-12.360770 -8.608802 -0.351536
-12.354090 -8.600991 -0.002212
-12.334061 -8.580746 0.346231
-12.320413 -8.564940 0.696730
-12.318383 -8.560378 1.045535
-12.298039 -8.539961 1.393032
-12.306762 -8.539666 1.747489
-12.274805 -8.514428 2.094859
-12.270150 -8.504907 2.447764
-12.253330 -8.486996 2.802856
-0.501603 -0.375243 -0.362229
-2.828599 -1.975454 -1.930285
-2.977116 -2.076844 -1.922391
-3.164308 -2.203924 -1.928925
-3.368006 -2.342144 -1.935146
-3.603353 -2.502791 -1.947198
-3.850532 -2.670452 -1.951633
-4.195380 -2.904783 -1.987440
-4.181620 -2.894290 -1.846280
-4.335655 -2.997586 -1.776807
-4.632939 -3.198701 -1.752968
-5.003850 -3.451115 -1.739668
-5.441193 -3.747352 -1.726689
-5.944543 -4.089724 -1.707263
-6.571704 -4.514685 -1.692798
-7.341144 -5.036028 -1.675860
-8.312834 -5.749812 -1.659653
-9.779276 -6.756332 -1.670074
-10.610021 -7.322298 -1.505320
-11.086605 -7.644180 -1.256850
-12.350791 -8.509263 -1.049785
0.000019 -0.029976 -0.001036
-12.350594 -8.496493 -0.349833
-12.338900 -8.485332 -0.002180
-12.315449 -8.462971 0.344360
-12.303404 -8.448441 0.693035
-12.304707 -8.446198 1.040265
-12.281083 -8.423774 1.385632
-12.288313 -8.422446 1.737997
-12.261284 -8.400869 2.084313
-12.258412 -8.392660 2.435799
-12.248238 -8.379480 2.790667
-0.504997 -0.373020 -0.363238
-2.829658 -1.951986 -1.923413
-2.993238 -2.062356 -1.925194
-3.176779 -2.185383 -1.928911
-3.385764 -2.325477 -1.937699
-3.620991 -2.483138 -1.948811
-3.870252 -2.651050 -1.953931
-4.196441 -2.869854 -1.980149
-4.172071 -2.851243 -1.834634
-4.340129 -2.963807 -1.771668
-4.644792 -3.167418 -1.750569
-5.025659 -3.422163 -1.740204
-5.449668 -3.707005 -1.722618
-6.008864 -4.081299 -1.718778
-6.607936 -4.481894 -1.695275
-7.409835 -5.018438 -1.684732
-8.371765 -5.719327 -1.664823
-9.797718 -6.683451 -1.666431
-10.551569 -7.192728 -1.491138
-11.075889 -7.543045 -1.250690
-12.508216 -8.508311 -1.058838
-12.445601 -8.462722 -0.703241
0.000013 -0.029692 -0.001026
0.000013 -0.029692 -0.001026
-12.299213 -8.347948 0.342580
-12.288769 -8.334654 0.689526
-12.286629 -8.326982 1.034577
0.000013 -0.029692 -0.001026
-12.272206 -8.307937 1.728968
-12.245039 -8.283414 2.073210
-12.247240 -8.278706 2.423833
-12.226005 -8.261327 2.774775
-0.517030 -0.376447 -0.370370
-2.839556 -1.933899 -1.922419
-3.000845 -2.041326 -1.922363
-3.185051 -2.163222 -1.926204
-3.397818 -2.304054 -1.936829
-3.632028 -2.459932 -1.947170
-3.885750 -2.627768 -1.953917
-4.189984 -2.829096 -1.969219
-4.166370 -2.812273 -1.825040
-4.370059 -2.946126 -1.776776
-4.666513 -3.141648 -1.751745
-5.030712 -3.383282 -1.735225
-5.466568 -3.671112 -1.721082
-6.015906 -4.035567 -1.714148
-6.628564 -4.440224 -1.694009
-7.397519 -4.948194 -1.675451
-8.366042 -5.642883 -1.657017
-9.822721 -6.617820 -1.664181
-10.600492 -7.134152 -1.492044
-11.068976 -7.442564 -1.244902
-12.684495 -8.521329 -1.069566
-12.566828 -8.436227 -0.707228
-12.467014 -8.363182 -0.350294
-12.387012 -8.306591 -0.002124
0.000008 -0.029410 -0.001016
-12.286290 -8.226931 0.686668
-12.274450 -8.215961 1.029585
-12.255731 -8.197314 1.371947
-12.259916 -8.193949 1.720404
0.000008 -0.029410 -0.001016
-12.233734 -8.167314 2.411867
-12.215691 -8.149184 2.761475
-0.510418 -0.367474 -0.364237
-2.846117 -1.914341 -1.919466
-3.012373 -2.023720 -1.922349
-3.201757 -2.147518 -1.928883
-3.404820 -2.280167 -1.933391
-3.642909 -2.436673 -1.945528
-3.905256 -2.608101 -1.956215
-4.184258 -2.790262 -1.959017
-4.169777 -2.779672 -1.819552
-4.367813 -2.908127 -1.769076
-4.673198 -3.107089 -1.747559
-5.057974 -3.359260 -1.737966
-5.490685 -3.641418 -1.722078
-6.043736 -4.003766 -1.715514
-6.627714 -4.384520 -1.687336
-7.422431 -4.903069 -1.674691
-8.417967 -5.607410 -1.660890
-9.840685 -6.547742 -1.660817
-10.389439 -6.906044 -1.456741
-11.079921 -7.357544 -1.241346
-12.826376 -8.509478 -1.077361
-12.700043 -8.419607 -0.711962
-12.593208 -8.342731 -0.352457
-12.499570 -8.277805 -0.002105
-12.387260 -8.197506 0.342400
0.000002 -0.029126 -0.001006
0.000002 -0.029126 -0.001006
-12.239359 -8.084727 1.364917
-12.240336 -8.079270 1.711143
-12.213502 -8.058591 2.052118
-12.224318 -8.059616 2.400872
0.000002 -0.029126 -0.001006
-0.500838 -0.356701 -0.356064
-2.867157 -1.904332 -1.926312
-3.022339 -2.005093 -1.921397
-3.212410 -2.127785 -1.927971
-3.422269 -2.263204 -1.935945
-3.655197 -2.414382 -1.944700
-3.923132 -2.587300 -1.957742
-4.179817 -2.752631 -1.949544
-4.161943 -2.739956 -1.809274
-4.365265 -2.870241 -1.761377
-4.673221 -3.068376 -1.740988
-5.057718 -3.317214 -1.731333
-5.508136 -3.607336 -1.721048
-6.051842 -3.959079 -1.711345
-6.647745 -4.342790 -1.686069
-7.458616 -4.865306 -1.676524
-8.441693 -5.553159 -1.659248
-9.854841 -6.475492 -1.656896
-10.437182 -6.851256 -1.457879
-11.588742 -7.598235 -1.293382
-12.970223 -8.497372 -1.085296
-12.841836 -8.407177 -0.717162
-12.729650 -8.327673 -0.354900
-12.627301 -8.257831 -0.002087
-12.501122 -8.169409 0.344276
-12.389923 -8.090859 0.687277
0.000020 -0.028823 -0.000996
0.000020 -0.028823 -0.000996
0.000020 -0.028823 -0.000996
-12.196417 -7.946869 2.041571
-12.202457 -7.944755 2.387610
-12.179749 -7.924009 2.732652
-0.505605 -0.355388 -0.358094
-2.870570 -1.882761 -1.921399
-3.033677 -1.987378 -1.921383
-3.221430 -2.107018 -1.926162
-3.430519 -2.240234 -1.933363
-3.670408 -2.393997 -1.945499
-3.926961 -2.557407 -1.952331
-4.176614 -2.716117 -1.940797
-4.156939 -2.702443 -1.800365
-4.392707 -2.851938 -1.765844
-4.698690 -3.046297 -1.743952
-5.071713 -3.284631 -1.729662
-5.499344 -3.556475 -1.711912
-6.059632 -3.914427 -1.707177
-6.670837 -4.303105 -1.685635
-7.466491 -4.809282 -1.672060
-8.484964 -5.511668 -1.661498
-9.881815 -6.411904 -1.655203
-10.467951 -6.785373 -1.456696
0.000014 -0.028539 -0.000986
-13.109324 -8.480644 -1.092812
-12.983919 -8.393400 -0.722361
-12.869685 -8.313470 -0.357435
-12.766983 -8.244229 -0.002069
-12.633548 -8.152146 0.346662
-12.530274 -8.079582 0.692511
-12.417395 -8.004016 1.029939
-12.321260 -7.936217 1.363853
0.000014 -0.028539 -0.000986
0.000014 -0.028539 -0.000986
-12.179712 -7.830439 2.374346
-12.167068 -7.816373 2.719721
-0.511840 -0.354969 -0.361145
-2.879746 -1.864988 -1.920406
-3.049357 -1.972423 -1.924186
-3.236363 -2.090070 -1.927943
-3.440149 -2.218216 -1.931637
-3.685910 -2.372865 -1.946298
-3.942996 -2.535437 -1.953086
-4.171602 -2.678766 -1.931323
-4.142573 -2.658298 -1.787350
-4.386499 -2.812099 -1.756863
-4.674076 -2.992328 -1.728443
-5.107197 -3.264502 -1.735160
-5.521217 -3.525509 -1.712403
-6.087503 -3.881236 -1.708543
-6.707645 -4.270480 -1.688529
-7.494722 -4.764616 -1.672041
-8.543014 -5.479413 -1.666667
-9.904483 -6.343296 -1.652674
-10.468151 -6.700139 -1.451335
-11.534065 -7.373859 -1.277716
-13.255173 -8.463487 -1.100746
-13.124575 -8.377180 -0.727467
-13.008300 -8.296861 -0.359924
-12.906665 -8.225958 -0.002051
-12.769578 -8.135778 0.349140
-12.667523 -8.064802 0.697560
-12.548742 -7.983328 1.036933
-12.447022 -7.912774 1.372604
-12.333920 -7.838132 1.705182
-12.256341 -7.783042 2.036335
0.000009 -0.028256 -0.000976
0.000009 -0.028256 -0.000976
-0.523940 -0.358043 -0.368276
-2.883214 -1.842939 -1.915494
-3.056363 -1.951198 -1.921356
-3.248551 -2.070556 -1.927930
-3.457681 -2.200373 -1.934191
-3.700913 -2.352301 -1.947098
-3.957816 -2.511726 -1.953072
-4.169894 -2.642799 -1.923305
-4.140142 -2.623142 -1.779810
-4.398102 -2.782707 -1.754926
-4.701287 -2.970333 -1.732003
-5.075219 -3.203138 -1.718050
-5.536947 -3.489329 -1.710866
-6.101356 -3.840692 -1.706220
-6.733621 -4.232534 -1.688927
-7.511874 -4.714859 -1.669799
-8.608594 -5.449375 -1.673135
-9.923943 -6.275340 -1.649868
-10.494100 -6.629169 -1.449455
-11.590930 -7.313492 -1.279180
-13.398119 -8.446167 -1.108540
