# This PCD file was generated using the MATLAB® pcwrite function
# from Computer Vision Toolbox®.
# .PCD v.7 - Point Cloud Data file format
VERSION .7
FIELDS x y z
SIZE 4 4 4
TYPE F F F
COUNT 1 1 1
WIDTH 1646
HEIGHT 1
VIEWPOINT 0 0 0 1 0 0 0
POINTS 1646
DATA ascii
-0.500940 0.213195 -0.360079
-0.507778 0.220110 -0.344648
-2.919693 2.522813 -1.804684
-3.081475 2.679455 -1.787251
-3.139222 2.736817 -1.702936
-3.194695 2.791066 -1.615868
-3.403115 2.992803 -1.598194
-3.622255 3.205130 -1.571153
-3.918928 3.490735 -1.561787
-4.224658 3.786659 -1.537114
-4.535042 4.085996 -1.493288
-4.866176 4.407099 -1.437455
-5.380378 4.904509 -1.408427
-5.901405 5.357934 -1.340926
-6.272395 5.713674 -1.218869
-6.260182 5.706403 -1.011193
-6.231311 5.683248 -0.804685
-6.218729 5.673515 -0.602212
-6.197356 5.657445 -0.400632
-6.192839 5.657494 -0.199728
-19.003527 17.914791 0.020538
0.003856 -0.268137 -0.010931
-20.424040 19.302393 1.342235
-18.204315 17.182516 1.782948
-19.355682 18.299618 2.524017
-4.939804 4.476829 0.798699
-12.380098 11.622614 2.422848
-5.680163 5.193516 1.293831
-11.822962 11.104379 3.100710
-0.419028 0.139280 -0.358103
-0.432134 0.152234 -0.350146
-0.482136 0.200587 -0.368791
-0.494286 0.212660 -0.357385
-0.498470 0.217033 -0.340373
-2.900943 2.537332 -1.803071
-3.061802 2.694870 -1.785724
0.003855 -0.267854 -0.010919
-3.177042 2.809689 -1.615880
-3.367950 2.996806 -1.590551
-3.617296 3.240832 -1.577696
-3.883423 3.500134 -1.556315
-4.209579 3.819295 -1.540158
-4.502911 4.105550 -1.491016
-4.850414 4.446232 -1.440787
-5.357545 4.942555 -1.410295
-5.885986 5.408538 -1.344820
-6.277797 5.788468 -1.226631
-6.268577 5.784027 -1.018114
-6.241355 5.762211 -0.810404
-6.227475 5.751103 -0.606360
-6.209102 5.737768 -0.403570
-6.198859 5.732281 -0.200995
0.003855 -0.267854 -0.010919
0.003855 -0.267854 -0.010919
0.003855 -0.267854 -0.010919
-3.637115 3.262064 0.349759
0.003855 -0.267854 -0.010919
-3.702581 3.330840 0.599444
-4.764600 4.363743 0.931398
0.003855 -0.267854 -0.010919
0.003855 -0.267854 -0.010919
-0.414206 0.139593 -0.356058
-0.432209 0.157453 -0.352093
-0.473103 0.197491 -0.364099
-0.487683 0.212044 -0.354691
-0.491781 0.216414 -0.337805
-2.889494 2.559882 -1.806327
-3.043381 2.711444 -1.784967
-3.124394 2.792906 -1.713838
-3.161404 2.831418 -1.617256
-3.347750 3.015107 -1.589927
-3.584759 3.249861 -1.572370
-3.887098 3.548980 -1.566764
-4.191498 3.849182 -1.542194
-4.482460 4.137923 -1.492874
-4.836339 4.488918 -1.444948
-5.330754 4.978670 -1.411428
-5.880074 5.468799 -1.350968
-6.285716 5.868777 -1.235222
-6.273453 5.859159 -1.024578
-6.249301 5.840072 -0.815942
-6.234475 5.830077 -0.610510
-6.217293 5.815610 -0.406329
-6.204247 5.807315 -0.202263
0.003855 -0.267572 -0.010908
0.003855 -0.267572 -0.010908
0.003855 -0.267572 -0.010908
-17.755583 17.155846 1.758441
-3.605027 3.275595 0.466975
0.003855 -0.267572 -0.010908
-4.731392 4.386687 0.930251
0.003855 -0.267572 -0.010908
-5.443131 5.092244 1.438253
-0.415475 0.145959 -0.359104
-0.430931 0.161530 -0.353062
-0.472874 0.203058 -0.365965
-0.483567 0.213967 -0.353788
-0.485056 0.215798 -0.335237
-0.508366 0.239064 -0.330554
-3.024350 2.728433 -1.784210
-3.122090 2.827404 -1.722553
-3.152868 2.859116 -1.622041
-3.345718 3.052548 -1.598235
-3.590973 3.298240 -1.584256
-3.869142 3.575666 -1.568428
-4.156020 3.863355 -1.538181
-4.468078 4.174920 -1.496567
-4.819980 4.528009 -1.448281
-5.255870 4.965197 -1.399681
-5.831889 5.490013 -1.347782
-6.292582 5.946901 -1.243537
-6.280810 5.939852 -1.031732
-6.255442 5.919344 -0.821481
-6.244668 5.911063 -0.614934
-6.220868 5.892033 -0.408907
-6.210738 5.886514 -0.203621
0.003853 -0.267288 -0.010896
0.003853 -0.267288 -0.010896
0.003853 -0.267288 -0.010896
-18.171825 17.771019 1.810100
-3.597282 3.309230 0.468653
0.003853 -0.267288 -0.010896
-25.661158 25.251041 5.119109
-5.245524 4.955926 1.214710
0.003853 -0.267288 -0.010896
-0.405782 0.141347 -0.352987
-0.435866 0.171703 -0.358919
-0.468908 0.204827 -0.365020
-0.478259 0.214516 -0.351990
-0.483633 0.220078 -0.336082
-0.504164 0.240982 -0.329735
-3.008367 2.747388 -1.784990
-3.121887 2.862222 -1.731994
-3.136163 2.878823 -1.622735
-3.327145 3.071457 -1.598248
-3.569664 3.317171 -1.583678
-3.844260 3.595427 -1.567348
-4.116523 3.870317 -1.532150
-4.447929 4.206377 -1.498424
-4.804171 4.566240 -1.451613
-5.243211 5.011478 -1.404124
-5.834977 5.560039 -1.356184
-6.295951 6.022511 -1.251302
-6.288552 6.019728 -1.038886
-6.257763 5.993560 -0.826469
-6.251323 5.989538 -0.619084
-6.227666 5.970452 -0.411667
-6.218678 5.963836 -0.204977
0.003829 -0.267025 -0.010885
0.003829 -0.267025 -0.010885
-25.506407 25.324890 1.716760
0.003829 -0.267025 -0.010885
-3.623617 3.376131 0.474846
-3.656700 3.412063 0.602211
0.003829 -0.267025 -0.010885
-5.230215 4.999420 1.217948
-5.386595 5.160771 1.439685
-0.409544 0.150031 -0.358069
-0.437113 0.178134 -0.361844
-0.463702 0.205306 -0.363138
-0.469260 0.211137 -0.347505
-0.477009 0.219299 -0.333514
-0.501234 0.244179 -0.329728
-2.992268 2.766256 -1.785770
-3.115605 2.892374 -1.738533
-3.128565 2.907828 -1.628202
-3.312614 3.096820 -1.600815
-3.514836 3.304561 -1.568856
-3.823298 3.619169 -1.567914
-4.094620 3.897719 -1.533179
-4.413117 4.224657 -1.495694
-4.767728 4.588788 -1.449573
-5.228352 5.059602 -1.408570
-5.832941 5.623648 -1.363299
-6.302857 6.102571 -1.259895
-6.295294 6.097389 -1.045810
-6.271725 6.078265 -0.832925
-6.255884 6.066872 -0.623099
-6.233775 6.049145 -0.414428
-6.223440 6.041101 -0.206291
-25.473673 25.559376 0.031556
-25.431366 25.535442 0.872697
0.003829 -0.266742 -0.010873
-19.288454 19.325863 1.944175
-3.601954 3.397861 0.474829
-3.640385 3.439665 0.603133
0.003829 -0.266742 -0.010873
-11.020983 10.958768 2.593003
-5.424494 5.264472 1.458656
-0.408213 0.154046 -0.359079
-0.431944 0.178606 -0.359881
-0.453470 0.200781 -0.357509
-0.462596 0.210450 -0.344811
-0.474105 0.222433 -0.333506
-0.494355 0.243528 -0.327286
-2.975508 2.785570 -1.786551
-3.118964 2.933750 -1.750877
-3.113615 2.930662 -1.630261
-3.286580 3.109343 -1.597638
-3.515532 3.346926 -1.578368
-3.781412 3.622769 -1.560247
-4.077329 3.928452 -1.535720
-4.384474 4.247491 -1.494799
-4.705075 4.579149 -1.438845
-5.167470 5.058883 -1.400503
-5.798243 5.660864 -1.363656
0.003827 -0.266458 -0.010862
-7.307769 7.211380 -1.219687
-8.461179 8.397345 -1.126691
-10.217984 10.199471 -1.016732
0.003827 -0.266458 -0.010862
0.003827 -0.266458 -0.010862
0.003827 -0.266458 -0.010862
0.003827 -0.266458 -0.010862
0.003827 -0.266458 -0.010862
0.003827 -0.266458 -0.010862
-3.523863 3.360338 0.467101
-3.620375 3.462293 0.603351
-3.915751 3.769170 0.786461
-10.997423 11.064816 2.602724
-5.400775 5.304386 1.460861
-0.402261 0.152914 -0.356016
-0.425814 0.177551 -0.356940
-0.445938 0.198530 -0.353753
-0.454962 0.208178 -0.341222
-0.465009 0.218946 -0.329230
-0.485084 0.240077 -0.323222
-2.962289 2.806396 -1.788868
-3.103079 2.954625 -1.752341
-3.108207 2.962366 -1.637092
-3.269719 3.131233 -1.598929
-3.493356 3.366016 -1.577791
-3.766957 3.653085 -1.563559
-4.038361 3.936800 -1.530194
-4.361131 4.275743 -1.495740
-4.672194 4.603027 -1.437630
-5.184797 5.140796 -1.413782
-5.733498 5.660807 -1.356284
-6.272051 6.221959 -1.268804
-7.304583 7.292345 -1.226161
-8.427900 8.460499 -1.128762
0.003826 -0.266176 -0.010850
0.003826 -0.266176 -0.010850
-16.404018 16.747204 -0.532210
0.003826 -0.266176 -0.010850
-37.501759 38.667210 1.306920
0.003826 -0.266176 -0.010850
0.003826 -0.266176 -0.010850
-3.469178 3.347031 0.462570
0.003826 -0.266176 -0.010850
-3.744357 3.637671 0.756133
0.003826 -0.266176 -0.010850
-5.382214 5.349886 1.464556
-0.400968 0.156834 -0.357026
-0.426802 0.184148 -0.359865
-0.448064 0.206576 -0.357493
-0.444724 0.203417 -0.335842
-0.452137 0.211528 -0.322394
-0.478284 0.239283 -0.320780
-0.486850 0.248450 -0.306795
-3.100632 2.990810 -1.761783
-3.105878 2.998721 -1.645970
-3.258655 3.160476 -1.603410
-3.479662 3.395257 -1.581369
-3.733059 3.664492 -1.559186
-4.024039 3.972184 -1.534250
-4.316680 4.283483 -1.489798
-4.680942 4.670694 -1.449237
-5.131001 5.148916 -1.407924
-5.688691 5.685019 -1.354065
-6.280005 6.308021 -1.278229
-7.273354 7.350193 -1.228505
-8.396627 8.532231 -1.131571
-10.177593 10.405404 -1.025104
0.003826 -0.265893 -0.010839
-16.304188 16.845955 -0.532376
-30.237951 31.489904 0.039719
-37.537609 39.170227 1.316080
0.003826 -0.265893 -0.010839
-3.576623 3.500805 0.358581
-3.428487 3.347642 0.459920
-3.565623 3.493436 0.601439
-4.356264 4.329552 0.886886
-3.679290 3.618878 0.874990
-3.802496 3.750405 1.038308
-0.402074 0.163196 -0.360072
-0.425402 0.188176 -0.360834
-0.439282 0.203024 -0.352800
-0.440784 0.204983 -0.334939
-0.451942 0.216989 -0.324093
-0.470449 0.236925 -0.317527
-0.481345 0.248869 -0.305249
-3.097755 3.024635 -1.770500
-3.094059 3.023145 -1.649393
-3.248576 3.188569 -1.607890
-3.465715 3.421879 -1.584352
-3.700507 3.674373 -1.554810
-3.995000 3.989256 -1.532252
-4.287216 4.303555 -1.488444
-4.668932 4.711909 -1.453811
-5.132592 5.209851 -1.416417
-5.693654 5.759576 -1.363435
-6.266335 6.367755 -1.282959
-7.185730 7.346026 -1.221202
-8.363611 8.599559 -1.134012
-10.148007 10.494270 -1.028191
0.003822 -0.265606 -0.010827
-16.228985 16.958838 -0.533153
0.003822 -0.265606 -0.010827
-37.529198 39.618965 1.323585
0.003822 -0.265606 -0.010827
-47.177937 49.928688 4.885698
-3.429359 3.388202 0.462726
-3.725402 3.706176 0.632622
-3.872577 3.866011 0.792015
0.003822 -0.265606 -0.010827
-3.778670 3.770455 1.037917
-0.397326 0.163220 -0.358027
-0.415712 0.183199 -0.354960
-0.433045 0.201893 -0.349982
-0.434503 0.203803 -0.332245
-0.439285 0.209307 -0.317256
-0.462553 0.234590 -0.314273
-0.473419 0.246457 -0.302166
-3.085119 3.049520 -1.774140
0.003821 -0.265324 -0.010815
-3.223492 3.201939 -1.605353
-3.447023 3.444866 -1.585556
-3.686945 3.705750 -1.558673
-3.963872 4.005372 -1.529752
-4.284700 4.354117 -1.496728
-4.641973 4.742692 -1.454665
-5.082643 5.221757 -1.411663
-5.639726 5.769919 -1.358639
-6.229403 6.405456 -1.283275
-7.228566 7.477787 -1.235717
-8.330288 8.663887 -1.136268
-10.011048 10.472554 -1.020713
0.003821 -0.265324 -0.010815
-16.204531 17.132738 -0.535701
0.003821 -0.265324 -0.010815
-37.492550 40.028698 1.329972
0.003821 -0.265324 -0.010815
-3.788982 3.816492 0.385204
-3.530910 3.541577 0.479823
-3.871357 3.909856 0.661924
-3.862196 3.903064 0.794801
0.003821 -0.265324 -0.010815
-3.796786 3.837128 1.049447
-0.402961 0.174716 -0.365146
-0.415426 0.188512 -0.356907
-0.425457 0.199577 -0.346226
-0.425640 0.200114 -0.327760
-0.431562 0.206887 -0.313834
-0.457198 0.234853 -0.312643
-0.470395 0.249543 -0.302159
-3.074227 3.077662 -1.779232
0.003819 -0.265040 -0.010804
-3.210555 3.229675 -1.609197
-3.423671 3.464129 -1.584980
-3.675729 3.739954 -1.563633
-3.946326 4.037654 -1.532799
-4.267242 4.389047 -1.499964
-4.627621 4.785485 -1.459241
-5.068246 5.270057 -1.416479
-5.607842 5.807914 -1.359640
-6.197608 6.448786 -1.284694
-7.195989 7.535420 -1.238063
-8.286627 8.723688 -1.137610
-9.965287 10.547918 -1.022430
-12.860682 13.698719 -0.874585
-16.187719 17.323002 -0.538651
0.003819 -0.265040 -0.010804
-47.124321 50.985615 1.684836
0.003819 -0.265040 -0.010804
0.003819 -0.265040 -0.010804
-3.581664 3.641344 0.489959
-3.859949 3.947693 0.664249
0.003819 -0.265040 -0.010804
0.003819 -0.265040 -0.010804
-3.771042 3.858457 1.049054
-0.398098 0.174793 -0.363102
-0.408087 0.186059 -0.352988
-0.422781 0.202318 -0.346218
-0.415724 0.194931 -0.322380
-0.430070 0.210993 -0.314680
-0.451760 0.235160 -0.311012
-0.467424 0.252549 -0.302151
-3.056208 3.096958 -1.779972
-3.081758 3.127572 -1.673983
-3.187844 3.245580 -1.607936
-3.403435 3.485478 -1.585590
-3.648050 3.757691 -1.562006
-3.924100 4.063454 -1.533829
-4.227804 4.401584 -1.495858
-4.587073 4.801540 -1.455960
-5.026085 5.290120 -1.413934
-5.579454 5.847672 -1.361285
-6.151011 6.478401 -1.283355
-7.125535 7.549116 -1.233747
-8.250855 8.789191 -1.139870
-9.934583 10.643998 -1.025935
0.003819 -0.264757 -0.010792
-16.129257 17.463531 -0.540186
0.003819 -0.264757 -0.010792
0.003819 -0.264757 -0.010792
0.003819 -0.264757 -0.010792
0.003819 -0.264757 -0.010792
-3.648056 3.761645 0.502538
-24.569786 26.839827 4.309523
0.003819 -0.264757 -0.010792
-3.688174 3.813542 0.899403
-3.608800 3.727427 1.009919
-0.400098 0.182560 -0.367166
-0.410104 0.193936 -0.356891
-0.408172 0.191998 -0.336840
-0.407012 0.191042 -0.317895
-0.423616 0.209802 -0.312111
-0.443975 0.232626 -0.307759
-0.463111 0.254245 -0.301375
-3.036209 3.115324 -1.779986
-3.076015 3.160923 -1.681498
-3.160636 3.257667 -1.604761
-3.381132 3.505893 -1.585608
-3.600410 3.751743 -1.551592
-3.882843 4.069668 -1.527799
-4.194364 4.418900 -1.493587
-4.559138 4.829615 -1.456401
-4.999260 5.325120 -1.415437
-5.552354 5.891216 -1.363576
-6.122710 6.525757 -1.285604
-7.076408 7.588583 -1.233337
-8.207664 8.850112 -1.141397
-9.850245 10.677596 -1.023810
-12.659195 13.807077 -0.872232
-16.093346 17.636505 -0.542610
0.003818 -0.264475 -0.010780
0.003818 -0.264475 -0.010780
-46.176865 51.187401 3.291276
-3.603973 3.756663 0.373094
0.003818 -0.264475 -0.010780
-17.503662 19.277937 3.087405
0.003818 -0.264475 -0.010780
-3.687006 3.860012 0.904933
-3.623044 3.791554 1.020702
-0.392955 0.180004 -0.363086
-0.397002 0.184880 -0.348084
-0.406715 0.195959 -0.337769
-0.403180 0.192358 -0.316991
-0.417261 0.208492 -0.309542
-0.443554 0.238195 -0.309374
-0.458896 0.255821 -0.300599
-3.020416 3.137220 -1.782176
-3.068733 3.192921 -1.688332
-3.139053 3.274676 -1.604138
-3.356843 3.522726 -1.584438
-3.567034 3.761175 -1.547218
-3.866815 4.102379 -1.531351
-4.168633 4.444714 -1.494071
-4.555700 4.885352 -1.464701
-4.994363 5.385014 -1.423198
-5.459005 5.858565 -1.349442
-6.099341 6.578926 -1.288957
-7.068096 7.671016 -1.239818
-8.160378 8.903437 -1.142190
-9.777818 10.723971 -1.022921
-12.781137 14.108423 -0.886240
-16.056435 17.803886 -0.544944
-4.171440 4.434849 -0.003733
0.003816 -0.264191 -0.010769
0.003816 -0.264191 -0.010769
-3.596636 3.795574 0.374776
0.003816 -0.264191 -0.010769
-17.264454 19.235962 3.064753
-3.473073 3.663620 0.732434
-3.655377 3.872598 0.902954
-3.542389 3.747862 1.004293
-0.390374 0.182576 -0.363077
-0.393254 0.186152 -0.347098
-0.401727 0.195941 -0.335887
-0.394646 0.188255 -0.312506
-0.413333 0.209837 -0.308680
-0.439451 0.239666 -0.308555
-0.457112 0.260146 -0.301360
-2.994647 3.147831 -1.778564
-3.067409 3.231995 -1.698577
-3.112366 3.285868 -1.600963
-3.326172 3.532231 -1.580300
-3.559027 3.799279 -1.553827
-3.859478 4.145233 -1.538434
-4.132477 4.458679 -1.490882
-4.513080 4.897074 -1.460592
-4.964354 5.416921 -1.423966
-5.485032 5.959763 -1.364613
-6.076876 6.633538 -1.292588
-7.011784 7.699952 -1.238028
-8.145631 8.993913 -1.147572
-9.752609 10.823831 -1.026975
-11.033268 12.288533 -0.771571
0.003816 -0.263908 -0.010757
-4.135085 4.448570 -0.003773
-11.013887 12.290070 0.395644
-11.017093 12.303088 0.787374
-3.562683 3.804519 0.373623
0.003816 -0.263908 -0.010757
-12.163746 13.636716 2.170427
-3.781632 4.062376 0.803675
-3.699022 3.971142 0.919909
-3.488199 3.732993 0.995334
-0.387805 0.185113 -0.363069
-0.392947 0.191346 -0.349045
-0.397907 0.197222 -0.334942
-0.393223 0.192160 -0.313394
-0.410598 0.212510 -0.308672
-0.434044 0.239821 -0.306924
-0.455312 0.264452 -0.302121
-2.976189 3.166706 -1.779304
-3.061409 3.267460 -1.706776
-3.089404 3.301149 -1.599702
-3.311771 3.560266 -1.583879
-3.522268 3.806080 -1.548356
-3.839108 4.173519 -1.540474
-4.085296 4.461311 -1.484023
-4.477275 4.918123 -1.458966
-4.926720 5.442096 -1.422894
-5.471158 6.016832 -1.370123
-6.029346 6.662294 -1.291249
-6.989304 7.767451 -1.242213
-8.111797 9.063490 -1.150384
-9.754746 10.960076 -1.034190
-10.951647 12.341588 -0.771018
-10.958265 12.358637 -0.380353
0.003792 -0.263645 -0.010746
0.003792 -0.263645 -0.010746
0.003792 -0.263645 -0.010746
-3.539820 3.827378 0.373744
-3.527606 3.816317 0.498700
0.003792 -0.263645 -0.010746
-3.461920 3.744992 0.739971
-3.519047 3.814142 0.880716
-3.366255 3.638793 0.966634
-0.382899 0.185093 -0.361025
-0.390248 0.193966 -0.349037
-0.387104 0.190498 -0.328375
-0.389329 0.193449 -0.312490
-0.405434 0.212477 -0.306957
-0.433533 0.245379 -0.308539
-0.447350 0.261856 -0.299038
-2.950937 3.178930 -1.776417
-3.058165 3.305301 -1.716339
-3.070671 3.322585 -1.600995
-3.297730 3.590289 -1.588053
-3.506281 3.835352 -1.551670
-3.798874 4.180336 -1.534948
-4.075752 4.505747 -1.490474
-4.453735 4.951537 -1.461063
-4.889959 5.466177 -1.421822
-5.415796 6.028512 -1.365652
-5.989380 6.697181 -1.291291
-6.971363 7.843689 -1.247549
-8.075808 9.134396 -1.153199
-9.699091 11.026925 -1.035225
-12.615691 14.431639 -0.892634
0.003790 -0.263361 -0.010734
0.003790 -0.263361 -0.010734
0.003790 -0.263361 -0.010734
-4.477011 4.968188 0.318092
-4.487999 4.983058 0.479865
-3.463934 3.789964 0.492853
-3.532550 3.873292 0.631762
-3.744948 4.123473 0.806717
-3.483990 3.821133 0.877759
-3.249937 3.549884 0.939425
-0.376968 0.183656 -0.357962
-0.387605 0.196511 -0.349029
-0.381058 0.188979 -0.325556
-0.386708 0.195973 -0.312482
-0.405114 0.217791 -0.308657
-0.429410 0.246779 -0.307720
-0.438345 0.257687 -0.295187
-2.932885 3.197058 -1.777157
-3.052166 3.340343 -1.724538
-3.062884 3.354403 -1.607392
-3.277395 3.610393 -1.588664
-3.490086 3.864568 -1.554984
-3.775269 4.203235 -1.535475
-4.046961 4.527950 -1.490039
-4.408131 4.957186 -1.455712
-4.843941 5.477163 -1.417803
-5.393553 6.076421 -1.369231
-6.040378 6.838931 -1.310941
-6.897545 7.852205 -1.242774
-8.038347 9.200745 -1.155647
-9.610680 11.055502 -1.032828
-12.533459 14.507378 -0.892916
-15.835381 18.404797 -0.552265
-4.116918 4.597180 -0.003738
-47.405346 55.696476 1.772488
-4.358657 4.888214 0.311485
0.003790 -0.263079 -0.010723
-3.385942 3.744192 0.484753
0.003790 -0.263079 -0.010723
-3.407858 3.776141 0.738250
-3.382212 3.747356 0.857503
-3.240001 3.581800 0.942761
-0.376684 0.188691 -0.359990
-0.380541 0.193630 -0.345109
-0.376250 0.188701 -0.323674
-0.387591 0.202536 -0.315160
-0.404666 0.223190 -0.310356
-0.426471 0.249542 -0.307712
-0.435429 0.260429 -0.295179
-2.912911 3.214184 -1.777172
-3.044667 3.373987 -1.732056
-3.048099 3.379531 -1.610599
-3.253839 3.628006 -1.588088
-3.469982 3.889298 -1.556652
-3.745777 4.220730 -1.533984
-4.021807 4.554453 -1.490982
-4.379595 4.986542 -1.456569
-4.813593 5.510611 -1.418941
-5.361899 6.111251 -1.370233
-6.021060 6.899661 -1.315678
-6.875149 7.918250 -1.246959
-8.005896 9.270160 -1.158643
-9.571029 11.141497 -1.035649
-12.454679 14.581992 -0.893287
-15.766190 18.541916 -0.553723
0.003789 -0.262796 -0.010711
-17.272348 20.361540 0.643269
-4.036582 4.564247 0.289718
-3.353446 3.751101 0.360933
-3.367222 3.770625 0.485485
0.003789 -0.262796 -0.010711
-3.592684 4.045300 0.784233
-3.406405 3.825227 0.869886
-3.365041 3.777282 0.986319
-0.370705 0.187244 -0.356927
-0.371132 0.188135 -0.339235
-0.373557 0.191236 -0.323666
-0.384827 0.205126 -0.315152
-0.400622 0.224493 -0.309494
-0.421097 0.249547 -0.306082
-0.432336 0.263293 -0.295172
-2.895805 3.235998 -1.779364
-3.041019 3.414006 -1.742303
-3.040940 3.415365 -1.618273
-3.240436 3.659311 -1.592856
-3.455096 3.921959 -1.561067
-3.711727 4.234205 -1.530981
-4.001862 4.589006 -1.494222
-4.367081 5.035346 -1.462804
-4.790534 5.552994 -1.422289
-5.334091 6.155383 -1.372848
-6.008868 6.972093 -1.322351
-6.821427 7.953069 -1.246092
-7.968287 9.340766 -1.161460
-9.505767 11.201435 -1.036002
-12.339626 14.623608 -0.891481
-15.695191 18.684679 -0.555275
-16.408842 19.560869 0.017207
-17.144615 20.457773 0.642925
-3.981156 4.556075 0.287690
-4.109872 4.715456 0.447901
-3.330566 3.775478 0.483585
-3.583228 4.083195 0.654443
0.003788 -0.262512 -0.010700
-3.463660 3.944658 0.891081
-3.445975 3.924881 1.017583
-0.368098 0.189690 -0.356918
-0.367428 0.189222 -0.338249
-0.368703 0.190950 -0.321783
-0.380999 0.206258 -0.314249
-0.395522 0.224300 -0.307779
-0.420555 0.255022 -0.307697
-0.430465 0.267517 -0.295932
-2.872081 3.248575 -1.777202
-3.033556 3.447220 -1.749820
-3.031730 3.447772 -1.624672
-3.226279 3.688540 -1.597031
-3.435327 3.945953 -1.562733
-3.701689 4.275290 -1.537561
-3.959945 4.593474 -1.488738
-4.336194 5.058431 -1.462418
-4.744326 5.563191 -1.418270
-5.295808 6.184757 -1.372563
-5.941971 6.973694 -1.316593
-6.799231 8.023217 -1.250739
-7.934345 9.412955 -1.164644
-9.454266 11.270060 -1.037449
-12.247386 14.686980 -0.891128
-15.631470 18.830713 -0.557001
-16.283991 19.635450 0.017048
0.003785 -0.262227 -0.010688
0.003785 -0.262227 -0.010688
-4.068139 4.721637 0.446318
-3.330658 3.822071 0.486949
-3.364805 3.867051 0.618318
-3.074807 3.513036 0.679291
-2.970214 3.387558 0.768021
-3.203458 3.676771 0.952017
-0.361153 0.186756 -0.352837
-0.360444 0.186198 -0.334330
-0.368324 0.196105 -0.323649
-0.378302 0.208741 -0.314241
-0.394985 0.229689 -0.309478
-0.416328 0.256393 -0.306878
-0.425083 0.267421 -0.294387
-2.851812 3.265353 -1.777217
-3.029248 3.487358 -1.760068
-3.025817 3.484613 -1.632985
-3.204666 3.708839 -1.597643
-3.407910 3.963542 -1.561657
-3.674289 4.295313 -1.537080
-3.935950 4.623241 -1.490600
-4.295961 5.073691 -1.459552
-4.718322 5.602242 -1.420881
-5.239939 6.192448 -1.367769
-5.856507 6.956813 -1.307247
-6.788978 8.108796 -1.257685
-7.898583 9.483521 -1.167644
-9.422121 11.371194 -1.041511
-12.118368 14.704753 -0.888135
-15.559031 18.967316 -0.558464
0.003783 -0.261943 -0.010676
-44.823380 55.190060 1.721326
0.003783 -0.261943 -0.010676
-3.875600 4.544191 0.427876
-3.326365 3.866870 0.489936
-3.112839 3.603698 0.575397
-3.042417 3.519186 0.677029
-2.925021 3.376206 0.761803
0.003783 -0.261943 -0.010676
-0.358494 0.189187 -0.352829
-0.358856 0.190006 -0.335299
-0.362284 0.194452 -0.320830
-0.374397 0.209876 -0.313338
-0.392083 0.232307 -0.309471
-0.414483 0.260507 -0.307682
-0.423108 0.271663 -0.295149
-2.827364 3.278117 -1.775057
-3.018182 3.518241 -1.766224
-3.020096 3.523530 -1.641938
-3.183460 3.731041 -1.598850
-3.387124 3.987895 -1.563325
-3.647202 4.317315 -1.537104
-3.916254 4.656771 -1.493839
-4.259079 5.090973 -1.457512
-4.707760 5.658813 -1.427911
-5.211453 6.236022 -1.370385
-5.875604 7.066401 -1.320826
-6.761580 8.177113 -1.261876
-7.865544 9.561581 -1.171382
-9.322575 11.385036 -1.038016
-12.065578 14.821908 -0.890881
-15.470928 19.092358 -0.559533
-27.153454 33.717133 0.035732
0.003782 -0.261660 -0.010665
0.003782 -0.261660 -0.010665
-3.640104 4.306290 0.404197
-4.862623 5.843438 0.726113
-3.026748 3.543167 0.563423
-2.993468 3.502864 0.670842
-2.913849 3.405657 0.764398
-3.366301 3.977602 1.015659
-0.360166 0.196946 -0.356894
-0.353013 0.188253 -0.332358
-0.361854 0.199595 -0.322696
-0.371674 0.212328 -0.313330
-0.389218 0.234874 -0.309463
-0.409217 0.260310 -0.306051
-0.417744 0.271495 -0.293604
-2.813884 3.303393 -1.779426
-3.004540 3.546162 -1.771015
-3.009998 3.556025 -1.648337
-3.156863 3.745104 -1.597087
-3.359036 4.003083 -1.561698
-3.606397 4.320296 -1.531073
-3.868618 4.655047 -1.486520
-4.226990 5.114154 -1.457128
-4.662657 5.672207 -1.424630
-5.156784 6.244563 -1.365913
-5.790230 7.046090 -1.311201
-6.682050 8.177259 -1.256183
-7.822472 9.624162 -1.173466
-9.298721 11.493564 -1.042902
-12.018204 14.941562 -0.893898
-15.412557 19.248861 -0.561574
-26.864393 33.755505 0.035325
0.003782 -0.261377 -0.010653
-4.322296 5.224066 0.322557
-3.603883 4.314928 0.403040
-3.294632 3.925840 0.492338
-3.057624 3.627948 0.573485
-3.315833 3.957652 0.749629
-2.935365 3.476981 0.775803
-3.465668 4.154832 1.053621
-0.351166 0.191172 -0.350776
-0.346111 0.185090 -0.328438
-0.359192 0.201976 -0.322688
-0.370040 0.216173 -0.314217
-0.384132 0.234556 -0.307748
-0.409480 0.267361 -0.308478
-0.412389 0.271290 -0.292058
-2.795598 3.322771 -1.780892
-2.985371 3.568659 -1.773080
-3.005474 3.595987 -1.657928
-3.132573 3.761998 -1.596513
-3.347867 4.041430 -1.568311
-3.591862 4.356537 -1.536142
-3.839388 4.678205 -1.486547
-4.195032 5.139428 -1.457158
-4.593612 5.656588 -1.414354
-5.148484 6.311708 -1.373683
-5.821292 7.175725 -1.328098
-6.597834 8.170522 -1.249570
-7.782618 9.691283 -1.176101
-9.262006 11.591256 -1.046693
-11.967392 15.058027 -0.896734
-15.329501 19.375404 -0.562774
-26.577274 33.805748 0.034925
-3.484731 4.211670 0.127038
0.003780 -0.261093 -0.010641
-3.598744 4.364862 0.405565
-3.336998 4.032041 0.502650
-3.286413 3.968743 0.621752
-2.989357 3.589820 0.680061
0.003780 -0.261093 -0.010641
-2.925647 3.512238 0.894596
-0.342154 0.185384 -0.344658
-0.338125 0.180537 -0.323541
-0.356444 0.204399 -0.322680
-0.368296 0.220079 -0.315105
-0.380170 0.235626 -0.306886
-0.404207 0.267110 -0.306848
-0.413741 0.279871 -0.295126
-2.776063 3.340570 -1.781633
-2.962137 3.584576 -1.772415
-3.001732 3.637541 -1.668158
-3.109381 3.780242 -1.596532
-3.323050 4.060919 -1.568332
-3.547513 4.354429 -1.528598
-3.832254 4.728290 -1.494837
-4.173182 5.173903 -1.460083
-4.564098 5.687109 -1.415492
-5.123900 6.361161 -1.377589
-5.796584 7.232894 -1.332288
-6.585389 8.258522 -1.256750
-7.749015 9.770663 -1.180025
-9.218018 11.676256 -1.049520
-11.900726 15.160674 -0.898663
-15.241870 19.496861 -0.563843
-26.278122 33.825459 0.034501
-3.456940 4.230967 0.126965
-3.437290 4.207303 0.258291
0.003779 -0.260811 -0.010630
-3.356681 4.107733 0.509394
-3.048962 3.710752 0.580480
-3.273527 4.006169 0.751270
-2.904149 3.526798 0.779032
-2.896699 3.519977 0.892344
-0.339661 0.187588 -0.344650
-0.337775 0.185492 -0.325488
-0.353852 0.206674 -0.322672
-0.364529 0.221000 -0.314201
-0.377311 0.238107 -0.306878
-0.402282 0.271176 -0.307652
-0.410712 0.282480 -0.295119
-2.751891 3.352340 -1.779472
-2.939937 3.601867 -1.772433
-2.993039 3.673128 -1.675836
-3.086056 3.798376 -1.596551
-3.287639 4.066492 -1.563410
-3.533782 4.392004 -1.534171
-3.799938 4.745912 -1.493486
-4.124313 5.177031 -1.454321
-4.525189 5.709661 -1.414422
-5.088053 6.391527 -1.377948
-5.743733 7.253837 -1.330123
-6.582392 8.353829 -1.265308
-7.709826 9.836213 -1.182660
-9.174564 11.762734 -1.052485
-11.860513 15.287518 -0.902228
-15.078170 19.519386 -0.562165
0.003779 -0.260528 -0.010618
0.003779 -0.260528 -0.010618
0.003779 -0.260528 -0.010618
0.003779 -0.260528 -0.010618
-3.559601 4.429099 0.545064
-3.084909 3.806054 0.591946
0.003779 -0.260528 -0.010618
-2.849443 3.501817 0.770204
-2.889139 3.555686 0.896795
-0.338042 0.191266 -0.345660
-0.335122 0.187791 -0.325480
-0.346803 0.203438 -0.318916
-0.361659 0.223466 -0.314193
-0.376523 0.243530 -0.308578
-0.399213 0.273786 -0.307644
-0.408612 0.286670 -0.295881
-2.728188 3.365900 -1.778038
-2.916542 3.617502 -1.771769
-2.987891 3.715337 -1.686067
-3.058481 3.812326 -1.594790
-3.253429 4.073346 -1.559037
-3.518901 4.430204 -1.539745
-3.774553 4.772675 -1.494889
-4.124645 5.243240 -1.465524
-4.496636 5.743774 -1.416297
-5.037809 6.407699 -1.375089
-5.726655 7.321841 -1.336247
-6.509622 8.364486 -1.261225
-7.676203 9.917030 -1.186769
-9.124432 11.841125 -1.054765
-11.792133 15.389802 -0.904160
-14.967785 19.618372 -0.562573
0.003754 -0.260264 -0.010607
0.003754 -0.260264 -0.010607
-3.364431 4.220637 0.256626
0.003754 -0.260264 -0.010607
0.003754 -0.260264 -0.010607
-3.064317 3.829352 0.592629
-3.574662 4.511554 0.833944
-2.823008 3.512150 0.768882
0.003754 -0.260264 -0.010607
-0.335427 0.193515 -0.345652
-0.333580 0.191416 -0.326450
-0.349427 0.212798 -0.323593
-0.356739 0.222967 -0.312394
-0.373634 0.245975 -0.308571
-0.396130 0.276380 -0.307637
-0.404363 0.287829 -0.295105
-2.711716 3.387819 -1.780957
-2.894158 3.634530 -1.771787
-2.981920 3.755578 -1.695660
-3.030438 3.824020 -1.592434
-3.238735 4.106201 -1.564002
-3.499934 4.461539 -1.543301
-3.743201 4.791485 -1.493998
-4.108029 5.287634 -1.470934
-4.459649 5.766706 -1.415595
-4.988699 6.422662 -1.372229
-5.660375 7.324837 -1.331043
-6.466992 8.411667 -1.262659
-7.634157 9.983700 -1.189407
-9.090396 11.941737 -1.058969
-11.734063 15.500994 -0.906727
-14.984400 19.880962 -0.567593
-3.289607 4.167443 -0.004910
0.003753 -0.259981 -0.010596
-3.430313 4.363716 0.263935
-2.990618 3.773378 0.345870
-3.365391 4.281683 0.522851
-3.607292 4.611538 0.704860
-3.452818 4.405079 0.811489
-3.592611 4.597521 0.988771
-3.210129 4.084282 1.013297
-0.329753 0.191579 -0.342588
-0.329952 0.192217 -0.325464
-0.345662 0.213674 -0.322649
-0.356069 0.228200 -0.314177
-0.373933 0.252790 -0.311125
-0.394038 0.280486 -0.308441
-0.401191 0.290459 -0.295097
-2.693994 3.408159 -1.783149
-2.873235 3.654951 -1.773170
-2.975596 3.795874 -1.705254
-3.009149 3.844761 -1.593642
-3.205962 4.116320 -1.560729
-3.463541 4.469418 -1.539289
-3.710873 4.810751 -1.493108
-4.049644 5.277445 -1.461861
-4.452843 5.833007 -1.424838
-4.958352 6.462680 -1.374524
-5.603552 7.342613 -1.328328
-6.398107 8.423457 -1.259035
-7.591590 10.050227 -1.192046
-9.087631 12.090558 -1.067163
-11.665651 15.599143 -0.908567
-14.893085 20.001015 -0.568667
-3.278692 4.208128 -0.004906
0.003753 -0.259699 -0.010584
-2.961600 3.781335 0.228303
-3.077539 3.942578 0.359156
-3.384282 4.364522 0.530152
-3.592080 4.650177 0.707412
-3.453151 4.464147 0.818193
-8.596457 11.501532 2.398505
-3.201302 4.125212 1.018488
-0.327064 0.193835 -0.342580
-0.327263 0.194473 -0.325456
-0.343886 0.217448 -0.323578
-0.354233 0.232045 -0.315065
-0.370896 0.255295 -0.311117
-0.391981 0.284539 -0.309245
-0.397930 0.293126 -0.295090
-2.664515 3.413818 -1.778087
-2.850662 3.671710 -1.773188
-2.969301 3.838291 -1.715487
-2.991476 3.872109 -1.597225
-3.167185 4.116303 -1.554159
-3.433149 4.487047 -1.538306
-3.693059 4.848074 -1.497727
-4.023427 5.308896 -1.463961
-4.415401 5.855641 -1.424136
-4.905603 6.474721 -1.371020
-5.569028 7.387845 -1.330585
-6.338317 8.450295 -1.257482
-7.540844 10.109867 -1.193769
-9.072733 12.220407 -1.073845
-11.593695 15.699064 -0.910411
-14.697463 19.985746 -0.565973
-3.272883 4.254755 -0.004894
-3.238554 4.210947 0.123264
-2.862546 3.695616 0.222190
-2.876556 3.716587 0.337763
-3.280560 4.277773 0.517733
-3.466299 4.538113 0.687937
0.003751 -0.259415 -0.010572
0.003751 -0.259415 -0.010572
-3.186749 4.160359 1.022188
-0.324461 0.196004 -0.342572
-0.325682 0.198053 -0.326426
-0.338045 0.215417 -0.320758
-0.350353 0.232927 -0.314162
-0.365811 0.254791 -0.309402
-0.387798 0.285587 -0.308426
-0.394752 0.295703 -0.295083
-2.641172 3.426342 -1.776653
-2.823599 3.682238 -1.770478
-2.963314 3.880270 -1.725719
-2.972087 3.895768 -1.599620
-3.143076 4.136309 -1.554730
-3.388894 4.483402 -1.530762
-3.674910 4.885382 -1.502345
-3.996987 5.340224 -1.466061
-4.365266 5.860462 -1.419383
-4.871373 6.509549 -1.372349
-5.526073 7.421679 -1.330908
-6.313588 8.522426 -1.262595
-7.496152 10.174415 -1.196225
-9.024020 12.305134 -1.076678
-11.520276 15.791806 -0.911980
-14.488585 19.941978 -0.562608
0.003751 -0.259132 -0.010561
-3.255858 4.289952 0.125034
-2.824625 3.691208 0.220934
-2.867560 3.752848 0.339443
-2.919637 3.828832 0.463437
-3.394736 4.496893 0.679008
-3.940654 5.263182 0.950187
-3.431687 4.554377 0.967162
-3.192046 4.222153 1.032218
-0.321825 0.198181 -0.342564
-0.323045 0.200229 -0.326417
-0.338373 0.221990 -0.323562
-0.346487 0.233780 -0.313258
-0.364932 0.260155 -0.311101
-0.382528 0.285150 -0.306795
-0.393674 0.301299 -0.296613
-2.617761 3.438740 -1.775218
-2.804140 3.703313 -1.772543
-2.958071 3.923843 -1.736591
-2.961354 3.931818 -1.606766
-3.126598 4.167196 -1.559147
-3.343663 4.477847 -1.522714
-3.629522 4.884484 -1.495945
-3.978235 5.382620 -1.471058
-4.356039 5.922728 -1.427889
-4.874677 6.597280 -1.384312
-5.478318 7.448822 -1.330126
-6.265234 8.562165 -1.263110
-7.455566 10.245303 -1.199417
-8.973484 12.388096 -1.079375
-11.431136 15.863068 -0.912363
-14.403271 20.069405 -0.563950
-3.164049 4.212781 -0.005038
-3.244649 4.330136 0.125640
-2.793770 3.696295 0.220249
-2.846724 3.772859 0.339707
-2.774278 3.673497 0.443513
-3.413120 4.581579 0.688355
-3.875685 5.239177 0.942027
-3.009369 4.014771 0.853938
-3.160551 4.232729 1.030334
-0.322170 0.204544 -0.345611
-0.317375 0.198113 -0.323475
-0.335595 0.224235 -0.323554
-0.345713 0.238987 -0.315042
-0.360910 0.261061 -0.310240
-0.379397 0.287640 -0.306788
-0.392576 0.306872 -0.298143
-2.595353 3.452521 -1.774509
-2.778057 3.715055 -1.770515
-2.953492 3.969058 -1.748101
-2.955786 3.975697 -1.616881
-3.101061 4.185419 -1.559169
-3.316337 4.497312 -1.522738
-3.597612 4.902405 -1.495054
-3.930036 5.383240 -1.465296
-4.329362 5.960906 -1.430871
-4.835136 6.625516 -1.384353
-5.439549 7.488632 -1.331555
-6.228053 8.617890 -1.265925
-7.415545 10.317704 -1.202794
-8.955521 12.518252 -1.086061
-11.358789 15.958343 -0.914116
-14.287140 20.153933 -0.564137
-3.130239 4.219748 -0.005075
-3.186089 4.303170 0.124261
-2.798414 3.751923 0.222514
0.003746 -0.258563 -0.010537
-2.756171 3.696227 0.444245
-4.020264 5.512208 0.819295
-3.420484 4.654111 0.837156
0.003746 -0.258563 -0.010537
-2.860763 3.857608 0.939479
-0.316559 0.202448 -0.342548
-0.314759 0.200220 -0.323468
-0.328800 0.220639 -0.319797
-0.339788 0.236861 -0.312347
-0.357917 0.263430 -0.310232
-0.377282 0.291625 -0.307592
-0.391414 0.312464 -0.299674
-2.565469 3.455427 -1.768721
-2.752987 3.728191 -1.769169
-2.958205 4.028378 -1.765357
-2.951976 4.022797 -1.628185
-3.089642 4.224052 -1.566333
-3.293302 4.522988 -1.524781
-3.577793 4.937743 -1.499214
-3.898600 5.407679 -1.465741
-4.295719 5.989256 -1.431644
-4.799915 6.660028 -1.385682
-5.388076 7.510357 -1.329944
-6.177986 8.655521 -1.266211
-7.371556 10.385063 -1.205620
-8.948842 12.666671 -1.094260
-11.270915 16.031986 -0.914684
-14.055664 20.071688 -0.559838
-4.156371 5.759798 -0.003260
-3.240459 4.438541 0.127675
-2.734421 3.709090 0.219070
0.003745 -0.258280 -0.010526
0.003745 -0.258280 -0.010526
-3.412383 4.701318 0.699784
-2.953056 4.036293 0.727529
-2.877210 3.929456 0.829757
-2.805844 3.828985 0.929036
-0.315848 0.207406 -0.344577
-0.312108 0.202333 -0.323459
-0.328024 0.225751 -0.321663
-0.337936 0.240592 -0.313235
-0.353893 0.264287 -0.309371
-0.375050 0.295662 -0.308396
-0.400631 0.333296 -0.308895
-2.539852 3.464260 -1.765835
-2.728240 3.743182 -1.768507
-2.969807 4.098856 -1.787083
0.003744 -0.257996 -0.010514
-3.068410 4.250545 -1.569103
-3.297327 4.588538 -1.539439
-3.551291 4.965605 -1.501080
-3.850613 5.409970 -1.460393
-4.256392 6.011655 -1.430945
-4.775648 6.710621 -1.390236
-5.347506 7.550641 -1.331375
-6.105243 8.660088 -1.261898
-7.333781 10.462136 -1.209549
-8.928354 12.802155 -1.101227
-11.187110 16.111731 -0.915617
-14.003816 20.248325 -0.562559
0.003744 -0.257996 -0.010514
-2.760370 3.793476 0.108197
-2.716051 3.731662 0.219432
-3.075840 4.263058 0.377423
-2.710866 3.730447 0.444395
-3.353602 4.676857 0.693433
0.003744 -0.257996 -0.010514
-2.734804 3.773731 0.795160
-2.835253 3.923417 0.946884
-0.317918 0.216692 -0.349661
-0.308395 0.203033 -0.322473
-0.326145 0.229451 -0.322593
-0.336972 0.245858 -0.315018
-0.351811 0.268171 -0.310217
-0.371875 0.298099 -0.308389
-0.405385 0.348204 -0.315040
-2.520855 3.484187 -1.768029
-2.704121 3.757546 -1.767844
-2.932271 4.099389 -1.780083
-2.943352 4.119361 -1.651390
-3.044555 4.271616 -1.570225
-3.273922 4.616334 -1.541989
-3.518991 4.983022 -1.500190
-3.819025 5.433948 -1.460839
-4.228991 6.049407 -1.433928
-4.738663 6.745652 -1.391568
-5.302460 7.581594 -1.331423
-6.055566 8.701385 -1.262646
-7.286815 10.530472 -1.212379
-8.871990 12.881756 -1.103653
-11.109926 16.207918 -0.917375
0.003743 -0.257714 -0.010503
0.003743 -0.257714 -0.010503
-2.707253 3.766965 0.106919
-3.069355 4.308193 0.251564
-2.990739 4.193270 0.369903
-2.714528 3.785949 0.448882
-2.913401 4.085256 0.606500
-2.999807 4.215807 0.752151
-2.721445 3.804465 0.798077
-2.694422 3.767454 0.907407
-0.316148 0.220240 -0.350672
-0.310606 0.212338 -0.327355
-0.324328 0.233083 -0.323522
-0.333087 0.246595 -0.314115
-0.349768 0.272006 -0.311063
-0.363591 0.292936 -0.304323
-2.356320 3.281522 -1.782375
-2.499260 3.498940 -1.768046
-2.683044 3.776470 -1.769227
-2.897687 4.102290 -1.774359
-2.941366 4.171517 -1.664477
-3.023766 4.297358 -1.572995
-3.247943 4.638626 -1.543023
-3.483374 4.995384 -1.497922
-3.813232 5.496903 -1.471218
-4.202375 6.088701 -1.437280
-4.697181 6.771461 -1.391288
-5.288070 7.658391 -1.339210
-6.022666 8.764467 -1.266613
-7.241168 10.597390 -1.215208
-8.828321 12.981039 -1.107731
-11.032692 16.298491 -0.918948
-13.642368 20.229801 -0.558005
-4.078471 5.873918 -0.003316
-2.727241 3.847703 0.108786
-3.336098 4.766966 0.276745
-2.967269 4.214049 0.370163
-2.717651 3.841618 0.453368
-2.889449 4.103920 0.606713
-2.953219 4.201951 0.746803
0.003742 -0.257431 -0.010491
-2.784016 3.953620 0.946098
-0.312452 0.220912 -0.349646
-0.304053 0.208597 -0.323436
-0.319561 0.232289 -0.321640
-0.328213 0.245818 -0.312316
-0.346719 0.274311 -0.311056
-0.362445 0.298361 -0.305940
-2.325750 3.279905 -1.774700
-2.477615 3.513541 -1.768063
-2.663915 3.798419 -1.771975
-2.865268 4.108090 -1.769912
-2.939939 4.225377 -1.678159
-3.002758 4.323032 -1.575765
-3.217596 4.654286 -1.542040
-3.453100 5.015625 -1.497951
-3.783277 5.523948 -1.472493
-4.162544 6.108147 -1.436211
-4.656623 6.798694 -1.391329
-5.203144 7.629472 -1.329308
-5.969524 8.797632 -1.266440
-7.198289 10.669123 -1.218588
-8.802470 13.108573 -1.114149
-10.956973 16.392067 -0.920705
-13.298916 19.965866 -0.549030
-4.043109 5.897599 -0.003351
-2.720025 3.888711 0.109491
-3.017695 4.345499 0.251613
-2.934924 4.221345 0.369292
0.003741 -0.257147 -0.010479
-2.869721 4.129112 0.607863
-2.901459 4.179431 0.740055
-2.673408 3.834506 0.797712
0.003741 -0.257147 -0.010479
-0.307812 0.220122 -0.347601
-0.303272 0.213565 -0.325383
-0.320605 0.240337 -0.325381
-0.326284 0.249506 -0.313204
-0.342665 0.275085 -0.310194
-0.366102 0.311547 -0.311614
-2.302330 3.288883 -1.772408
-2.455849 3.528047 -1.768080
-2.639800 3.814452 -1.771995
-2.843191 4.129572 -1.771849
0.003740 -0.256864 -0.010468
-2.971355 4.334599 -1.573591
-3.185047 4.666536 -1.540047
-3.413302 5.023235 -1.494306
-3.720231 5.502218 -1.461350
-4.117265 6.121448 -1.433671
-4.621333 6.833932 -1.392983
-5.163844 7.672107 -1.331293
-5.899948 8.805508 -1.262816
-7.161332 10.750744 -1.223072
-8.740424 13.187622 -1.116443
-10.892505 16.503756 -0.923466
-12.937204 19.665112 -0.539160
0.003740 -0.256864 -0.010468
0.003740 -0.256864 -0.010468
-2.947686 4.296044 0.247786
-2.952786 4.307627 0.375067
0.003740 -0.256864 -0.010468
-2.998713 4.384340 0.641333
0.003740 -0.256864 -0.010468
-2.668372 3.880430 0.803562
-2.598947 3.774682 0.898417
-0.307765 0.226591 -0.350648
-0.304246 0.221534 -0.329287
-0.314773 0.238082 -0.322562
-0.325213 0.254740 -0.314988
-0.340499 0.278917 -0.311041
-0.370744 0.326237 -0.318101
-2.280279 3.301200 -1.771655
-2.431355 3.539692 -1.766647
-2.610240 3.820369 -1.767921
-2.814048 4.141869 -1.769956
0.003716 -0.256602 -0.010457
-2.943841 4.350300 -1.573065
-3.154770 4.683984 -1.539569
-3.379700 5.038173 -1.492957
-3.699641 5.543634 -1.466349
-4.086820 6.155281 -1.435918
-4.583461 6.868157 -1.394316
-5.157778 7.763624 -1.341570
-5.883694 8.899132 -1.270927
-7.118528 10.828506 -1.227008
-8.688779 13.278286 -1.119837
-10.838242 16.638971 -0.927418
-4.069349 6.095899 -0.178445
-3.982783 5.963553 -0.003402
0.003716 -0.256602 -0.010457
0.003716 -0.256602 -0.010457
-3.015678 4.464350 0.386781
-2.650005 3.896051 0.454059
-2.781929 4.106044 0.599856
-2.792948 4.125185 0.725157
-2.691187 3.969242 0.817891
-2.572875 3.787026 0.897653
-0.301290 0.222842 -0.346566
-0.301494 0.223575 -0.329279
-0.311918 0.240191 -0.322554
-0.326107 0.262938 -0.318563
-0.342259 0.288806 -0.315304
-0.386976 0.359525 -0.334329
-2.253830 3.305202 -1.767056
-2.408465 3.552343 -1.765938
-2.582705 3.829263 -1.765211
-2.781596 4.147067 -1.765509
-2.948025 4.414081 -1.728713
-2.929599 4.386972 -1.579682
-3.114903 4.684363 -1.534044
-3.353311 5.064427 -1.494823
-3.664103 5.561819 -1.465554
-4.018409 6.129097 -1.424902
-4.542372 6.894718 -1.394359
-5.094511 7.766741 -1.337196
-5.842610 8.951591 -1.273516
-7.074871 10.901541 -1.230575
-8.635280 13.367148 -1.123093
-10.793175 16.784094 -0.932007
0.003715 -0.256318 -0.010445
0.003715 -0.256318 -0.010445
0.003715 -0.256318 -0.010445
-3.056459 4.587513 0.262188
-2.584722 3.842651 0.333165
-3.106342 4.672691 0.538865
-2.767363 4.139095 0.602176
-2.709593 4.049370 0.709723
0.003715 -0.256318 -0.010445
-2.541175 3.788783 0.894656
-0.299434 0.226336 -0.347577
-0.301519 0.230031 -0.332206
-0.320335 0.260231 -0.333794
-0.336418 0.286315 -0.331095
-0.349687 0.307921 -0.324690
0.003714 -0.256035 -0.010433
-2.230342 3.313724 -1.764764
-2.385526 3.564843 -1.765230
-2.560138 3.845951 -1.765913
-2.757205 4.164908 -1.766169
-2.942343 4.465272 -1.741210
-2.918106 4.428511 -1.587948
-3.109946 4.740286 -1.545677
-3.327790 5.092183 -1.497148
-3.620210 5.566497 -1.461446
-4.015844 6.207504 -1.437098
-4.508480 6.932743 -1.396658
-5.051403 7.801258 -1.338075
-5.830672 9.051007 -1.282548
-7.025328 10.966002 -1.233223
-8.565176 13.430462 -1.124286
-10.741518 16.920773 -0.936141
-13.131392 20.758471 -0.562433
-21.157904 33.614731 0.027189
0.003714 -0.256035 -0.010433
-3.452471 5.285059 0.300277
-2.579039 3.886541 0.335549
-3.127384 4.770246 0.547660
-2.765114 4.192353 0.607306
-2.670123 4.041661 0.705779
-2.652788 4.017315 0.821111
0.003714 -0.256035 -0.010433
-0.303019 0.238581 -0.354699
-0.313425 0.255783 -0.347847
-0.330378 0.283403 -0.346908
-0.367186 0.343273 -0.363334
-0.401604 0.399445 -0.374212
-2.100649 3.147337 -1.787369
-2.213642 3.333075 -1.767856
-2.362517 3.577214 -1.764522
-2.531562 3.852899 -1.762521
-2.727732 4.174543 -1.763638
-2.939150 4.521452 -1.755489
-2.919312 4.491385 -1.603357
-3.089251 4.771583 -1.549741
-3.303064 5.121494 -1.499933
-3.607137 5.620861 -1.469759
-3.976515 6.227455 -1.436399
-4.464940 6.955518 -1.396056
-4.995555 7.815340 -1.335636
-5.788488 9.103306 -1.285138
-6.976308 11.031976 -1.236055
-8.497801 13.498492 -1.125893
-10.683399 17.048918 -0.939821
-13.201293 21.143711 -0.570689
-20.863859 33.576267 0.026768
0.003714 -0.255753 -0.010422
-2.998381 4.619605 0.261947
-2.564568 3.916909 0.336802
-3.104658 4.798650 0.548759
-2.764399 4.249137 0.612903
-2.658814 4.079204 0.709401
-2.785007 4.288474 0.870655
-2.873468 4.436555 1.031937
-0.299276 0.239152 -0.353672
-0.311379 0.259382 -0.348816
-0.330967 0.291624 -0.350649
-0.368391 0.353317 -0.367805
-0.474194 0.527058 -0.443378
-2.074718 3.150671 -1.782513
-2.189111 3.339742 -1.764795
-2.339441 3.589459 -1.763813
-2.503240 3.861715 -1.759812
-2.698254 4.183984 -1.761106
-2.931437 4.571234 -1.767393
-2.913075 4.545068 -1.615471
-3.071325 4.807765 -1.555320
-3.266055 5.132976 -1.497666
-3.559028 5.620704 -1.464411
-3.943095 6.259625 -1.438280
-4.397615 6.939295 -1.388040
-4.915577 7.792730 -1.327116
-5.715880 9.106249 -1.281056
-6.931972 11.106242 -1.239808
-8.437892 13.584723 -1.128880
-10.597133 17.132605 -0.941128
-13.031068 21.142822 -0.568835
0.003709 -0.255466 -0.010410
0.003709 -0.255466 -0.010410
0.003709 -0.255466 -0.010410
-2.537693 3.928959 0.336498
-3.108729 4.873452 0.554922
-2.758003 4.297549 0.617329
-2.668988 4.154484 0.719185
-2.858170 4.470644 0.902586
-2.797587 4.372626 1.014050
-0.295440 0.239754 -0.352646
-0.305628 0.257031 -0.345875
-0.333201 0.302950 -0.356266
-0.364771 0.355798 -0.367798
-0.473425 0.536264 -0.446789
-2.057919 3.167536 -1.784963
-2.164894 3.348209 -1.762504
-2.316315 3.601552 -1.763106
-2.478535 3.874733 -1.759150
-2.663854 4.185124 -1.755381
-2.907535 4.594868 -1.769794
-2.912093 4.606583 -1.630333
-3.047106 4.833949 -1.557871
-3.258991 5.192059 -1.508720
-3.517129 5.625661 -1.460717
-3.918757 6.302088 -1.442738
-4.365064 6.982445 -1.391308
-4.939769 7.938215 -1.346245
-5.666410 9.150490 -1.282498
-6.880898 11.174751 -1.242828
-8.372468 13.657310 -1.130900
-10.517501 17.234823 -0.943353
-12.992167 21.358288 -0.572642
0.003709 -0.255183 -0.010398
-3.377702 5.377943 0.148201
-3.432332 5.471540 0.307215
-3.214177 5.112469 0.433021
-3.069811 4.873959 0.553020
-2.762370 4.364773 0.624330
-2.614064 4.120810 0.711038
0.003709 -0.255183 -0.010398
-2.654993 4.194971 0.971234
-0.292680 0.241691 -0.352638
-0.305446 0.263526 -0.348801
-0.332798 0.309654 -0.359070
-0.371433 0.375015 -0.377644
-0.471621 0.543952 -0.449345
-2.031649 3.168615 -1.779294
-2.146627 3.363707 -1.764058
-2.293119 3.613515 -1.762397
-2.455675 3.890843 -1.759852
-2.640191 4.203930 -1.756681
-2.869838 4.595382 -1.763879
-2.907583 4.663261 -1.643547
-3.007889 4.835056 -1.552850
-3.215696 5.190911 -1.503237
-3.472233 5.629869 -1.456611
-3.885801 6.335659 -1.444989
-4.330653 7.017170 -1.393285
-4.883398 7.951493 -1.343807
-5.617883 9.189097 -1.283476
-6.841420 11.254358 -1.247316
-8.309585 13.734722 -1.133335
-10.449282 17.343386 -0.946119
-12.962433 21.592937 -0.576941
-3.405429 5.494326 -0.004265
-3.416538 5.515702 0.151501
-3.242542 5.226797 0.292554
-3.253317 5.249665 0.442744
-3.125466 5.038080 0.568938
-2.583143 4.122699 0.588955
-2.645211 4.231590 0.726705
-2.859733 4.599020 0.920795
-2.586405 4.137712 0.955211
-0.290601 0.245207 -0.353649
-0.300592 0.262628 -0.346837
-0.322292 0.299725 -0.351565
-0.363158 0.369804 -0.373159
-0.461400 0.537666 -0.444216
-2.010977 3.178973 -1.778497
-2.120475 3.368688 -1.760229
-2.269183 3.625739 -1.761690
-2.434608 3.910079 -1.761919
-2.609862 4.213266 -1.754150
-2.841992 4.614252 -1.764500
-2.902499 4.720065 -1.656761
-2.982530 4.861454 -1.555402
-3.195084 5.228118 -1.508320
-3.444208 5.660196 -1.459128
-3.856702 6.373498 -1.448344
-4.311455 7.083859 -1.401068
-4.824039 7.959270 -1.340540
-5.535601 9.178014 -1.277554
-6.789160 11.322511 -1.250337
-8.242031 13.804996 -1.135220
-10.385132 17.474293 -0.949899
-12.940716 21.854364 -0.581872
0.003707 -0.254616 -0.010375
0.003707 -0.254616 -0.010375
-3.177730 5.191038 0.289484
-3.125013 5.103210 0.429147
-3.069858 5.013299 0.564220
0.003707 -0.254616 -0.010375
-2.768890 4.503701 0.768704
-2.555726 4.141656 0.830134
-2.596862 4.216139 0.968956
-0.288589 0.248658 -0.354660
-0.296750 0.263130 -0.345852
-0.323522 0.309521 -0.356244
-0.363157 0.378363 -0.376735
-0.467706 0.559392 -0.454458
-1.990269 3.189195 -1.777700
-2.106049 3.392319 -1.765629
-2.246816 3.639023 -1.761708
-2.406837 3.917801 -1.759209
-2.582214 4.225216 -1.752895
-2.804368 4.614286 -1.758585
0.003706 -0.254334 -0.010364
-2.966550 4.902310 -1.562496
-3.164437 5.248403 -1.508809
-3.414990 5.688690 -1.461232
-3.807709 6.377137 -1.444329
-4.280031 7.127635 -1.404660
-4.771704 7.978629 -1.339208
-5.474244 9.197980 -1.276003
-6.742370 11.396156 -1.254094
-8.190933 13.904321 -1.139446
-10.306886 17.575598 -0.952214
-12.865227 22.018839 -0.584348
-19.393389 33.332951 0.024654
0.003706 -0.254334 -0.010364
-3.166276 5.244169 0.291353
-3.077173 5.092043 0.426715
-3.151759 5.226177 0.585388
-2.802193 4.623233 0.652817
-7.753025 13.235666 2.190902
-2.553987 4.197654 0.837936
-2.554447 4.202357 0.962609
-0.289970 0.258078 -0.359745
-0.294632 0.266646 -0.346822
-0.322914 0.316267 -0.359049
-0.361292 0.383843 -0.378520
-0.459429 0.556087 -0.451037
-1.967986 3.198066 -1.776091
-2.084106 3.403069 -1.764876
-2.223454 3.650556 -1.761000
-2.382984 3.933923 -1.759913
-2.554509 4.237005 -1.751640
-2.774422 4.627307 -1.757422
-2.885990 4.827779 -1.680995
-2.932045 4.911173 -1.560000
-3.136551 5.275831 -1.511138
-3.398979 5.743184 -1.469548
-3.792536 6.442657 -1.453583
-4.244333 7.164435 -1.406961
-4.741475 8.039749 -1.344515
-5.426648 9.241696 -1.277675
-6.690987 11.462751 -1.257114
-8.137474 14.006666 -1.143814
-10.225855 17.673117 -0.954348
-11.013639 19.070389 -0.506851
-11.003232 19.068876 0.009575
-10.974448 19.027218 0.524666
-3.106913 5.213991 0.288664
-3.127234 5.254464 0.438413
-2.923525 4.900523 0.548031
-2.860338 4.791612 0.673391
0.003704 -0.254050 -0.010352
-2.543080 4.240520 0.843129
-2.483235 4.136932 0.945099
-0.282711 0.252584 -0.354645
-0.296680 0.277807 -0.352683
-0.319512 0.318486 -0.359042
-0.353102 0.378497 -0.374034
-0.460837 0.570125 -0.457010
-1.948083 3.209629 -1.776106
-2.060565 3.412443 -1.763354
-2.199343 3.662341 -1.760293
-2.356070 3.942950 -1.757886
-2.526903 4.250713 -1.751025
-2.744474 4.642315 -1.756854
0.003704 -0.253767 -0.010340
-2.905145 4.935516 -1.562047
-3.112278 5.307673 -1.514843
-3.375869 5.783432 -1.474551
-3.755849 6.468096 -1.454359
-4.200267 7.189763 -1.407008
