# This PCD file was generated using the MATLAB® pcwrite function
# from Computer Vision Toolbox®.
# .PCD v.7 - Point Cloud Data file format
VERSION .7
FIELDS x y z
SIZE 4 4 4
TYPE F F F
COUNT 1 1 1
WIDTH 1675
HEIGHT 1
VIEWPOINT 0 0 0 1 0 0 0
POINTS 1675
DATA ascii
11.191549 6.168875 -1.215149
11.220940 6.183046 -0.916861
11.274952 6.208545 -0.619316
26.165775 14.631396 -0.723132
20.727123 11.544798 -0.021540
20.732790 11.538636 0.531250
20.759848 11.549322 1.090113
55.581947 31.187687 4.417504
55.340530 31.039230 5.882414
57.992081 32.508572 7.737316
56.622906 31.711433 9.086227
0.001984 -0.172291 -0.007678
53.818436 30.096090 11.588410
0.504511 0.109672 -0.349763
0.537285 0.127798 -0.352869
2.945609 1.476041 -1.803946
3.113025 1.568384 -1.800030
3.314722 1.679733 -1.806761
3.529201 1.798854 -1.809415
3.713633 1.900245 -1.786162
3.959486 2.035738 -1.780250
4.229375 2.185371 -1.772563
4.509747 2.339701 -1.754658
4.846941 2.525416 -1.741535
5.212142 2.727603 -1.721179
5.631966 2.958729 -1.698056
6.140003 3.239894 -1.675915
6.754767 3.578598 -1.654231
7.495599 3.986716 -1.627530
8.436936 4.555536 -1.602063
9.723761 5.274616 -1.580392
11.009950 5.990261 -1.488136
11.181598 6.081327 -1.210250
11.200507 6.089433 -0.912322
11.223206 6.097088 -0.614562
0.001992 -0.172010 -0.007666
0.001992 -0.172010 -0.007666
0.001992 -0.172010 -0.007666
20.800791 11.415328 1.088793
55.050137 30.484089 4.361609
56.335411 31.174601 5.969147
21.472712 11.765704 2.850730
0.001992 -0.172010 -0.007666
0.001992 -0.172010 -0.007666
0.001992 -0.172010 -0.007666
0.515139 0.112029 -0.355877
0.537483 0.124149 -0.351875
2.959686 1.461898 -1.806747
3.127675 1.553294 -1.802706
3.325333 1.660907 -1.806741
3.539210 1.777271 -1.808580
3.725517 1.879125 -1.786142
3.975383 2.014978 -1.781686
4.243295 2.160534 -1.772541
4.529131 2.316735 -1.756559
4.857382 2.495006 -1.739721
5.234313 2.699702 -1.722811
5.654992 2.929337 -1.699554
6.163558 3.205581 -1.676812
6.783749 3.542505 -1.655870
7.521852 3.943408 -1.627872
8.474352 4.512886 -1.603984
9.764566 5.221927 -1.581754
10.996566 5.900184 -1.481571
11.168579 5.990192 -1.204978
11.188532 5.996210 -0.908344
11.203099 6.001790 -0.611505
0.001976 -0.171748 -0.007654
0.001976 -0.171748 -0.007654
0.001976 -0.171748 -0.007654
20.809372 11.263942 1.085818
55.418095 30.260113 4.376558
56.130962 30.626585 5.928121
0.001976 -0.171748 -0.007654
0.001976 -0.171748 -0.007654
0.001976 -0.171748 -0.007654
54.023605 29.398676 11.558784
0.513790 0.107606 -0.353822
0.522389 0.112065 -0.341075
2.966233 1.442916 -1.804848
3.136292 1.534149 -1.801788
3.332974 1.639709 -1.805007
3.547184 1.755422 -1.806930
3.742459 1.859900 -1.788437
3.991568 1.993426 -1.783121
4.256648 2.136348 -1.772519
4.540462 2.288289 -1.755253
4.873118 2.466434 -1.739697
5.254135 2.671633 -1.723892
5.671583 2.895104 -1.699021
6.188030 3.173099 -1.678173
6.810196 3.506475 -1.657093
7.548884 3.902197 -1.628585
8.510671 4.467566 -1.605579
9.814598 5.176348 -1.584794
10.987014 5.810431 -1.475472
11.203186 5.923180 -1.204752
11.204567 5.921498 -0.906759
11.192130 5.909771 -0.608920
0.001983 -0.171467 -0.007642
0.001983 -0.171467 -0.007642
0.001983 -0.171467 -0.007642
0.001983 -0.171467 -0.007642
56.511612 30.438852 4.449204
0.001983 -0.171467 -0.007642
56.152252 30.194521 7.420156
21.527609 11.464902 3.416964
0.001983 -0.171467 -0.007642
0.001983 -0.171467 -0.007642
0.515404 0.104941 -0.353808
0.517874 0.106041 -0.337139
2.978595 1.427773 -1.806709
3.152368 1.519737 -1.805363
3.356095 1.627614 -1.811841
3.566255 1.739556 -1.810983
3.763860 1.843837 -1.793047
4.005597 1.971565 -1.783829
4.273190 2.113872 -1.773867
4.556242 2.263303 -1.755872
4.888207 2.438608 -1.739674
5.270411 2.641620 -1.723867
5.687438 2.861778 -1.698488
6.205451 3.136780 -1.677684
6.834710 3.469335 -1.657899
7.580897 3.863585 -1.630412
8.535485 4.417836 -1.605221
9.860905 5.128473 -1.587274
10.984526 5.727636 -1.470539
11.150346 5.811785 -1.195368
11.156834 5.812863 -0.900109
11.172370 5.816275 -0.605958
0.001967 -0.171205 -0.007631
0.001967 -0.171205 -0.007631
0.001967 -0.171205 -0.007631
0.001967 -0.171205 -0.007631
57.030037 30.296686 4.476332
55.909050 29.673210 5.868218
56.802876 30.125399 7.483178
57.953556 30.726685 9.183836
0.001967 -0.171205 -0.007631
58.475956 30.953884 12.433649
0.516968 0.102240 -0.353795
0.513307 0.100080 -0.333203
2.986180 1.410044 -1.805750
3.157309 1.499330 -1.802648
3.361588 1.605997 -1.809251
3.582367 1.721209 -1.813406
3.775397 1.822418 -1.793027
4.012926 1.946144 -1.781622
4.281687 2.086143 -1.771789
4.573531 2.239083 -1.757132
4.909924 2.414279 -1.742038
5.283602 2.608805 -1.722738
5.713362 2.833770 -1.701000
6.224972 3.100207 -1.677657
6.852722 3.427199 -1.657036
7.609894 3.821557 -1.631496
8.561771 4.368915 -1.605189
9.906177 5.077608 -1.589474
10.972674 5.640423 -1.464441
11.135330 5.721705 -1.190095
11.142738 5.720750 -0.896132
11.151904 5.723212 -0.602995
0.001975 -0.170924 -0.007619
0.001975 -0.170924 -0.007619
0.001975 -0.170924 -0.007619
0.001975 -0.170924 -0.007619
0.001975 -0.170924 -0.007619
55.868259 29.227308 5.845654
56.443569 29.517994 7.413281
58.416275 30.530161 9.228342
56.699230 29.602997 10.476129
56.193153 29.325249 11.911778
0.530783 0.105838 -0.361951
0.530354 0.105387 -0.342996
2.998652 1.394233 -1.807611
3.170326 1.482507 -1.804425
3.364075 1.582147 -1.804948
3.587057 1.696842 -1.810127
3.782254 1.797722 -1.790690
4.027076 1.923456 -1.782328
4.293334 2.060124 -1.771081
4.584384 2.210450 -1.755826
4.926860 2.386271 -1.742611
5.298292 2.576815 -1.722161
5.729353 2.799212 -1.700467
6.245994 3.064406 -1.678092
6.880888 3.390368 -1.658676
7.647421 3.783870 -1.634437
8.595536 4.321989 -1.606458
9.947651 5.024535 -1.591115
10.971729 5.557136 -1.459740
11.124186 5.631899 -1.185196
11.135018 5.632705 -0.892717
11.144140 5.635093 -0.600693
0.001982 -0.170643 -0.007607
0.001982 -0.170643 -0.007607
0.001982 -0.170643 -0.007607
0.001982 -0.170643 -0.007607
0.001982 -0.170643 -0.007607
0.001982 -0.170643 -0.007607
57.442238 29.610022 7.521388
59.904022 30.860384 9.434472
57.265667 29.468824 10.548335
58.259510 29.970888 12.312125
0.523151 0.098435 -0.355811
2.863772 1.304400 -1.818889
3.007325 1.377745 -1.807592
3.184288 1.467538 -1.807101
3.383449 1.568588 -1.810068
3.594180 1.675410 -1.808477
3.796466 1.778553 -1.792212
4.037043 1.900378 -1.781578
4.310732 2.038978 -1.773115
4.602654 2.187695 -1.757727
4.942754 2.359885 -1.743184
5.323821 2.552745 -1.725450
5.747574 2.768361 -1.700949
6.260486 3.028007 -1.677141
6.898923 3.351307 -1.658230
7.676384 3.744989 -1.635892
8.636275 4.282379 -1.609354
9.997621 4.980101 -1.594433
10.962903 5.475166 -1.454342
11.113914 5.548141 -1.180672
11.124670 5.548866 -0.889304
11.131945 5.550252 -0.598297
0.001964 -0.170379 -0.007595
0.001964 -0.170379 -0.007595
0.001964 -0.170379 -0.007595
69.162552 35.272770 3.572313
0.001964 -0.170379 -0.007595
0.001964 -0.170379 -0.007595
0.001964 -0.170379 -0.007595
59.062088 30.007626 9.275220
58.486664 29.688408 10.742678
58.078377 29.467728 12.238806
0.524712 0.095594 -0.355798
2.880237 1.291611 -1.823774
3.022753 1.363358 -1.811332
3.192358 1.448099 -1.806182
3.392096 1.547955 -1.809191
3.603110 1.654139 -1.807642
3.807952 1.756277 -1.792191
4.047600 1.875846 -1.780828
4.323376 2.014405 -1.773093
4.616566 2.160642 -1.757704
4.955973 2.329947 -1.742563
5.334255 2.519733 -1.723769
5.764894 2.734497 -1.700923
6.284024 2.994835 -1.678500
6.924314 3.314449 -1.659453
7.704063 3.703665 -1.636976
8.671317 4.235821 -1.610947
10.046528 4.932616 -1.597471
10.951920 5.387857 -1.448476
11.101455 5.458985 -1.175773
11.109365 5.460664 -0.885467
11.121116 5.461840 -0.595901
0.001971 -0.170098 -0.007582
0.001971 -0.170098 -0.007582
0.001971 -0.170098 -0.007582
0.001971 -0.170098 -0.007582
0.001971 -0.170098 -0.007582
0.001971 -0.170098 -0.007582
0.001971 -0.170098 -0.007582
59.411694 29.756565 9.303097
0.001971 -0.170098 -0.007582
0.001971 -0.170098 -0.007582
0.526255 0.092871 -0.355784
2.880825 1.271397 -1.818851
3.029977 1.345444 -1.810373
3.206396 1.432358 -1.808858
3.403535 1.529479 -1.810028
3.612254 1.632218 -1.806807
3.818984 1.734610 -1.792170
4.057637 1.851955 -1.780078
4.336258 1.989008 -1.773070
4.624812 2.131771 -1.755757
4.977121 2.305060 -1.744926
5.339785 2.483196 -1.720429
5.779800 2.700693 -1.700390
6.300934 2.956919 -1.678011
6.950118 3.276211 -1.660674
7.728661 3.659056 -1.637317
8.701836 4.188772 -1.611891
10.089030 4.879443 -1.599391
10.951748 5.308998 -1.444242
11.076678 5.366776 -1.169754
11.089016 5.368212 -0.881209
11.114042 5.378392 -0.593787
0.001955 -0.169836 -0.007571
70.841736 35.139717 -0.052153
0.001955 -0.169836 -0.007571
0.001955 -0.169836 -0.007571
63.865208 31.594509 4.939722
0.001955 -0.169836 -0.007571
61.771305 30.513851 8.018653
0.001955 -0.169836 -0.007571
60.760677 29.960085 11.095522
0.001955 -0.169836 -0.007571
0.529338 0.090785 -0.356792
2.889311 1.254558 -1.818832
3.037325 1.326942 -1.809413
3.212660 1.412030 -1.807041
3.420045 1.512738 -1.813434
3.627480 1.614090 -1.809230
3.831881 1.713030 -1.792921
4.071243 1.828969 -1.780784
4.346930 1.963464 -1.772362
4.645194 2.107926 -1.758299
4.988290 2.274103 -1.743708
5.349802 2.450166 -1.718747
5.801939 2.669199 -1.701886
6.313592 2.918317 -1.676597
6.969845 3.236429 -1.660646
7.757631 3.618229 -1.638772
8.745225 4.146099 -1.615111
10.128572 4.826813 -1.601031
10.939529 5.222290 -1.438376
11.064678 5.279284 -1.165042
11.081322 5.285174 -0.878077
11.109087 5.294130 -0.591768
0.001962 -0.169555 -0.007559
0.001962 -0.169555 -0.007559
0.001962 -0.169555 -0.007559
0.001962 -0.169555 -0.007559
64.251228 31.326784 4.955666
0.001962 -0.169555 -0.007559
61.804066 30.074778 7.999629
0.001962 -0.169555 -0.007559
0.001962 -0.169555 -0.007559
0.001962 -0.169555 -0.007559
0.537015 0.091030 -0.360864
2.895901 1.237425 -1.817833
3.050653 1.312029 -1.812214
3.223315 1.394568 -1.807920
3.428069 1.492534 -1.812557
3.637701 1.593469 -1.809209
3.840996 1.690418 -1.792127
4.086030 1.807397 -1.782220
4.360843 1.939518 -1.773025
4.659925 2.082246 -1.758917
4.998833 2.243966 -1.742491
5.383829 2.428795 -1.724798
5.826905 2.640242 -1.704398
6.341785 2.887278 -1.679343
6.989345 3.196542 -1.660617
7.782863 3.575507 -1.639484
8.778799 4.100284 -1.616704
10.173199 4.776505 -1.603510
10.929289 5.139544 -1.432977
11.051082 5.194050 -1.160330
11.069461 5.200679 -0.874663
11.118784 5.219919 -0.590598
0.001970 -0.169274 -0.007547
0.001970 -0.169274 -0.007547
0.001970 -0.169274 -0.007547
0.001970 -0.169274 -0.007547
64.817688 31.143297 4.985589
64.426773 30.927305 6.626226
62.349300 29.898304 8.047879
0.001970 -0.169274 -0.007547
0.001970 -0.169274 -0.007547
0.001970 -0.169274 -0.007547
0.544691 0.091180 -0.364935
2.905524 1.221766 -1.818794
3.060721 1.295484 -1.813135
3.233871 1.377035 -1.808799
3.437569 1.473043 -1.812537
3.647784 1.572776 -1.809188
3.854966 1.670143 -1.793650
4.093984 1.782524 -1.780740
4.371219 1.913854 -1.772317
4.672819 2.055672 -1.758894
5.016090 2.217072 -1.743660
5.398700 2.398043 -1.724773
5.834252 2.602787 -1.701834
6.364550 2.853510 -1.680702
7.006831 3.155689 -1.660171
7.804289 3.530923 -1.639453
8.817488 4.056803 -1.619274
10.217590 4.725857 -1.605988
10.918456 5.057092 -1.427579
11.083547 5.131473 -1.160479
11.057014 5.116519 -0.871249
0.001954 -0.169012 -0.007535
0.001954 -0.169012 -0.007535
0.001954 -0.169012 -0.007535
71.768127 34.038025 1.793982
0.001954 -0.169012 -0.007535
0.001954 -0.169012 -0.007535
63.937473 30.238903 6.557881
0.001954 -0.169012 -0.007535
61.640995 29.108276 9.544098
0.001954 -0.169012 -0.007535
0.001954 -0.169012 -0.007535
0.535291 0.083180 -0.357774
2.924513 1.210500 -1.825640
3.067513 1.277376 -1.812175
3.245955 1.360200 -1.810576
3.451868 1.455816 -1.815086
3.658041 1.551384 -1.809168
3.862160 1.646641 -1.792085
4.108538 1.760803 -1.782176
4.388590 1.890562 -1.774350
4.685545 2.029014 -1.758870
5.024576 2.186022 -1.741846
5.410363 2.364640 -1.723643
5.864122 2.575997 -1.705868
6.387648 2.818459 -1.682061
7.035293 3.118500 -1.662226
7.827869 3.485678 -1.639793
8.848790 4.009617 -1.620542
10.260759 4.672207 -1.608186
10.914226 4.978337 -1.423112
11.027423 5.027128 -1.151469
11.057469 5.036674 -0.868819
0.001961 -0.168731 -0.007523
0.001961 -0.168731 -0.007523
0.001961 -0.168731 -0.007523
0.001961 -0.168731 -0.007523
0.001961 -0.168731 -0.007523
67.466286 31.456350 5.161157
0.001961 -0.168731 -0.007523
63.540485 29.576677 8.157334
0.001961 -0.168731 -0.007523
67.785561 31.507595 12.242373
0.001961 -0.168731 -0.007523
0.532096 0.078110 -0.354697
2.924752 1.189749 -1.820718
3.079245 1.260927 -1.814035
3.254971 1.341207 -1.810556
3.459811 1.434840 -1.814209
3.666231 1.529814 -1.808332
3.877880 1.626306 -1.794379
4.116525 1.735115 -1.780696
4.396962 1.863967 -1.772957
4.700233 2.002274 -1.759488
5.043641 2.158849 -1.743612
5.423103 2.332921 -1.723066
5.880304 2.541453 -1.705842
6.408270 2.783546 -1.682958
7.061224 3.081514 -1.663864
7.861291 3.446601 -1.642361
8.885950 3.963173 -1.622785
10.304620 4.620857 -1.610664
10.903132 4.894559 -1.417712
11.016518 4.942652 -1.147131
11.042015 4.952244 -0.865264
11.950634 5.368724 -0.628942
0.001945 -0.168469 -0.007511
0.001945 -0.168469 -0.007511
0.001945 -0.168469 -0.007511
66.490295 30.547014 3.367462
63.839630 29.309570 4.870393
64.885178 29.765495 6.619167
64.590752 29.602922 8.269641
63.063614 28.886253 9.711610
0.001945 -0.168469 -0.007511
0.001945 -0.168469 -0.007511
0.528824 0.073182 -0.351621
2.924590 1.169538 -1.815795
3.089032 1.244196 -1.814956
3.266866 1.324217 -1.812333
3.472002 1.417291 -1.815902
3.670977 1.506697 -1.805868
3.888143 1.604230 -1.794357
4.132181 1.714712 -1.782860
4.413717 1.841239 -1.774990
4.715722 1.977850 -1.760747
5.056555 2.130943 -1.743588
5.437411 2.301943 -1.723041
5.898847 2.510456 -1.706831
6.430475 2.749305 -1.684317
7.088151 3.046361 -1.665920
7.886723 3.405382 -1.643445
8.923940 3.918811 -1.625354
10.348239 4.569174 -1.613142
10.906803 4.820424 -1.414411
11.007708 4.862040 -1.143168
11.024125 4.867325 -0.861569
11.936891 5.279399 -0.626544
0.001953 -0.168188 -0.007499
0.001953 -0.168188 -0.007499
0.001953 -0.168188 -0.007499
0.001953 -0.168188 -0.007499
63.917423 28.900589 4.863640
64.481949 29.144348 6.561342
0.001953 -0.168188 -0.007499
0.001953 -0.168188 -0.007499
66.953926 30.199530 12.029443
68.639305 30.935757 14.147464
0.527037 0.069105 -0.349565
2.941564 1.157785 -1.821660
3.095262 1.226490 -1.813997
3.278410 1.307709 -1.814110
3.476122 1.395331 -1.813312
3.690558 1.490314 -1.810733
3.892940 1.580520 -1.792021
4.141252 1.690413 -1.782109
4.421805 1.814558 -1.773597
4.731452 1.952499 -1.762006
5.073198 2.103643 -1.744757
5.451547 2.270887 -1.723015
5.919483 2.479118 -1.708327
6.452496 2.714904 -1.685676
7.114234 3.007736 -1.667558
7.911369 3.360428 -1.644156
8.961015 3.875720 -1.627923
10.387965 4.515499 -1.615061
11.017797 4.797306 -1.425093
10.999311 4.784456 -1.139392
11.023803 4.790957 -0.859281
11.923367 5.193290 -0.624242
47.947945 21.374325 -1.256664
0.001960 -0.167907 -0.007487
0.001960 -0.167907 -0.007487
0.001960 -0.167907 -0.007487
0.001960 -0.167907 -0.007487
63.967541 28.454252 6.491703
0.001960 -0.167907 -0.007487
0.001960 -0.167907 -0.007487
0.001960 -0.167907 -0.007487
0.001960 -0.167907 -0.007487
0.528416 0.066246 -0.349552
2.946188 1.139182 -1.819679
3.103477 1.208386 -1.813977
3.282201 1.286345 -1.811394
3.490310 1.377177 -1.815861
3.698369 1.468581 -1.809898
3.908316 1.559931 -1.794314
4.152195 1.666094 -1.782087
4.434865 1.790113 -1.774259
4.742227 1.923925 -1.761341
5.086587 2.073797 -1.744732
5.465507 2.239756 -1.722990
5.936842 2.445020 -1.708808
6.461870 2.674868 -1.683799
7.143148 2.971740 -1.670030
7.940546 3.319062 -1.645981
8.999269 3.829193 -1.630491
10.431038 4.463134 -1.617538
11.068835 4.741818 -1.427850
11.121335 4.760566 -1.148883
11.110536 4.753560 -0.863741
11.911127 5.103373 -0.621937
47.963303 21.040518 -1.253633
0.001944 -0.167646 -0.007475
0.001944 -0.167646 -0.007475
0.001944 -0.167646 -0.007475
64.189369 28.137636 4.859550
0.001944 -0.167646 -0.007475
63.509621 27.786129 8.068531
0.001944 -0.167646 -0.007475
0.001944 -0.167646 -0.007475
0.001944 -0.167646 -0.007475
0.514016 0.056608 -0.339327
2.952057 1.121775 -1.818680
3.116207 1.192902 -1.816777
3.293799 1.269141 -1.813171
3.500784 1.358049 -1.816697
3.707739 1.447556 -1.809877
3.918179 1.537669 -1.794293
4.160984 1.641706 -1.781337
4.451212 1.767064 -1.776291
4.757674 1.898390 -1.762600
5.095900 2.043238 -1.743514
5.473989 2.206243 -1.721307
5.958897 2.414169 -1.710811
6.495974 2.645633 -1.688393
7.161103 2.930849 -1.670000
7.965894 3.275913 -1.647064
9.031172 3.781563 -1.632084
10.470233 4.408855 -1.619456
11.306243 4.769722 -1.454610
11.874080 5.012906 -1.223029
11.052740 4.652328 -0.857093
11.895473 5.015044 -0.619540
48.249607 20.836201 -1.257778
0.001952 -0.167365 -0.007463
0.001952 -0.167365 -0.007463
0.001952 -0.167365 -0.007463
64.342072 27.763988 4.859029
64.603348 27.851231 6.523443
64.094177 27.604424 8.122577
67.499825 29.066776 10.289562
63.705589 27.397648 11.357787
66.991714 28.792469 13.701974
0.491602 0.043734 -0.323997
2.965847 1.107811 -1.822583
3.124209 1.174675 -1.816757
3.306944 1.252562 -1.815845
3.506196 1.336739 -1.814963
3.720596 1.427250 -1.811484
3.926530 1.513964 -1.793499
4.174741 1.619465 -1.782771
4.455703 1.737965 -1.773528
4.769824 1.870409 -1.762576
5.108921 2.013264 -1.743489
5.496813 2.177797 -1.724043
5.977657 2.380582 -1.711799
6.513043 2.606220 -1.688363
7.176300 2.885838 -1.669135
7.989790 3.230430 -1.647774
9.062801 3.733688 -1.633676
10.519014 4.356348 -1.622771
11.332664 4.704074 -1.454336
11.837831 4.916464 -1.216260
11.873166 4.926846 -0.917789
11.885611 4.927383 -0.617423
0.001932 -0.167098 -0.007451
0.001932 -0.167098 -0.007451
0.001932 -0.167098 -0.007451
0.001932 -0.167098 -0.007451
0.001932 -0.167098 -0.007451
64.669434 27.425682 6.513646
0.001932 -0.167098 -0.007451
0.001932 -0.167098 -0.007451
67.450920 28.544882 11.995585
0.001932 -0.167098 -0.007451
0.478622 0.034978 -0.314794
2.963953 1.085893 -1.816679
3.128860 1.155025 -1.814857
3.315548 1.232625 -1.815825
3.506728 1.312682 -1.810659
3.730006 1.405450 -1.811463
3.936434 1.490926 -1.793477
4.188721 1.596418 -1.784205
4.472137 1.713986 -1.775559
4.772758 1.839539 -1.759346
5.121397 1.984106 -1.743464
5.512396 2.146178 -1.724569
5.995793 2.347908 -1.712787
6.534289 2.571224 -1.689722
7.196821 2.847513 -1.669940
8.014663 3.186946 -1.648856
9.104627 3.686259 -1.636893
10.565728 4.302656 -1.625805
10.963336 4.466483 -1.403495
0.001939 -0.166817 -0.007439
11.866387 4.841089 -0.914935
11.867740 4.836892 -0.614931
0.001939 -0.166817 -0.007439
80.337868 33.662182 -0.054387
0.001939 -0.166817 -0.007439
0.001939 -0.166817 -0.007439
66.638893 27.827057 5.007650
65.075058 27.157351 6.538754
66.211433 27.607969 8.349763
67.010597 27.916355 10.163771
68.370522 28.472914 12.129885
0.001939 -0.166817 -0.007439
0.467032 0.027286 -0.306612
2.977333 1.072287 -1.820583
3.142717 1.140540 -1.818597
3.324953 1.215056 -1.816704
3.515200 1.292762 -1.810638
3.738725 1.384886 -1.811442
3.949045 1.470630 -1.794999
4.198790 1.572548 -1.784183
4.480830 1.688555 -1.774851
4.791220 1.815201 -1.761887
5.135469 1.955606 -1.744036
5.527001 2.116391 -1.725096
6.013752 2.315113 -1.713776
6.547680 2.534251 -1.689232
7.212269 2.805589 -1.669493
8.042920 3.144776 -1.650681
9.131460 3.637938 -1.637835
10.614295 4.253806 -1.629400
10.946849 4.387943 -1.398097
0.001947 -0.166536 -0.007427
11.849958 4.756700 -0.911520
11.853049 4.753238 -0.612723
40.661404 16.696285 -1.053010
0.001947 -0.166536 -0.007427
0.001947 -0.166536 -0.007427
69.974998 28.784037 3.483279
67.280869 27.656260 5.044374
0.001947 -0.166536 -0.007427
0.001947 -0.166536 -0.007427
67.532471 27.693251 10.219401
0.001947 -0.166536 -0.007427
0.001947 -0.166536 -0.007427
0.447467 0.016407 -0.293325
2.981196 1.054091 -1.818602
3.148565 1.122046 -1.817638
3.332856 1.196176 -1.816683
3.520204 1.271421 -1.808904
3.749540 1.363644 -1.812235
3.956694 1.447452 -1.794205
4.205295 1.547233 -1.782704
4.496974 1.664353 -1.776883
4.800810 1.787166 -1.761222
5.149378 1.927016 -1.744608
5.545790 2.086022 -1.726727
6.031533 2.282199 -1.714764
6.577992 2.501490 -1.692900
7.240644 2.767447 -1.671964
8.067895 3.099520 -1.651762
9.169641 3.592329 -1.640728
10.665977 4.201561 -1.633273
11.020664 4.344691 -1.404116
11.047399 4.351240 -1.127196
11.842004 4.671518 -0.908666
11.855291 4.674647 -0.611362
0.001931 -0.166275 -0.007415
0.001931 -0.166275 -0.007415
0.001931 -0.166275 -0.007415
0.001931 -0.166275 -0.007415
0.001931 -0.166275 -0.007415
66.762604 26.953165 6.676542
0.001931 -0.166275 -0.007415
0.001931 -0.166275 -0.007415
69.496193 27.994976 12.270843
0.001931 -0.166275 -0.007415
0.429398 0.006316 -0.281058
2.996463 1.039921 -1.823485
3.152886 1.102317 -1.815738
3.340878 1.176666 -1.816663
3.530099 1.252087 -1.809740
3.756592 1.341636 -1.811399
3.971343 1.426305 -1.796499
4.223721 1.526733 -1.786324
4.503940 1.637311 -1.775490
4.810214 1.759070 -1.760556
5.163100 1.898318 -1.745180
5.564022 2.056484 -1.728358
6.043722 2.246996 -1.714229
6.596857 2.465303 -1.693796
7.265995 2.730893 -1.674018
8.093295 3.057619 -1.653216
9.208242 3.544799 -1.643620
10.707470 4.147027 -1.635749
11.601894 4.502780 -1.474212
11.781607 4.570449 -1.198716
11.828944 4.587196 -0.905532
11.842992 4.588147 -0.609246
0.001938 -0.165994 -0.007403
0.001938 -0.165994 -0.007403
0.001938 -0.165994 -0.007403
71.857918 28.599335 3.560838
0.001938 -0.165994 -0.007403
66.911087 26.579660 6.676532
0.001938 -0.165994 -0.007403
0.001938 -0.165994 -0.007403
69.903450 27.707094 12.315303
0.001938 -0.165994 -0.007403
0.417558 -0.000875 -0.272877
2.995044 1.020243 -1.818563
3.158256 1.084314 -1.814779
3.353328 1.160265 -1.819338
3.546592 1.235332 -1.814003
3.766918 1.320946 -1.812192
3.978466 1.403726 -1.795705
4.229950 1.501322 -1.784844
4.521249 1.614396 -1.778207
4.821216 1.731630 -1.760532
5.178450 1.870240 -1.746349
5.574919 2.023984 -1.727780
6.064715 2.215274 -1.716232
6.613716 2.428287 -1.694230
7.295803 2.693028 -1.676906
8.119600 3.012716 -1.654669
9.241674 3.498733 -1.645862
10.754220 4.094359 -1.639062
11.611159 4.431651 -1.472075
11.770822 4.490240 -1.194939
11.820855 4.505378 -0.902820
11.874937 4.524468 -0.609488
0.001922 -0.165732 -0.007391
0.001922 -0.165732 -0.007391
0.001922 -0.165732 -0.007391
0.001922 -0.165732 -0.007391
0.001922 -0.165732 -0.007391
0.001922 -0.165732 -0.007391
68.621346 26.779541 8.574097
0.001922 -0.165732 -0.007391
0.001922 -0.165732 -0.007391
0.001922 -0.165732 -0.007391
0.418520 -0.003076 -0.272864
3.010164 1.005914 -1.823447
3.178784 1.070969 -1.822277
3.359455 1.139976 -1.818419
3.551486 1.213256 -1.812268
3.773718 1.298861 -1.811356
3.994588 1.383052 -1.798770
4.239751 1.476475 -1.784821
4.533183 1.589305 -1.778868
4.835937 1.704665 -1.761790
5.194018 1.841166 -1.747517
5.592820 1.994223 -1.729410
6.084151 2.181637 -1.717727
6.641250 2.395356 -1.697436
7.310314 2.650562 -1.676458
8.141421 2.967610 -1.655379
9.272435 3.447716 -1.647453
10.817308 4.047755 -1.644891
11.630808 4.360099 -1.471101
11.751832 4.402593 -1.190225
11.793611 4.416576 -0.898702
39.484390 15.161212 -2.004844
0.001930 -0.165451 -0.007379
0.001930 -0.165451 -0.007379
0.001930 -0.165451 -0.007379
72.265572 27.787716 3.565006
0.001930 -0.165451 -0.007379
71.103485 27.296753 7.063180
0.001930 -0.165451 -0.007379
0.001930 -0.165451 -0.007379
0.001930 -0.165451 -0.007379
0.001930 -0.165451 -0.007379
0.417855 -0.005808 -0.271829
3.015236 0.988229 -1.822446
3.179268 1.050417 -1.818498
3.365263 1.120271 -1.817500
3.559355 1.193062 -1.812247
3.787202 1.279344 -1.813778
3.998246 1.358325 -1.796433
4.249140 1.452327 -1.784799
4.539705 1.562131 -1.777475
4.846626 1.677078 -1.761766
5.203702 1.810837 -1.746895
5.612365 1.965014 -1.731593
6.099380 2.147549 -1.718207
6.646796 2.353926 -1.695097
7.335543 2.612173 -1.678512
8.168515 2.924452 -1.657203
9.305991 3.399513 -1.649695
10.869146 3.996340 -1.649042
11.771696 4.337361 -1.485506
11.748177 4.323781 -1.187194
11.784389 4.335378 -0.895989
11.798285 4.336080 -0.602808
0.001937 -0.165170 -0.007367
0.001937 -0.165170 -0.007367
0.001937 -0.165170 -0.007367
0.001937 -0.165170 -0.007367
0.001937 -0.165170 -0.007367
0.001937 -0.165170 -0.007367
69.224976 26.087626 8.611012
73.137123 27.557407 10.942986
73.003609 27.478378 12.775475
73.934189 27.801992 14.842649
0.417153 -0.008541 -0.270795
3.026720 0.972974 -1.825369
3.191180 1.034246 -1.821297
3.375943 1.102406 -1.819276
3.568823 1.173478 -1.813083
3.795715 1.257147 -1.813756
4.006968 1.335580 -1.796411
4.260134 1.428782 -1.785504
4.551638 1.536121 -1.778136
4.860681 1.650741 -1.763025
5.218552 1.782454 -1.748063
5.623081 1.931285 -1.731015
6.114412 2.113363 -1.718687
6.674377 2.319485 -1.698303
7.357398 2.570954 -1.679732
8.199604 2.881035 -1.659769
9.339270 3.351023 -1.651936
10.906594 3.936949 -1.650958
11.592901 4.192915 -1.459835
11.894978 4.301860 -1.199296
11.866904 4.286709 -0.900163
11.904434 4.298537 -0.606817
0.001921 -0.164908 -0.007356
0.001921 -0.164908 -0.007356
0.001921 -0.164908 -0.007356
0.001921 -0.164908 -0.007356
0.001921 -0.164908 -0.007356
71.288918 26.415794 7.050637
0.001921 -0.164908 -0.007356
0.001921 -0.164908 -0.007356
72.381874 26.753521 12.638635
0.001921 -0.164908 -0.007356
0.422907 -0.008945 -0.273846
3.039960 0.957702 -1.829271
3.199885 1.016185 -1.822217
3.385088 1.083269 -1.820154
3.576690 1.152562 -1.813062
3.805554 1.236186 -1.814549
4.020998 1.313985 -1.798704
4.273013 1.405056 -1.786938
4.561352 1.510170 -1.778113
4.869590 1.621510 -1.762359
5.233593 1.753061 -1.749231
5.642286 1.901816 -1.733198
6.133264 2.079332 -1.720182
6.688562 2.281300 -1.698274
7.384043 2.532861 -1.682202
8.224380 2.836756 -1.661221
9.369210 3.299273 -1.653526
10.939335 3.877828 -1.652315
11.596188 4.116114 -1.456997
11.726973 4.159863 -1.179824
11.781898 4.177903 -0.891829
0.001928 -0.164627 -0.007344
0.001928 -0.164627 -0.007344
0.001928 -0.164627 -0.007344
0.001928 -0.164627 -0.007344
73.053459 26.638067 3.580892
72.857018 26.552265 5.378422
0.001928 -0.164627 -0.007344
0.001928 -0.164627 -0.007344
0.001928 -0.164627 -0.007344
0.001928 -0.164627 -0.007344
0.001928 -0.164627 -0.007344
0.425411 -0.010512 -0.274854
3.056208 0.944035 -1.835135
3.196663 0.994405 -1.816558
3.393893 1.064648 -1.821032
3.587620 1.133466 -1.814754
3.815259 1.215148 -1.815342
4.032899 1.292336 -1.800225
4.285484 1.381979 -1.788372
4.572684 1.484803 -1.778774
4.878028 1.593102 -1.761693
5.242761 1.722545 -1.748609
5.654104 1.869596 -1.733171
6.151550 2.046239 -1.721677
6.706194 2.244356 -1.699169
7.406813 2.493234 -1.683839
8.254467 2.794281 -1.663788
9.413118 3.254330 -1.657719
10.969875 3.817780 -1.653393
11.588883 4.038052 -1.452994
11.723598 4.082404 -1.176980
11.752301 4.090594 -0.887711
0.001912 -0.164365 -0.007332
0.001912 -0.164365 -0.007332
0.001912 -0.164365 -0.007332
0.001912 -0.164365 -0.007332
0.001912 -0.164365 -0.007332
0.001912 -0.164365 -0.007332
0.001912 -0.164365 -0.007332
0.001912 -0.164365 -0.007332
0.001912 -0.164365 -0.007332
0.001912 -0.164365 -0.007332
0.001912 -0.164365 -0.007332
0.424675 -0.013253 -0.273820
3.078950 0.932550 -1.844921
3.204949 0.976860 -1.817478
3.397556 1.044183 -1.819214
3.596740 1.113682 -1.815589
3.819702 1.192224 -1.813692
4.034276 1.266920 -1.797116
4.292560 1.356941 -1.787621
4.582102 1.458732 -1.778751
4.893417 1.567165 -1.763592
5.255347 1.693261 -1.749181
5.678401 1.841773 -1.737011
6.167806 2.012347 -1.722664
6.716289 2.204706 -1.698215
7.425689 2.452142 -1.684641
8.284348 2.751575 -1.666354
9.443792 3.204346 -1.659635
10.996333 3.756167 -1.653911
11.581074 3.960226 -1.448992
11.708434 4.001096 -1.173015
11.746505 4.012446 -0.885421
0.001920 -0.164084 -0.007320
0.001920 -0.164084 -0.007320
0.001920 -0.164084 -0.007320
0.001920 -0.164084 -0.007320
0.001920 -0.164084 -0.007320
74.036255 26.022354 5.443353
73.027191 25.637478 7.178149
74.247551 26.040237 9.158980
0.001920 -0.164084 -0.007320
0.001920 -0.164084 -0.007320
0.001920 -0.164084 -0.007320
0.425550 -0.015492 -0.273806
0.418209 -0.018218 -0.255393
3.218326 0.960448 -1.821217
3.411409 1.026650 -1.822786
3.605748 1.093842 -1.816424
3.825971 1.169244 -1.812855
4.047921 1.245073 -1.799408
4.306515 1.334323 -1.789783
4.596978 1.433671 -1.780781
4.903305 1.539257 -1.763567
5.267764 1.663895 -1.749752
5.688369 1.807707 -1.736431
6.178418 1.976471 -1.722129
6.743094 2.169574 -1.701420
7.442473 2.410280 -1.685027
8.310279 2.707334 -1.668177
9.476647 3.153133 -1.661874
11.025005 3.693138 -1.654708
11.474079 3.845884 -1.432642
11.608868 3.888562 -1.160643
11.739055 3.931831 -0.882988
0.001925 -0.163800 -0.007308
0.001925 -0.163800 -0.007308
0.001925 -0.163800 -0.007308
0.001925 -0.163800 -0.007308
78.234741 27.016588 3.812401
0.001925 -0.163800 -0.007308
0.001925 -0.163800 -0.007308
74.947105 25.803278 9.226950
0.001925 -0.163800 -0.007308
73.073662 25.112761 12.655264
73.625832 25.275734 14.627622
0.426380 -0.017579 -0.273793
0.430549 -0.016311 -0.262244
3.226229 0.943325 -1.822136
3.412937 1.006137 -1.820071
3.614650 1.073940 -1.817260
3.835313 1.148072 -1.813647
4.053988 1.222148 -1.798615
4.309788 1.307989 -1.787575
4.606085 1.407451 -1.780758
4.909432 1.510053 -1.762261
5.274579 1.632587 -1.748533
5.703269 1.776453 -1.737509
6.197956 1.943636 -1.724131
6.760093 2.132247 -1.702315
7.470581 2.370780 -1.687913
8.340197 2.662696 -1.670742
9.513693 3.106894 -1.665091
11.056397 3.633111 -1.656065
11.400474 3.749172 -1.420719
11.527700 3.788455 -1.150328
11.730352 3.853482 -0.880557
0.001909 -0.163539 -0.007296
0.001909 -0.163539 -0.007296
0.001909 -0.163539 -0.007296
0.001909 -0.163539 -0.007296
0.001909 -0.163539 -0.007296
0.001909 -0.163539 -0.007296
0.001909 -0.163539 -0.007296
0.001909 -0.163539 -0.007296
73.054138 24.649914 10.795544
73.203545 24.672892 12.652237
73.372650 24.716726 14.548793
0.425585 -0.020392 -0.272759
0.424798 -0.020815 -0.258308
3.234422 0.925022 -1.823056
3.421492 0.986710 -1.820949
3.620203 1.052178 -1.816382
3.847994 1.127995 -1.816069
4.062139 1.198363 -1.798592
4.320201 1.283270 -1.788280
4.615061 1.381199 -1.780734
4.921072 1.481790 -1.762877
5.281521 1.600347 -1.747313
5.718009 1.745105 -1.738587
6.210349 1.907125 -1.724102
6.776903 2.094815 -1.703210
7.496170 2.331712 -1.690383
8.367514 2.618639 -1.672937
9.540400 3.053215 -1.666355
11.087440 3.572837 -1.657421
11.408403 3.676689 -1.418814
11.505645 3.705071 -1.145803
0.001916 -0.163258 -0.007284
0.001916 -0.163258 -0.007284
0.001916 -0.163258 -0.007284
0.001916 -0.163258 -0.007284
84.304665 28.058155 2.011594
0.001916 -0.163258 -0.007284
0.001916 -0.163258 -0.007284
0.001916 -0.163258 -0.007284
0.001916 -0.163258 -0.007284
72.449715 23.980667 10.685637
73.090569 24.166616 12.608477
0.001916 -0.163258 -0.007284
0.423153 -0.023627 -0.270704
0.432224 -0.020795 -0.262218
3.240639 0.906669 -1.823035
3.428068 0.967285 -1.820928
3.632302 1.033304 -1.818930
3.853842 1.104854 -1.815232
4.071660 1.175809 -1.799341
4.337318 1.261575 -1.791899
4.633063 1.357006 -1.784135
4.934075 1.454908 -1.764135
5.297034 1.571981 -1.749078
5.740172 1.715013 -1.741874
6.227700 1.873441 -1.725597
6.795738 2.056688 -1.704566
7.512714 2.288112 -1.690768
8.396958 2.573519 -1.675501
9.573748 3.003482 -1.668920
11.100005 3.504190 -1.655983
11.549159 3.650488 -1.433449
11.512604 3.634078 -1.144266
11.496059 3.624279 -0.859675
0.001900 -0.162996 -0.007272
0.001900 -0.162996 -0.007272
0.001900 -0.162996 -0.007272
0.001900 -0.162996 -0.007272
0.001900 -0.162996 -0.007272
78.844780 25.667501 5.752213
0.001900 -0.162996 -0.007272
0.001900 -0.162996 -0.007272
0.001900 -0.162996 -0.007272
0.001900 -0.162996 -0.007272
0.001900 -0.162996 -0.007272
0.428867 -0.024273 -0.273754
0.429761 -0.024136 -0.260243
3.255312 0.890420 -1.827713
3.434727 0.947226 -1.820905
3.640848 1.013209 -1.819764
3.857600 1.081806 -1.813580
4.083045 1.153053 -1.800860
4.343683 1.236299 -1.791145
4.639953 1.330019 -1.783424
4.945111 1.427338 -1.764749
5.310561 1.542903 -1.750244
5.758230 1.684584 -1.744053
6.241162 1.838429 -1.726074
6.823228 2.022560 -1.708231
7.539302 2.250580 -1.693652
8.417707 2.528673 -1.676579
9.611127 2.953008 -1.672131
11.081375 3.427700 -1.650072
11.560239 3.578539 -1.432003
11.567133 3.576428 -1.147395
11.718906 3.623352 -0.874523
0.001908 -0.162715 -0.007260
0.001908 -0.162715 -0.007260
0.001908 -0.162715 -0.007260
0.001908 -0.162715 -0.007260
0.001908 -0.162715 -0.007260
0.001908 -0.162715 -0.007260
0.001908 -0.162715 -0.007260
0.001908 -0.162715 -0.007260
0.001908 -0.162715 -0.007260
0.001908 -0.162715 -0.007260
0.001908 -0.162715 -0.007260
0.424728 -0.027939 -0.270677
0.432175 -0.025737 -0.261210
3.259464 0.871981 -1.826751
3.435759 0.926693 -1.818188
3.642397 0.990881 -1.817171
3.867981 1.061643 -1.815185
4.085053 1.128856 -1.798521
4.348094 1.210416 -1.789663
4.648228 1.304388 -1.783398
4.952389 1.398568 -1.764081
5.329395 1.515452 -1.753199
5.753779 1.648072 -1.739606
6.254422 1.803328 -1.726550
6.835322 1.984722 -1.708198
7.562407 2.210353 -1.695700
8.446200 2.484580 -1.679140
9.635903 2.901996 -1.673391
11.074822 3.357670 -1.646116
11.577148 3.513029 -1.431491
11.659931 3.534944 -1.154446
11.709433 3.548523 -0.872227
45.777245 14.329925 -2.270410
0.001915 -0.162434 -0.007248
0.001915 -0.162434 -0.007248
0.001915 -0.162434 -0.007248
0.001915 -0.162434 -0.007248
0.001915 -0.162434 -0.007248
0.001915 -0.162434 -0.007248
0.001915 -0.162434 -0.007248
78.896782 24.624882 11.573017
84.086792 26.224089 14.426496
0.001915 -0.162434 -0.007248
0.420548 -0.031652 -0.267601
0.437961 -0.026376 -0.264138
3.273794 0.856105 -1.831428
3.440270 0.906650 -1.817267
3.648962 0.970164 -1.817148
3.869951 1.037346 -1.812717
4.094186 1.106150 -1.799268
4.363066 1.187864 -1.792551
4.653253 1.275959 -1.782001
4.964900 1.371420 -1.765336
5.337140 1.484460 -1.752574
5.780951 1.619294 -1.744546
6.271170 1.769272 -1.728041
6.855368 1.946708 -1.710013
7.578234 2.166328 -1.696081
8.478666 2.439914 -1.682442
9.670340 2.852042 -1.676277
11.063361 3.282196 -1.641320
11.571558 3.438339 -1.428182
11.690551 3.471020 -1.155331
11.700743 3.469823 -0.869930
31.969341 9.756556 -1.584778
0.001899 -0.162172 -0.007236
32.000099 9.742239 -0.023864
0.001899 -0.162172 -0.007236
0.001899 -0.162172 -0.007236
0.001899 -0.162172 -0.007236
0.001899 -0.162172 -0.007236
0.001899 -0.162172 -0.007236
0.001899 -0.162172 -0.007236
0.001899 -0.162172 -0.007236
0.001899 -0.162172 -0.007236
0.427911 -0.031842 -0.271672
0.437069 -0.029215 -0.263144
3.296682 0.842111 -1.840804
3.444824 0.885974 -1.816346
3.653886 0.948257 -1.816267
3.883787 1.017458 -1.815951
4.101632 1.082121 -1.799243
4.363856 1.160074 -1.789612
4.663268 1.249987 -1.782659
4.975738 1.342789 -1.765949
5.348663 1.453629 -1.753141
5.792944 1.586818 -1.745068
6.280667 1.731769 -1.727502
6.874845 1.909735 -1.711828
7.595261 2.124077 -1.696879
8.502908 2.394168 -1.684261
9.705020 2.800092 -1.679161
11.048927 3.208347 -1.636246
11.541428 3.354313 -1.421844
11.639500 3.379871 -1.148185
11.685197 3.391667 -0.867213
0.001905 -0.161890 -0.007223
0.001905 -0.161890 -0.007223
0.001905 -0.161890 -0.007223
0.001905 -0.161890 -0.007223
0.001905 -0.161890 -0.007223
0.001905 -0.161890 -0.007223
0.001905 -0.161890 -0.007223
0.001905 -0.161890 -0.007223
0.001905 -0.161890 -0.007223
0.001905 -0.161890 -0.007223
0.001905 -0.161890 -0.007223
0.418759 -0.036985 -0.265532
0.432822 -0.032940 -0.260189
3.321024 0.828956 -1.851119
3.455956 0.867953 -1.819018
3.665432 0.929047 -1.818814
3.890697 0.994668 -1.815927
4.114037 1.060348 -1.801533
4.373197 1.135756 -1.790315
4.676947 1.224173 -1.784688
4.986135 1.314941 -1.766563
5.365180 1.425246 -1.755499
5.799534 1.551625 -1.743933
6.293337 1.696425 -1.727977
6.894476 1.871408 -1.713642
7.612440 2.080378 -1.697676
8.527360 2.346761 -1.686078
9.733272 2.747863 -1.681070
11.034552 3.132827 -1.631171
11.540530 3.281844 -1.419234
11.631074 3.304564 -1.145336
11.685034 3.316324 -0.865618
25.656891 7.470971 -1.268596
25.797647 7.503295 -0.645202
0.001889 -0.161628 -0.007212
0.001889 -0.161628 -0.007212
0.001889 -0.161628 -0.007212
0.001889 -0.161628 -0.007212
0.001889 -0.161628 -0.007212
0.001889 -0.161628 -0.007212
0.001889 -0.161628 -0.007212
0.001889 -0.161628 -0.007212
0.001889 -0.161628 -0.007212
0.427736 -0.036775 -0.270624
0.435242 -0.034742 -0.261156
0.472998 -0.023798 -0.268465
3.465429 0.848717 -1.820791
3.675113 0.909214 -1.820503
3.899060 0.973056 -1.816717
4.117670 1.035179 -1.799965
4.389527 1.113431 -1.793931
4.684869 1.197524 -1.784661
4.998182 1.287542 -1.767817
5.365074 1.391974 -1.752487
5.813003 1.519568 -1.745008
6.313215 1.663131 -1.730483
6.909826 1.833062 -1.714533
7.636118 2.041388 -1.700142
8.544988 2.300476 -1.686783
9.769297 2.695908 -1.684279
11.024838 3.061213 -1.626935
11.534054 3.205824 -1.415925
11.622749 3.227439 -1.142485
11.676120 3.240904 -0.863463
25.636471 7.299955 -1.265302
0.001897 -0.161347 -0.007199
0.001897 -0.161347 -0.007199
0.001897 -0.161347 -0.007199
0.001897 -0.161347 -0.007199
0.001897 -0.161347 -0.007199
0.001897 -0.161347 -0.007199
0.001897 -0.161347 -0.007199
0.001897 -0.161347 -0.007199
0.001897 -0.161347 -0.007199
0.001897 -0.161347 -0.007199
0.426759 -0.039365 -0.269590
0.449346 -0.033056 -0.268987
0.466967 -0.028098 -0.264693
3.465853 0.828159 -1.818074
3.674265 0.886338 -1.817054
3.903585 0.951061 -1.815879
4.122522 1.011958 -1.799168
4.391428 1.086901 -1.791720
4.697797 1.173167 -1.786690
5.011920 1.260588 -1.769713
5.379431 1.362900 -1.754249
5.826002 1.488427 -1.746082
6.327336 1.628090 -1.731466
6.924580 1.795788 -1.715424
7.656197 1.999797 -1.701773
8.568481 2.254199 -1.688600
9.798378 2.645421 -1.686514
11.012187 2.991181 -1.622421
11.527839 3.134570 -1.412850
11.618510 3.156233 -1.140197
11.671904 3.169388 -0.861730
0.001881 -0.161085 -0.007187
0.001881 -0.161085 -0.007187
0.001881 -0.161085 -0.007187
0.001881 -0.161085 -0.007187
0.001881 -0.161085 -0.007187
0.001881 -0.161085 -0.007187
0.001881 -0.161085 -0.007187
0.001881 -0.161085 -0.007187
39.677162 11.053020 5.766918
21.418428 5.884385 3.637866
0.001881 -0.161085 -0.007187
0.430777 -0.040601 -0.271618
0.431608 -0.040530 -0.258188
0.474534 -0.028594 -0.268438
3.476655 0.809915 -1.820746
3.683730 0.866433 -1.818743
3.906399 0.927867 -1.814226
4.136319 0.990469 -1.802230
4.400339 1.062385 -1.792423
4.699981 1.144884 -1.784608
5.021845 1.232499 -1.770327
5.395474 1.334230 -1.756606
5.837252 1.455657 -1.746604
6.337528 1.591918 -1.731435
6.939486 1.757215 -1.716315
7.674177 1.957541 -1.702988
8.593629 2.208264 -1.690789
9.833356 2.594563 -1.689723
10.999638 2.919472 -1.617906
11.577233 3.077005 -1.416528
11.612465 3.082600 -1.137722
11.658214 3.093308 -0.859293
0.001888 -0.160804 -0.007175
0.001888 -0.160804 -0.007175
0.001888 -0.160804 -0.007175
0.001888 -0.160804 -0.007175
0.001888 -0.160804 -0.007175
0.001888 -0.160804 -0.007175
27.901026 7.566829 2.679637
0.001888 -0.160804 -0.007175
39.632202 10.794643 5.751241
20.714687 5.557496 3.512507
20.999222 5.628378 4.085698
0.424844 -0.044688 -0.267520
0.440726 -0.040496 -0.263077
0.475296 -0.031130 -0.268424
3.492716 0.792404 -1.826112
3.691491 0.845320 -1.819576
3.918078 0.906409 -1.816644
4.146621 0.967159 -1.803748
4.409302 1.037031 -1.793125
4.704008 1.116280 -1.783211
5.031858 1.203480 -1.770939
5.407945 1.303499 -1.757770
5.850443 1.422295 -1.747678
6.353423 1.556105 -1.732924
6.956385 1.717840 -1.717666
7.684701 1.911754 -1.702534
8.615106 2.159575 -1.692234
9.859046 2.539091 -1.691306
0.001892 -0.160519 -0.007163
11.515766 2.986586 -1.406697
11.666085 3.023410 -1.141033
11.652277 3.017566 -0.857417
0.001892 -0.160519 -0.007163
71.517654 19.295975 -1.763388
0.001892 -0.160519 -0.007163
0.001892 -0.160519 -0.007163
0.001892 -0.160519 -0.007163
0.001892 -0.160519 -0.007163
27.554197 7.295388 2.642033
23.329741 6.143716 2.807004
22.752798 5.983766 3.293341
0.001892 -0.160519 -0.007163
20.869953 5.460073 4.054012
0.435477 -0.044177 -0.273633
0.438037 -0.043654 -0.261102
0.474338 -0.034032 -0.267471
3.494692 0.771643 -1.824292
3.695487 0.823879 -1.818696
3.924349 0.883439 -1.816619
4.149479 0.942605 -1.802180
4.423342 1.013835 -1.796012
4.720577 1.091044 -1.786608
5.039613 1.174760 -1.770912
5.418126 1.273110 -1.758338
5.863443 1.388829 -1.748751
6.361335 1.519294 -1.732385
6.974931 1.678816 -1.719480
7.706337 1.868929 -1.704581
8.642032 2.112230 -1.694793
9.891582 2.487169 -1.694190
10.991408 2.777595 -1.611388
11.516411 2.915904 -1.404553
11.593785 2.932353 -1.132208
11.642019 2.940993 -0.855261
0.001876 -0.160257 -0.007151
0.001876 -0.160257 -0.007151
0.001876 -0.160257 -0.007151
0.001876 -0.160257 -0.007151
0.001876 -0.160257 -0.007151
28.380402 7.349216 2.031557
27.293736 7.051755 2.612929
0.001876 -0.160257 -0.007151
0.001876 -0.160257 -0.007151
20.735226 5.299915 3.504905
20.869617 5.331621 4.047810
0.431144 -0.047798 -0.270557
0.448851 -0.043321 -0.266972
0.468240 -0.038346 -0.263698
3.498422 0.750721 -1.823371
3.699344 0.802415 -1.817816
3.932056 0.861569 -1.817409
4.155959 0.918265 -1.802155
4.428222 0.988162 -1.795258
4.734994 1.066026 -1.789321
5.045402 1.145549 -1.770243
5.422585 1.241216 -1.757116
5.877857 1.356779 -1.750377
6.372783 1.483422 -1.732860
6.989179 1.639892 -1.720370
7.723228 1.827626 -1.705796
8.665998 2.067169 -1.696982
9.922384 2.432728 -1.696747
10.983215 2.708040 -1.607711
11.509478 2.841321 -1.401476
11.577241 2.854787 -1.128798
11.636502 2.868173 -0.853527
0.001883 -0.159976 -0.007139
0.001883 -0.159976 -0.007139
29.670172 7.535062 -0.021618
0.001883 -0.159976 -0.007139
0.001883 -0.159976 -0.007139
27.750914 7.012261 1.983435
27.077099 6.833336 2.588440
22.950613 5.759183 2.753035
22.598610 5.660213 3.261051
20.690811 5.165184 3.492371
20.552496 5.122152 3.980291
0.438447 -0.048205 -0.274627
0.444406 -0.046852 -0.264017
0.480878 -0.037634 -0.270263
3.494799 0.729261 -1.818857
3.706566 0.781822 -1.818648
3.941248 0.840789 -1.819014
4.165493 0.896238 -1.803673
4.434756 0.962931 -1.795232
4.739943 1.039397 -1.788610
5.062019 1.119087 -1.773420
5.434277 1.211204 -1.758280
5.882512 1.323292 -1.749243
6.389627 1.448869 -1.734858
7.008543 1.603499 -1.722647
7.736428 1.783883 -1.706176
8.688202 2.019915 -1.698799
9.948181 2.380519 -1.698656
10.966451 2.638660 -1.602917
11.508723 2.772895 -1.399333
11.570745 2.784520 -1.126510
11.630023 2.797556 -0.851794
39.311104 9.823191 -1.917555
0.001867 -0.159714 -0.007127
29.722372 7.372084 -0.021520
0.001867 -0.159714 -0.007127
0.001867 -0.159714 -0.007127
23.637201 5.808734 1.686007
27.145847 6.684937 2.591309
0.001867 -0.159714 -0.007127
22.077549 5.395079 3.181236
20.589024 5.013092 3.470139
0.001867 -0.159714 -0.007127
0.437409 -0.050864 -0.273593
0.441677 -0.049961 -0.262043
0.481588 -0.040106 -0.270249
3.503327 0.710269 -1.820631
3.715441 0.761626 -1.820338
3.945320 0.817222 -1.818175
4.169724 0.872088 -1.802876
4.437538 0.936778 -1.793749
4.748799 1.011995 -1.789267
5.071125 1.090652 -1.774034
5.443934 1.180636 -1.758847
5.896804 1.290035 -1.750869
6.402549 1.413272 -1.735841
7.022673 1.563121 -1.723537
7.755415 1.740103 -1.707807
8.718176 1.972847 -1.702100
9.981804 2.328279 -1.701864
10.959784 2.568103 -1.599519
11.517694 2.704953 -1.398354
11.566241 2.712867 -1.124408
11.620246 2.722086 -0.849779
39.385372 9.601345 -1.918267
39.401878 9.591228 -0.968407
29.939301 7.238646 -0.021496
30.293839 7.320952 0.702745
39.462620 9.570913 1.869233
23.685745 5.672074 1.687065
27.330994 6.559769 2.605273
22.602440 5.393251 2.703457
22.210104 5.288859 3.195745
20.076822 4.758290 3.378716
20.134598 4.768922 3.888096
0.436353 -0.053599 -0.272558
0.445693 -0.051486 -0.263990
0.478837 -0.043526 -0.268357
3.501486 0.688080 -1.817014
3.722603 0.740283 -1.821170
3.949103 0.794348 -1.817336
4.175762 0.847613 -1.802851
4.451196 0.912455 -1.796636
4.751820 0.984049 -1.787870
5.076619 1.060398 -1.773364
5.453636 1.149046 -1.759414
5.910666 1.257696 -1.752495
6.417406 1.376899 -1.737330
7.036257 1.523852 -1.724427
7.775758 1.698000 -1.709853
8.736026 1.924261 -1.703174
10.002121 2.270699 -1.702796
10.942595 2.497311 -1.594725
11.580830 2.648121 -1.403894
11.617909 2.652933 -1.127720
11.611443 2.649342 -0.847905
0.001859 -0.159171 -0.007103
0.001859 -0.159171 -0.007103
0.001859 -0.159171 -0.007103
30.364901 7.148004 0.703492
28.635391 6.721493 1.352542
23.800381 5.555475 1.692972
27.326609 6.392409 2.601303
22.980770 5.342169 2.744959
22.874838 5.312820 3.287101
20.744017 4.795613 3.486460
20.199791 4.658382 3.895192
0.438635 -0.055425 -0.273566
0.454787 -0.051762 -0.268879
0.476056 -0.046813 -0.266463
3.520216 0.671473 -1.824177
3.729479 0.719534 -1.822003
3.956485 0.771621 -1.818126
4.188669 0.825526 -1.805912
4.460930 0.887955 -1.798067
4.754854 0.955264 -1.786473
5.078017 1.030133 -1.771413
5.472242 1.120529 -1.762965
5.922706 1.223768 -1.753568
6.435573 1.342420 -1.739835
7.051791 1.483688 -1.725778
7.794255 1.653903 -1.711483
8.753985 1.874040 -1.704248
10.029407 2.216565 -1.705028
10.931170 2.426259 -1.590768
11.498211 2.558392 -1.391969
11.546679 2.565698 -1.119270
11.602643 2.574754 -0.846030
0.001866 -0.158890 -0.007090
0.001866 -0.158890 -0.007090
27.346504 6.260338 -0.020016
28.522087 6.531337 0.659553
30.187889 6.911284 1.424412
23.859123 5.420429 1.694862
27.671373 6.302055 2.630612
22.754759 5.150059 2.714268
22.889526 5.173314 3.284690
20.236702 4.548040 3.396329
20.177380 4.530734 3.885663
0.445953 -0.056189 -0.277636
0.446914 -0.056137 -0.263963
3.375770 0.617756 -1.849931
3.523348 0.650466 -1.823255
3.730945 0.697516 -1.820266
3.967119 0.750336 -1.820544
4.192474 0.801270 -1.805116
4.463243 0.861702 -1.796584
4.759157 0.928558 -1.785762
5.082930 1.000740 -1.770744
5.485092 1.090552 -1.764726
5.945331 1.194383 -1.757955
6.440341 1.304776 -1.738788
7.068450 1.446311 -1.727592
7.815683 1.613229 -1.713948
8.778271 1.829995 -1.706808
10.062532 2.161743 -1.708236
10.928517 2.359582 -1.588209
11.485076 2.483742 -1.388427
11.540841 2.494575 -1.117168
11.594851 2.502846 -0.844296
0.001850 -0.158629 -0.007078
0.001850 -0.158629 -0.007078
27.193867 6.059838 -0.019830
28.926584 6.451076 0.668210
29.180164 6.498603 1.374887
23.652559 5.233344 1.678038
30.301207 6.738304 2.877702
22.968044 5.065102 2.736332
23.040600 5.073387 3.302251
0.001850 -0.158629 -0.007078
20.302921 4.440916 3.904946
0.436430 -0.060584 -0.271497
0.449171 -0.057883 -0.264930
3.359245 0.595130 -1.838632
3.532895 0.632847 -1.825927
3.737450 0.677368 -1.821099
3.964993 0.726858 -1.817263
4.192363 0.776924 -1.802776
4.463420 0.835841 -1.794374
4.767182 0.901841 -1.786420
5.093031 0.973461 -1.771998
5.490131 1.059794 -1.764100
5.951149 1.160004 -1.757372
6.457841 1.271166 -1.741293
7.075674 1.405459 -1.727096
7.829591 1.569348 -1.714745
8.803353 1.781144 -1.709366
10.096125 2.112354 -1.711770
10.903742 2.290130 -1.582578
11.483699 2.418409 -1.386518
11.537980 2.426473 -1.115440
11.576422 2.430957 -0.841862
0.001856 -0.158346 -0.007066
0.001856 -0.158346 -0.007066
27.300381 5.924333 -0.019768
28.545359 6.196801 0.658571
0.001856 -0.158346 -0.007066
23.622797 5.083972 1.673828
23.572350 5.064391 2.234240
23.556316 5.056764 2.803060
23.083857 4.943949 3.304278
20.275242 4.315891 3.394215
20.206205 4.297173 3.881380
0.431940 -0.064011 -0.268421
0.444655 -0.061375 -0.261975
3.361936 0.575100 -1.837669
3.535792 0.611790 -1.825006
3.738813 0.654701 -1.819362
3.973750 0.704386 -1.818867
4.201456 0.753118 -1.804293
4.474695 0.810810 -1.796532
4.773382 0.873826 -1.786392
5.103354 0.944311 -1.773252
5.500987 1.028293 -1.765263
5.960733 1.125363 -1.757893
6.470000 1.233943 -1.742275
7.090529 1.364970 -1.728447
7.851177 1.525624 -1.717207
8.831985 1.732873 -1.712666
10.128683 2.056923 -1.714977
10.900661 2.221898 -1.580018
11.485188 2.347567 -1.384839
11.527820 2.352776 -1.112964
11.570135 2.357877 -0.840268
0.001864 -0.158065 -0.007054
0.001864 -0.158065 -0.007054
0.001864 -0.158065 -0.007054
30.665752 6.478545 0.707200
0.001864 -0.158065 -0.007054
23.823151 4.980675 1.685976
28.210976 5.917203 2.671955
24.256838 5.061432 2.882983
23.752720 4.944520 3.395924
