# This PCD file was generated using the MATLAB® pcwrite function
# from Computer Vision Toolbox®.
# .PCD v.7 - Point Cloud Data file format
VERSION .7
FIELDS x y z
SIZE 4 4 4
TYPE F F F
COUNT 1 1 1
WIDTH 1627
HEIGHT 1
VIEWPOINT 0 0 0 1 0 0 0
POINTS 1627
DATA ascii
3.016271 -3.233475 -1.937561
3.200593 -3.426651 -1.929547
3.416010 -3.652386 -1.926010
3.681468 -3.929075 -1.935099
3.959953 -4.220903 -1.933116
4.297194 -4.574159 -1.937932
4.703601 -4.998104 -1.949616
5.183815 -5.500999 -1.962343
5.805177 -6.149425 -1.989354
6.535372 -6.913908 -2.009786
7.566478 -7.992999 -2.063188
8.790604 -9.191998 -2.081129
0.002000 -0.109369 -0.004787
0.002000 -0.109369 -0.004787
9.602643 -10.047424 -1.293825
0.002000 -0.109369 -0.004787
62.238194 -64.595924 -4.183374
20.640640 -21.508415 -0.694761
20.706707 -21.583635 -0.004514
17.768139 -18.548058 0.589929
17.811279 -18.605068 1.192842
17.103550 -17.875660 1.719835
21.195869 -22.141602 2.847675
18.498857 -19.350655 3.116691
0.002000 -0.109369 -0.004787
0.002000 -0.109369 -0.004787
37.464066 -39.142944 10.189172
0.403861 -0.529317 -0.349590
0.421209 -0.547787 -0.345695
0.450903 -0.578983 -0.350298
0.482120 -0.611997 -0.353851
2.820949 -3.063715 -1.937662
2.996451 -3.249696 -1.936715
3.186533 -3.450090 -1.932598
3.398119 -3.674421 -1.927431
3.660045 -3.951928 -1.935746
3.940165 -4.247451 -1.934999
4.274055 -4.601312 -1.939084
4.674514 -5.025648 -1.949572
5.158032 -5.536078 -1.964323
5.774630 -6.189104 -1.991146
6.494919 -6.952259 -2.009730
7.523638 -8.041745 -2.064235
8.747741 -9.252143 -2.083328
0.002009 -0.109086 -0.004775
8.854227 -9.372477 -1.500720
9.587917 -10.146898 -1.299508
0.002009 -0.109086 -0.004775
61.642597 -64.718643 -4.167863
0.002009 -0.109086 -0.004775
17.561747 -18.539047 -0.004422
17.314184 -18.284901 0.578353
17.964836 -18.980505 1.210585
17.253635 -18.245369 1.745918
18.471748 -19.538792 2.496644
17.305380 -18.317507 2.933051
0.002009 -0.109086 -0.004775
0.002009 -0.109086 -0.004775
37.378052 -39.504494 10.227575
0.406067 -0.536437 -0.353656
0.416204 -0.547459 -0.343721
0.449313 -0.582655 -0.351222
0.487710 -0.623671 -0.360117
2.802672 -3.078300 -1.936776
2.982083 -3.270605 -1.939124
3.165400 -3.467308 -1.931793
3.378824 -3.694998 -1.928124
3.637883 -3.972641 -1.935710
3.914986 -4.268404 -1.934321
4.245524 -4.622769 -1.937852
4.646149 -5.052188 -1.949529
5.129353 -5.568228 -1.965290
5.739550 -6.221957 -1.991096
6.453947 -6.985275 -2.008845
7.483282 -8.087637 -2.065286
8.723183 -9.335145 -2.090390
0.001994 -0.108823 -0.004763
9.553364 -10.223248 -1.628900
9.569206 -10.246764 -1.305004
0.001994 -0.108823 -0.004763
61.492729 -65.331375 -4.183358
20.312025 -21.658190 -0.691729
0.001994 -0.108823 -0.004763
17.063555 -18.235559 0.573651
19.801340 -21.150852 1.343159
17.053297 -18.242336 1.736276
17.244591 -18.451536 2.344400
17.257391 -18.477335 2.942935
0.001994 -0.108823 -0.004763
0.001994 -0.108823 -0.004763
37.274323 -39.850574 10.261907
0.400153 -0.534640 -0.350581
0.416129 -0.552039 -0.345666
0.445468 -0.583572 -0.350268
0.484839 -0.626091 -0.360102
2.785536 -3.094107 -1.936746
2.963846 -3.287431 -1.939093
3.146601 -3.484652 -1.931761
3.360662 -3.716841 -1.929545
3.616857 -3.994622 -1.936358
3.893545 -4.293380 -1.935564
4.220774 -4.648254 -1.938408
4.624166 -5.085613 -1.952243
5.097844 -5.597386 -1.965245
5.710892 -6.261747 -1.993352
6.417038 -7.027462 -2.010036
7.441186 -8.137360 -2.066704
8.685043 -9.397819 -2.093564
9.449549 -10.222405 -1.949535
9.540150 -10.322594 -1.636248
9.557314 -10.347775 -1.311060
0.001979 -0.108561 -0.004751
61.356632 -65.918777 -4.198596
20.154942 -21.739353 -0.690470
19.462219 -21.009720 -0.004096
17.214144 -18.600985 0.582369
17.761351 -19.201586 1.211871
16.933666 -18.323847 1.734865
17.532578 -18.980688 2.398978
0.001979 -0.108561 -0.004751
0.001979 -0.108561 -0.004751
0.001979 -0.108561 -0.004751
37.178509 -40.208305 10.299199
0.394115 -0.532933 -0.347506
0.415864 -0.556772 -0.347610
0.442627 -0.585933 -0.350253
0.490241 -0.637873 -0.366368
2.768998 -3.111632 -1.937571
2.946735 -3.305510 -1.939875
3.127792 -3.504322 -1.932499
3.340488 -3.737785 -1.930238
3.599530 -4.020625 -1.939058
3.868664 -4.316116 -1.935525
4.195085 -4.674325 -1.938963
4.594156 -5.110443 -1.951649
5.069144 -5.631510 -1.966717
5.679327 -6.298543 -1.994685
6.378441 -7.065441 -2.010398
7.394849 -8.179786 -2.066643
8.755690 -9.585150 -2.123967
9.431500 -10.319994 -1.957809
9.521174 -10.423969 -1.643360
9.539633 -10.450833 -1.316927
0.001988 -0.108279 -0.004739
52.515759 -57.109634 -3.616957
20.054733 -21.889124 -0.691295
19.257607 -21.029884 -0.003959
17.469627 -19.099804 0.595046
17.547760 -19.197443 1.205106
16.835289 -18.428066 1.735686
17.315901 -18.963661 2.384238
17.091209 -18.731335 2.951787
0.001988 -0.108279 -0.004739
0.001988 -0.108279 -0.004739
37.080730 -40.581390 10.338723
0.395137 -0.538727 -0.350552
0.408561 -0.553734 -0.343677
0.443440 -0.592103 -0.353055
0.487184 -0.640403 -0.366353
2.754119 -3.129904 -1.939252
2.934437 -3.328894 -1.943910
3.106948 -3.520630 -1.931695
3.320793 -3.758058 -1.930931
3.576946 -4.041006 -1.939022
3.849498 -4.343632 -1.938048
4.168740 -4.698114 -1.938923
4.570438 -5.142239 -1.953812
5.041162 -5.664625 -1.968191
5.642302 -6.329407 -1.994175
6.344867 -7.109005 -2.012422
7.356191 -8.230675 -2.068804
8.722293 -9.658431 -2.129085
9.409940 -10.414805 -1.965527
9.544655 -10.569308 -1.657663
9.524201 -10.553868 -1.322981
0.001974 -0.108017 -0.004727
0.001974 -0.108017 -0.004727
20.034006 -22.119253 -0.694766
19.332018 -21.354607 -0.003810
17.303522 -19.137629 0.593221
17.277712 -19.121883 1.194139
19.719584 -21.816288 2.046929
17.241865 -19.101068 2.389197
17.073143 -18.927687 2.967481
0.001974 -0.108017 -0.004727
0.001974 -0.108017 -0.004727
36.988262 -40.949734 10.378611
0.396102 -0.544548 -0.353598
0.408313 -0.558392 -0.345622
0.435910 -0.589123 -0.349285
0.485301 -0.644246 -0.367235
2.731847 -3.140053 -1.935799
2.915839 -3.345464 -1.943879
3.087258 -3.538179 -1.931663
3.298476 -3.775456 -1.930170
3.558017 -4.065450 -1.941039
3.825051 -4.365447 -1.938011
4.144797 -4.724604 -1.940075
4.542693 -5.169599 -1.954321
5.003950 -5.687497 -1.966120
5.598598 -6.352817 -1.991359
6.307081 -7.148045 -2.013200
7.310630 -8.274069 -2.069113
8.687007 -9.730183 -2.133878
9.383647 -10.505268 -1.972410
9.486928 -10.626760 -1.658052
9.510588 -10.660006 -1.329406
0.001983 -0.107734 -0.004715
0.001983 -0.107734 -0.004715
0.001983 -0.107734 -0.004715
19.571825 -21.868248 -0.003651
0.001983 -0.107734 -0.004715
17.159960 -19.211819 1.193705
19.494329 -21.817802 2.036602
17.009884 -19.063354 2.372224
16.899530 -18.952894 2.956219
0.001983 -0.107734 -0.004715
0.001983 -0.107734 -0.004715
36.887543 -41.312481 10.417016
0.391288 -0.543971 -0.351544
0.395284 -0.548726 -0.336791
0.433119 -0.591350 -0.349270
0.485762 -0.650760 -0.369912
2.717954 -3.159501 -1.938336
2.889889 -3.353713 -1.938968
3.065020 -3.552849 -1.930089
3.284737 -3.802461 -1.934501
3.532699 -4.082764 -1.939636
3.808022 -4.395624 -1.941815
4.120680 -4.750973 -1.941228
4.521125 -5.204026 -1.957586
4.976869 -5.721735 -1.968101
5.566444 -6.389023 -1.992694
6.272934 -7.191284 -2.015225
7.262222 -8.314250 -2.068683
8.641985 -9.791534 -2.136401
9.365834 -10.606128 -1.981241
9.476464 -10.737255 -1.666788
9.494728 -10.764849 -1.335645
0.001969 -0.107472 -0.004704
50.315178 -56.648926 -3.531177
0.001969 -0.107472 -0.004704
19.128664 -21.623013 -0.003529
17.419256 -19.713181 0.605239
17.566975 -19.892662 1.230198
0.001969 -0.107472 -0.004704
17.362967 -19.682079 2.437402
16.267672 -18.459393 2.864086
0.001969 -0.107472 -0.004704
0.001969 -0.107472 -0.004704
36.795589 -41.688671 10.458755
0.389909 -0.547221 -0.352549
0.398502 -0.557251 -0.341675
0.430338 -0.593541 -0.349255
0.481447 -0.651920 -0.369000
2.701526 -3.176186 -1.939162
2.869369 -3.369155 -1.938123
3.048794 -3.574317 -1.932369
3.260957 -3.818231 -1.933012
3.511544 -4.106191 -1.940967
3.785784 -4.420041 -1.943058
4.096411 -4.777202 -1.942380
4.490839 -5.230460 -1.957543
4.943209 -5.748548 -1.967550
5.530369 -6.423119 -1.993105
6.233401 -7.231021 -2.016002
7.218587 -8.362829 -2.070102
8.595255 -9.851191 -2.138602
9.337456 -10.699844 -1.988400
9.450572 -10.831599 -1.672974
9.479294 -10.871348 -1.342070
0.001953 -0.107209 -0.004692
0.001953 -0.107209 -0.004692
51.649025 -58.863964 -1.817410
18.984900 -21.717752 -0.003387
16.857555 -19.302011 0.589552
17.110176 -19.602747 1.206080
0.001953 -0.107209 -0.004692
17.250479 -19.788927 2.438090
16.153913 -18.543463 2.862812
0.001953 -0.107209 -0.004692
0.001953 -0.107209 -0.004692
36.674625 -42.035580 10.493089
0.386150 -0.547954 -0.351515
0.396963 -0.560643 -0.342640
0.426275 -0.594479 -0.348302
0.473500 -0.649100 -0.365396
2.682101 -3.190506 -1.938276
2.854166 -3.389460 -1.940532
3.033028 -3.597627 -1.935420
3.241352 -3.840027 -1.934433
3.488472 -4.126059 -1.940932
3.758894 -4.440711 -1.942380
4.067413 -4.799681 -1.941744
4.462528 -5.257406 -1.958053
4.914733 -5.783339 -1.969530
5.491380 -6.451627 -1.992134
6.199965 -7.275390 -2.018443
7.172247 -8.405443 -2.070413
8.551583 -9.918084 -2.142097
9.312766 -10.794945 -1.996117
9.510735 -11.029508 -1.694924
9.458403 -10.976693 -1.348121
0.001962 -0.106927 -0.004680
48.847618 -56.308167 -3.473428
0.001962 -0.106927 -0.004680
19.054260 -22.049891 -0.003235
52.317684 -60.400536 1.852645
16.972004 -19.677925 1.204623
0.001962 -0.106927 -0.004680
17.185137 -19.943293 2.445094
16.058577 -18.655172 2.865490
0.001962 -0.106927 -0.004680
0.001962 -0.106927 -0.004680
0.001962 -0.106927 -0.004680
0.381369 -0.547271 -0.349460
0.396620 -0.565279 -0.344584
0.424621 -0.597973 -0.349226
0.464556 -0.644748 -0.360894
2.670196 -3.212476 -1.942524
2.835228 -3.405554 -1.940501
3.014086 -3.616153 -1.936158
3.224670 -3.863999 -1.937309
3.465267 -4.145809 -1.940897
3.736368 -4.464867 -1.943624
4.045296 -4.828542 -1.944088
4.435304 -5.285656 -1.959114
4.887022 -5.817130 -1.971511
5.458584 -6.487275 -1.993469
6.162431 -7.315132 -2.019637
7.121806 -8.443328 -2.069613
8.505288 -9.978820 -2.144621
8.639826 -10.138204 -1.864435
8.678048 -10.189363 -1.557131
9.446335 -11.089548 -1.355288
0.001948 -0.106665 -0.004668
0.001948 -0.106665 -0.004668
0.001948 -0.106665 -0.004668
0.001948 -0.106665 -0.004668
0.001948 -0.106665 -0.004668
0.001948 -0.106665 -0.004668
0.001948 -0.106665 -0.004668
17.329687 -20.344120 2.482399
16.393198 -19.263210 2.945094
0.001948 -0.106665 -0.004668
0.001948 -0.106665 -0.004668
0.001948 -0.106665 -0.004668
0.380020 -0.550413 -0.350466
0.391771 -0.564559 -0.342611
0.413859 -0.590633 -0.342639
0.461521 -0.647061 -0.360879
2.651662 -3.225663 -1.941639
2.818558 -3.424324 -1.942097
2.995652 -3.634044 -1.936898
3.202442 -3.880238 -1.936549
3.443196 -4.166823 -1.941546
3.713208 -4.486817 -1.944228
4.020117 -4.852220 -1.944645
4.412890 -5.319611 -1.962379
4.857569 -5.846993 -1.972480
5.424277 -6.521282 -1.994343
6.123358 -7.353196 -2.020416
7.078791 -8.489898 -2.071034
8.462840 -10.040893 -2.147796
8.569113 -10.172399 -1.861584
0.001954 -0.106379 -0.004656
9.426162 -11.190368 -1.361156
0.001954 -0.106379 -0.004656
47.126099 -55.584820 -3.394977
0.001954 -0.106379 -0.004656
0.001954 -0.106379 -0.004656
0.001954 -0.106379 -0.004656
0.001954 -0.106379 -0.004656
0.001954 -0.106379 -0.004656
0.001954 -0.106379 -0.004656
16.373266 -19.457228 2.961016
0.001954 -0.106379 -0.004656
0.001954 -0.106379 -0.004656
0.001954 -0.106379 -0.004656
0.379578 -0.555021 -0.352491
0.392427 -0.570582 -0.345535
0.421200 -0.604965 -0.351074
0.451428 -0.641279 -0.355481
2.637780 -3.246583 -1.945032
2.798226 -3.438829 -1.941253
2.977046 -3.654303 -1.938407
3.178812 -3.897459 -1.935788
3.422170 -4.189189 -1.942879
3.688397 -4.509928 -1.944831
4.000469 -4.885960 -1.948775
4.381588 -5.343166 -1.961787
4.824679 -5.876910 -1.972941
5.388513 -6.553616 -1.994756
6.089078 -7.397046 -2.022857
7.035458 -8.536263 -2.072456
8.408860 -10.096669 -2.149023
8.551836 -10.269773 -1.870418
9.374407 -11.255127 -1.704438
9.410215 -11.305262 -1.368321
0.001939 -0.106116 -0.004644
46.410969 -55.403965 -3.366730
0.001939 -0.106116 -0.004644
0.001939 -0.106116 -0.004644
0.001939 -0.106116 -0.004644
0.001939 -0.106116 -0.004644
0.001939 -0.106116 -0.004644
17.676886 -21.236662 2.567242
0.001939 -0.106116 -0.004644
0.001939 -0.106116 -0.004644
0.001939 -0.106116 -0.004644
0.001939 -0.106116 -0.004644
0.375886 -0.555594 -0.351457
0.383042 -0.564518 -0.339643
0.412675 -0.600309 -0.346365
0.451752 -0.647720 -0.358158
2.630037 -3.273970 -1.952702
2.777262 -3.453668 -1.940409
2.955412 -3.669671 -1.937605
3.160515 -3.919710 -1.937937
3.400307 -4.212022 -1.944212
3.666606 -4.535193 -1.946715
3.972907 -4.908617 -1.948737
4.354108 -5.373243 -1.963398
4.798782 -5.913256 -1.975935
5.351421 -6.586684 -1.995168
6.048227 -7.435770 -2.023635
6.986586 -8.579082 -2.072766
8.357542 -10.152205 -2.150575
9.235793 -11.215639 -2.033938
9.362131 -11.371268 -1.713868
9.393952 -11.417171 -1.375301
0.001949 -0.105835 -0.004632
45.734776 -55.239361 -3.340360
0.001949 -0.105835 -0.004632
0.001949 -0.105835 -0.004632
0.001949 -0.105835 -0.004632
0.001949 -0.105835 -0.004632
0.001949 -0.105835 -0.004632
0.001949 -0.105835 -0.004632
0.001949 -0.105835 -0.004632
0.001949 -0.105835 -0.004632
0.001949 -0.105835 -0.004632
0.001949 -0.105835 -0.004632
0.371031 -0.554868 -0.349402
0.382532 -0.569190 -0.341588
0.411958 -0.605210 -0.348228
0.445129 -0.645961 -0.355451
0.486667 -0.696997 -0.366511
2.766046 -3.479223 -1.946072
2.938895 -3.692577 -1.940655
3.139003 -3.939568 -1.938631
3.377811 -4.232701 -1.944861
3.640289 -4.556572 -1.946678
3.945562 -4.933300 -1.949293
4.326176 -5.400901 -1.964460
4.770385 -5.948824 -1.978423
5.316497 -6.620113 -1.996042
6.009643 -7.474736 -2.024830
6.943903 -8.626503 -2.074558
8.305348 -10.210455 -2.152451
9.214440 -11.320374 -2.043324
9.335505 -11.475437 -1.721210
9.372162 -11.527837 -1.381908
0.001933 -0.105572 -0.004620
29.862545 -36.541794 -2.198152
0.001933 -0.105572 -0.004620
0.001933 -0.105572 -0.004620
0.001933 -0.105572 -0.004620
0.001933 -0.105572 -0.004620
0.001933 -0.105572 -0.004620
0.001933 -0.105572 -0.004620
0.001933 -0.105572 -0.004620
0.001933 -0.105572 -0.004620
0.001933 -0.105572 -0.004620
0.001933 -0.105572 -0.004620
0.366259 -0.554050 -0.347348
0.377660 -0.568391 -0.339614
0.410189 -0.608659 -0.349153
0.445377 -0.652404 -0.358128
0.487896 -0.705052 -0.369919
2.750043 -3.499063 -1.948482
2.919353 -3.710598 -1.941395
3.121092 -3.961081 -1.940781
3.354004 -4.251796 -1.944827
3.614203 -4.575070 -1.946002
3.922154 -4.959426 -1.951043
4.296827 -5.426939 -1.964970
4.742560 -5.981104 -1.980405
5.282570 -6.654883 -1.997378
5.974570 -7.515496 -2.026857
6.896252 -8.664842 -2.074502
8.256993 -10.270081 -2.154977
9.193435 -11.426762 -2.052988
9.313706 -11.582706 -1.729250
9.352670 -11.638543 -1.388702
0.001918 -0.105308 -0.004609
28.572184 -35.379223 -2.118040
47.763943 -59.093029 -1.761056
0.001918 -0.105308 -0.004609
0.001918 -0.105308 -0.004609
0.001918 -0.105308 -0.004609
0.001918 -0.105308 -0.004609
0.001918 -0.105308 -0.004609
0.001918 -0.105308 -0.004609
0.001918 -0.105308 -0.004609
0.001918 -0.105308 -0.004609
0.001918 -0.105308 -0.004609
0.364832 -0.557143 -0.348354
0.376150 -0.571577 -0.340579
0.405158 -0.607906 -0.347260
0.442322 -0.654594 -0.358113
0.488967 -0.713201 -0.373326
2.732758 -3.517405 -1.950078
2.900360 -3.727984 -1.942135
3.097680 -3.977255 -1.940021
3.331264 -4.272219 -1.945477
3.593146 -4.601443 -1.948527
3.896548 -4.984617 -1.952196
4.267313 -5.452819 -1.965481
4.712281 -6.012568 -1.981881
5.246010 -6.686417 -1.997792
5.934167 -7.555119 -2.028051
6.846607 -8.706841 -2.074812
8.200142 -10.315725 -2.154911
9.177700 -11.541002 -2.064043
9.337767 -11.744245 -1.745635
9.337963 -11.752445 -1.396055
0.001928 -0.105027 -0.004597
27.566938 -34.528873 -2.057667
0.001928 -0.105027 -0.004597
0.001928 -0.105027 -0.004597
0.001928 -0.105027 -0.004597
0.001928 -0.105027 -0.004597
0.001928 -0.105027 -0.004597
0.001928 -0.105027 -0.004597
0.001928 -0.105027 -0.004597
0.001928 -0.105027 -0.004597
0.001928 -0.105027 -0.004597
0.001928 -0.105027 -0.004597
0.366414 -0.564410 -0.352420
0.375532 -0.576259 -0.342524
0.399971 -0.607252 -0.345368
0.436820 -0.654132 -0.356304
0.486456 -0.717238 -0.374166
2.709659 -3.528513 -1.947608
2.876541 -3.741946 -1.940561
3.078137 -3.999659 -1.942169
3.311872 -4.296957 -1.948178
3.567577 -4.623899 -1.949130
3.869902 -5.010365 -1.953349
4.241243 -5.483041 -1.967645
4.680767 -6.044684 -1.983356
5.206842 -6.714696 -1.997284
5.889982 -7.587336 -2.027584
6.801846 -8.752007 -2.076236
8.148037 -10.374719 -2.157112
9.153545 -11.646142 -2.073428
9.280921 -11.814708 -1.747877
9.315722 -11.866651 -1.403033
26.977707 -34.182072 -3.040115
27.362312 -34.691471 -2.057466
47.217674 -59.831707 -1.765847
47.055973 -59.646416 0.001784
29.520945 -37.483303 1.105232
0.001913 -0.104764 -0.004585
0.001913 -0.104764 -0.004585
0.001913 -0.104764 -0.004585
0.001913 -0.104764 -0.004585
0.001913 -0.104764 -0.004585
0.001913 -0.104764 -0.004585
0.001913 -0.104764 -0.004585
0.364819 -0.567586 -0.353425
0.368507 -0.572640 -0.338592
0.395996 -0.607860 -0.344415
0.430352 -0.652127 -0.353597
0.481807 -0.718321 -0.373295
2.696075 -3.552872 -1.952458
2.855556 -3.758168 -1.940530
3.054516 -4.015572 -1.941410
3.286965 -4.316240 -1.948144
3.542698 -4.645556 -1.949734
3.845134 -5.036793 -1.955098
4.206899 -5.504799 -1.966502
4.647678 -6.072789 -1.983819
5.166367 -6.743638 -1.996775
5.847921 -7.624937 -2.028363
6.754064 -8.796574 -2.077287
8.085134 -10.416517 -2.156074
8.503609 -10.957773 -1.940943
0.001899 -0.104502 -0.004573
9.298184 -11.984097 -1.410569
25.995943 -33.344765 -2.951577
27.300587 -35.024410 -2.067687
0.001899 -0.104502 -0.004573
29.602236 -38.020493 -0.000331
0.001899 -0.104502 -0.004573
0.001899 -0.104502 -0.004573
0.001899 -0.104502 -0.004573
0.001899 -0.104502 -0.004573
0.001899 -0.104502 -0.004573
0.001899 -0.104502 -0.004573
0.001899 -0.104502 -0.004573
0.001899 -0.104502 -0.004573
0.361005 -0.568103 -0.352391
0.366792 -0.575911 -0.339557
0.395162 -0.612712 -0.346278
0.428182 -0.655806 -0.354480
0.485892 -0.730901 -0.379269
2.678420 -3.570947 -1.954054
2.839483 -3.782063 -1.944352
3.032401 -4.034822 -1.942104
3.261512 -4.333331 -1.947426
3.518016 -4.669214 -1.950978
3.815804 -5.059243 -1.955059
4.175753 -5.528643 -1.966462
4.616926 -6.106101 -1.985800
5.131619 -6.777626 -1.998112
5.810483 -7.665965 -2.030391
6.706312 -8.838151 -2.077971
8.029875 -10.471815 -2.157627
8.386438 -10.935790 -1.928357
0.001907 -0.104220 -0.004561
8.403047 -10.972126 -1.284841
25.096615 -32.577930 -2.870580
26.351807 -34.225620 -2.011046
0.001907 -0.104220 -0.004561
25.851746 -33.611958 -0.000656
28.935614 -37.635139 1.100062
0.001907 -0.104220 -0.004561
0.001907 -0.104220 -0.004561
0.001907 -0.104220 -0.004561
0.001907 -0.104220 -0.004561
0.001907 -0.104220 -0.004561
0.001907 -0.104220 -0.004561
0.001907 -0.104220 -0.004561
0.351018 -0.560321 -0.345237
0.367252 -0.581885 -0.342481
0.391137 -0.613307 -0.345325
0.420660 -0.652296 -0.350876
0.486779 -0.739066 -0.382676
2.657312 -3.584579 -1.953211
2.818257 -3.798080 -1.944322
3.010418 -4.051407 -1.942073
3.237126 -4.351750 -1.947392
3.492487 -4.688500 -1.950944
3.789257 -5.081698 -1.955618
4.152622 -5.563014 -1.970280
4.591561 -6.142275 -1.989303
5.099010 -6.814524 -2.000371
5.774112 -7.705785 -2.032419
6.658659 -8.876727 -2.078285
7.968888 -10.516005 -2.157237
8.278229 -10.923827 -1.917719
8.316433 -10.981256 -1.601875
8.324632 -10.999465 -1.282360
24.863287 -32.661304 -2.865107
26.322252 -34.595615 -2.023688
0.001893 -0.103958 -0.004549
25.902168 -34.079613 -0.000432
0.001893 -0.103958 -0.004549
17.821436 -23.503189 1.369898
0.001893 -0.103958 -0.004549
0.001893 -0.103958 -0.004549
0.001893 -0.103958 -0.004549
0.001893 -0.103958 -0.004549
0.001893 -0.103958 -0.004549
0.001893 -0.103958 -0.004549
0.352600 -0.567491 -0.349303
0.362474 -0.580862 -0.340508
0.387220 -0.613792 -0.344372
0.421895 -0.660063 -0.354450
0.486371 -0.745911 -0.385227
2.637234 -3.599541 -1.953182
2.788728 -3.801668 -1.938126
2.992155 -4.074330 -1.944950
3.213759 -4.371534 -1.948043
3.467178 -4.709766 -1.951549
3.763979 -5.107733 -1.957368
4.123430 -5.589634 -1.971342
4.559044 -6.171432 -1.990273
5.061477 -6.845037 -2.000785
5.730097 -7.741189 -2.032783
6.605330 -8.914221 -2.077857
7.913037 -10.563190 -2.157821
8.242084 -11.005783 -1.923771
8.308301 -11.096954 -1.612007
8.310482 -11.107467 -1.289532
24.776434 -32.937374 -2.876631
0.001902 -0.103675 -0.004537
26.749294 -35.588135 -1.031759
25.754297 -34.291767 -0.000239
27.057714 -36.033936 1.044239
17.490646 -23.344887 1.354810
0.001902 -0.103675 -0.004537
0.001902 -0.103675 -0.004537
0.001902 -0.103675 -0.004537
0.001902 -0.103675 -0.004537
0.001902 -0.103675 -0.004537
0.001902 -0.103675 -0.004537
0.351889 -0.572056 -0.351328
0.357538 -0.579936 -0.338535
0.385237 -0.617217 -0.345296
0.420727 -0.665135 -0.356230
0.483629 -0.749952 -0.386067
2.619742 -3.619229 -1.955591
2.770047 -3.822315 -1.940407
2.969649 -4.093237 -1.945645
3.194010 -4.397775 -1.951428
3.442055 -4.733018 -1.952793
3.738788 -5.135827 -1.959712
4.089699 -5.612155 -1.970751
4.521852 -6.196513 -1.989723
5.029533 -6.885595 -2.003965
5.697525 -7.792044 -2.037303
6.562334 -8.965590 -2.080760
7.848497 -10.606504 -2.157107
8.217584 -11.108144 -1.933159
8.301172 -11.223770 -1.623293
8.293905 -11.221716 -1.297072
24.711246 -33.257820 -2.891632
26.708847 -35.949959 -2.084481
26.151520 -35.226234 -1.016589
25.342178 -34.162804 -0.000086
26.742718 -36.057117 1.040474
17.335815 -23.425472 1.353636
0.001887 -0.103412 -0.004526
0.001887 -0.103412 -0.004526
0.001887 -0.103412 -0.004526
0.001887 -0.103412 -0.004526
0.001887 -0.103412 -0.004526
0.001887 -0.103412 -0.004526
0.346131 -0.569624 -0.348254
0.352733 -0.578880 -0.336561
0.381218 -0.617721 -0.344342
0.411114 -0.658634 -0.350832
0.474534 -0.745164 -0.381775
2.596213 -3.629555 -1.953122
2.751875 -3.842376 -1.942688
2.947744 -4.111478 -1.946340
3.169238 -4.415809 -1.951394
3.418728 -4.757045 -1.954678
3.709779 -5.156967 -1.959675
4.063606 -5.643076 -1.973467
4.488986 -6.225284 -1.990693
4.990401 -6.914159 -2.003919
5.658970 -7.832309 -2.039331
6.512382 -9.004516 -2.081074
7.785581 -10.648039 -2.156394
8.236397 -11.266558 -1.952561
8.275929 -11.323849 -1.630873
8.281745 -11.339529 -1.305169
24.613470 -33.526142 -2.902459
26.130196 -35.597607 -2.055103
25.979721 -35.417770 -1.017604
26.391888 -36.003067 0.000325
0.001893 -0.103127 -0.004514
17.099585 -23.386097 1.345733
0.001893 -0.103127 -0.004514
0.001893 -0.103127 -0.004514
0.001893 -0.103127 -0.004514
0.001893 -0.103127 -0.004514
0.001893 -0.103127 -0.004514
0.001893 -0.103127 -0.004514
0.344364 -0.572780 -0.349260
0.347845 -0.577867 -0.334588
0.375045 -0.615403 -0.341512
0.413058 -0.668013 -0.355303
0.458077 -0.730050 -0.371494
2.579101 -3.648594 -1.955533
2.727479 -3.855371 -1.941116
2.931209 -4.137136 -1.950672
3.143254 -4.432186 -1.950677
3.393008 -4.777895 -1.955283
3.680620 -5.177968 -1.959638
4.029390 -5.662990 -1.972325
4.459357 -6.258576 -1.993183
4.954555 -6.947213 -2.005256
5.622611 -7.873020 -2.041776
6.469497 -9.050017 -2.083241
7.722917 -10.693745 -2.156329
8.119520 -11.241471 -1.939978
8.168325 -11.316237 -1.622693
8.237227 -11.418758 -1.308626
0.001879 -0.102865 -0.004502
25.992071 -35.851864 -2.060673
25.865360 -35.689369 -1.020929
25.147026 -34.725197 0.000315
26.005983 -35.932911 1.028359
16.659065 -23.061804 1.321484
17.087954 -23.669407 2.034286
0.001879 -0.102865 -0.004502
0.001879 -0.102865 -0.004502
0.001879 -0.102865 -0.004502
0.001879 -0.102865 -0.004502
0.001879 -0.102865 -0.004502
0.340722 -0.573024 -0.348226
0.355363 -0.593679 -0.344369
0.379399 -0.627238 -0.348069
0.404688 -0.662765 -0.350803
0.449173 -0.725062 -0.367202
2.567183 -3.674973 -1.962010
2.707595 -3.871740 -1.941858
2.910098 -4.156705 -1.952096
3.121575 -4.454509 -1.952696
3.367145 -4.798615 -1.955889
3.656915 -5.206546 -1.962580
3.999575 -5.688928 -1.973389
4.426106 -6.287010 -1.994154
4.920749 -6.983249 -2.007516
5.580978 -7.912322 -2.043388
6.422055 -9.095932 -2.085035
7.663684 -10.736411 -2.156268
8.019409 -11.237912 -1.931291
8.126491 -11.390409 -1.626801
8.249536 -11.569350 -1.320622
0.001863 -0.102601 -0.004490
25.796799 -36.002594 -2.060867
25.108486 -35.069160 -0.998898
26.138916 -36.529819 0.000731
16.685362 -23.362144 0.663418
16.586002 -23.239828 1.326370
16.911337 -23.710327 2.029520
0.001863 -0.102601 -0.004490
0.001863 -0.102601 -0.004490
0.001863 -0.102601 -0.004490
0.001863 -0.102601 -0.004490
0.001863 -0.102601 -0.004490
0.340918 -0.578958 -0.351272
0.343355 -0.582700 -0.335539
0.370146 -0.620556 -0.342422
0.403412 -0.667799 -0.352583
0.444419 -0.725965 -0.366332
0.494521 -0.796798 -0.383455
2.687332 -3.890464 -1.943369
2.880626 -4.166010 -1.948428
3.098655 -4.475189 -1.954032
3.341426 -4.821316 -1.957134
3.626598 -5.227858 -1.962543
3.968465 -5.713152 -1.973902
4.384874 -6.306564 -1.992087
4.887788 -7.020730 -2.010238
5.542710 -7.953626 -2.045834
6.378109 -9.143720 -2.087572
7.601646 -10.782993 -2.156528
7.979297 -11.317498 -1.937068
8.127315 -11.533654 -1.640406
8.240191 -11.700598 -1.330018
0.001873 -0.102320 -0.004478
25.896759 -36.596218 -2.085865
24.943485 -35.277508 -1.000426
16.218210 -22.979914 -0.001106
0.001873 -0.102320 -0.004478
16.344597 -23.190748 1.318086
16.447897 -23.344444 1.989952
0.001873 -0.102320 -0.004478
0.001873 -0.102320 -0.004478
0.001873 -0.102320 -0.004478
0.001873 -0.102320 -0.004478
0.001873 -0.102320 -0.004478
0.334209 -0.575002 -0.347178
0.344577 -0.590106 -0.339443
0.368171 -0.623843 -0.343346
0.399128 -0.668363 -0.351671
0.440831 -0.728222 -0.366317
0.496815 -0.808322 -0.388319
2.673944 -3.917696 -1.949504
2.863604 -4.191400 -1.952761
3.070206 -4.488055 -1.951948
3.315295 -4.841749 -1.957741
3.599213 -5.251508 -1.963699
3.941607 -5.743507 -1.976620
4.351329 -6.334580 -1.993059
4.855696 -7.059636 -2.013420
5.500792 -7.989934 -2.047032
6.330465 -9.186451 -2.088999
7.540036 -10.826303 -2.156467
8.126405 -11.664381 -1.988731
8.218935 -11.804312 -1.672317
8.230493 -11.829058 -1.339229
0.001858 -0.102057 -0.004466
25.775732 -36.872002 -2.092933
25.762693 -36.879383 -1.041393
0.001858 -0.102057 -0.004466
17.199921 -24.680429 0.695724
16.216013 -23.290699 1.318578
16.282951 -23.394310 1.986297
0.001858 -0.102057 -0.004466
0.001858 -0.102057 -0.004466
0.001858 -0.102057 -0.004466
0.001858 -0.102057 -0.004466
0.001858 -0.102057 -0.004466
0.330505 -0.575217 -0.346144
0.341754 -0.591804 -0.339429
0.364137 -0.624231 -0.342393
0.395852 -0.670375 -0.351657
0.441320 -0.736425 -0.369724
0.001868 -0.101776 -0.004454
2.654035 -3.935785 -1.951017
2.841085 -4.209068 -1.953457
3.047338 -4.510553 -1.953967
3.291194 -4.865150 -1.959627
3.571699 -5.274995 -1.964854
3.909179 -5.768087 -1.977132
4.319777 -6.365619 -1.995044
4.815451 -7.089638 -2.013836
5.456136 -8.025364 -2.047815
6.278692 -9.226810 -2.089684
7.483810 -10.877359 -2.158026
8.110753 -11.788581 -2.001735
8.205781 -11.929505 -1.683373
8.218426 -11.956170 -1.348255
16.550236 -23.993752 -2.033041
16.536974 -23.982637 -1.355307
25.076153 -36.341141 -1.021962
15.731367 -22.851454 -0.000918
24.863825 -36.071957 1.016335
16.542078 -24.049131 1.356532
16.163788 -23.518095 1.988795
0.001868 -0.101776 -0.004454
0.001868 -0.101776 -0.004454
0.001868 -0.101776 -0.004454
0.001868 -0.101776 -0.004454
0.001868 -0.101776 -0.004454
0.331569 -0.582571 -0.350210
0.336876 -0.590657 -0.337456
0.358046 -0.621721 -0.339563
0.392486 -0.672420 -0.351642
0.434596 -0.734197 -0.367143
0.497784 -0.827109 -0.395608
2.633345 -3.954220 -1.952528
2.818461 -4.226605 -1.954154
3.022979 -4.529293 -1.954619
3.261584 -4.880613 -1.958314
3.544006 -5.298356 -1.966011
3.874345 -5.787033 -1.975993
4.289104 -6.398095 -1.997535
4.775140 -7.116972 -2.013793
5.395342 -8.031137 -2.041535
6.234312 -9.271175 -2.091853
7.418676 -10.919635 -2.157640
8.089262 -11.901775 -2.013072
8.207349 -12.082566 -1.698135
8.198599 -12.078369 -1.356537
16.414717 -24.091619 -2.033200
25.789648 -37.821609 -2.129266
16.470049 -24.197866 -0.678225
24.278517 -35.648689 0.001221
24.469715 -35.954262 1.009045
15.913075 -23.424109 1.315916
15.950077 -23.495052 1.979128
0.001854 -0.101514 -0.004443
0.001854 -0.101514 -0.004443
0.001854 -0.101514 -0.004443
0.001854 -0.101514 -0.004443
0.001854 -0.101514 -0.004443
0.328874 -0.584135 -0.350196
0.332188 -0.589357 -0.335483
0.357115 -0.626355 -0.341426
0.384271 -0.666927 -0.347142
0.428916 -0.733413 -0.365418
0.492594 -0.828151 -0.394780
2.614908 -3.973166 -1.954811
2.795710 -4.244032 -1.954851
2.998508 -4.547892 -1.955271
3.236154 -4.902162 -1.959561
3.516179 -5.321550 -1.967167
3.844769 -5.813754 -1.977609
4.254936 -6.425625 -1.998508
4.736866 -7.147285 -2.014672
5.352579 -8.069221 -2.043149
6.182014 -9.310974 -2.092539
7.359280 -10.962240 -2.157906
8.067857 -12.016736 -2.024687
8.162610 -12.160823 -1.702705
8.184070 -12.201180 -1.365192
0.001838 -0.101251 -0.004431
25.522806 -37.881908 -2.124447
16.369116 -24.348333 -0.679675
51.286804 -76.131363 0.007973
16.361576 -24.362844 0.678910
15.718256 -23.425581 1.310986
15.798423 -23.561371 1.977147
0.001838 -0.101251 -0.004431
0.001838 -0.101251 -0.004431
0.001838 -0.101251 -0.004431
0.001838 -0.101251 -0.004431
0.001838 -0.101251 -0.004431
0.319322 -0.575774 -0.343042
0.330248 -0.592493 -0.336448
0.357912 -0.634061 -0.345167
0.384890 -0.674851 -0.350716
0.424155 -0.734161 -0.364548
0.491424 -0.835267 -0.397204
2.588830 -3.983722 -1.952470
2.766972 -4.254052 -1.951912
2.973901 -4.566370 -1.955924
3.208678 -4.922573 -1.960167
3.485162 -5.342035 -1.967131
3.812890 -5.837115 -1.978123
4.218448 -6.452067 -1.998974
4.698391 -7.177396 -2.015551
5.308783 -8.102890 -2.043933
6.131081 -9.349402 -2.093227
7.300226 -11.013620 -2.159464
8.051981 -12.141729 -2.037970
8.148339 -12.294631 -1.714685
8.164117 -12.327082 -1.373844
21.719427 -32.642391 -2.734717
16.096874 -24.235027 -1.353182
0.001848 -0.100970 -0.004419
15.525789 -23.403490 -0.000529
25.566679 -38.503208 1.073086
15.992406 -24.138527 1.345959
16.061926 -24.251371 2.027727
0.001848 -0.100970 -0.004419
0.001848 -0.100970 -0.004419
0.001848 -0.100970 -0.004419
0.001848 -0.100970 -0.004419
0.001848 -0.100970 -0.004419
0.319420 -0.581635 -0.346088
0.328370 -0.595559 -0.337414
0.355793 -0.637315 -0.346091
0.380584 -0.675290 -0.349805
0.420512 -0.736300 -0.364533
0.485178 -0.834751 -0.395563
2.572534 -4.007526 -1.957065
2.741999 -4.268077 -1.951154
2.951240 -4.587855 -1.957944
3.186067 -4.948608 -1.963334
3.461231 -5.371303 -1.970669
3.778759 -5.857080 -1.977535
4.178622 -6.471127 -1.997416
4.656509 -7.202426 -2.015048
5.274436 -8.151035 -2.048457
6.085270 -9.395785 -2.095765
7.241663 -11.061756 -2.160700
8.029468 -12.258674 -2.049862
8.150229 -12.450488 -1.729911
8.141858 -12.446730 -1.381940
21.616295 -32.894875 -2.745283
25.686155 -39.098034 -2.175356
0.001833 -0.100706 -0.004407
28.092192 -42.796837 0.002878
15.526601 -23.714806 0.655751
15.512605 -23.710627 1.317013
15.936885 -24.364815 2.029661
0.001833 -0.100706 -0.004407
0.001833 -0.100706 -0.004407
0.001833 -0.100706 -0.004407
0.001833 -0.100706 -0.004407
0.001833 -0.100706 -0.004407
0.317569 -0.584636 -0.347094
0.323620 -0.594230 -0.335441
0.350784 -0.636102 -0.344200
0.376291 -0.675696 -0.348893
0.412894 -0.732374 -0.361097
0.479830 -0.835791 -0.394735
2.549996 -4.022000 -1.957036
2.720002 -4.286636 -1.952579
2.923556 -4.603425 -1.957228
3.158122 -4.966583 -1.963301
3.429794 -5.389263 -1.970039
3.747699 -5.883949 -1.979151
4.143998 -6.498038 -1.998389
4.616445 -7.232894 -2.015925
5.227670 -8.183535 -2.048825
6.033255 -9.436376 -2.096822
7.177377 -11.101328 -2.160317
7.999394 -12.370520 -2.060641
8.111542 -12.546852 -1.736795
8.124975 -12.576563 -1.391150
20.153852 -31.073925 -2.582931
25.471088 -39.260017 -2.176012
15.788991 -24.391243 -0.672767
25.311249 -39.071045 0.002402
16.057842 -24.831509 0.684500
15.739612 -24.359024 1.348342
49.793533 -76.906532 6.409762
0.001843 -0.100426 -0.004395
0.001843 -0.100426 -0.004395
0.001843 -0.100426 -0.004395
0.001843 -0.100426 -0.004395
0.001843 -0.100426 -0.004395
0.313767 -0.584778 -0.346060
0.320672 -0.595870 -0.335427
0.345686 -0.634922 -0.342308
0.370933 -0.674630 -0.347085
0.411087 -0.737576 -0.362793
0.470507 -0.830667 -0.390654
2.526689 -4.036783 -1.957007
2.703160 -4.314975 -1.958366
2.898838 -4.623566 -1.958564
3.129205 -4.984953 -1.963268
3.400434 -5.412446 -1.971195
3.716436 -5.910660 -1.980766
4.109116 -6.527114 -1.999867
4.576144 -7.263165 -2.016804
5.178594 -8.212468 -2.048362
5.984134 -9.481651 -2.098989
7.118429 -11.153375 -2.162200
7.971519 -12.487406 -2.072252
8.091315 -12.678003 -1.748312
8.103618 -12.706323 -1.400172
19.954725 -31.169117 -2.580833
25.121830 -39.228539 -2.165797
0.001828 -0.100162 -0.004383
27.581665 -43.123085 0.003281
15.988552 -25.047235 0.687985
0.001828 -0.100162 -0.004383
49.300564 -77.143051 6.405359
0.001828 -0.100162 -0.004383
0.001828 -0.100162 -0.004383
0.001828 -0.100162 -0.004383
0.001828 -0.100162 -0.004383
0.001828 -0.100162 -0.004383
0.311887 -0.587744 -0.347066
0.320617 -0.601834 -0.338351
0.345440 -0.641088 -0.345110
0.370494 -0.680995 -0.349762
0.404623 -0.734987 -0.360212
0.459581 -0.822185 -0.384946
2.506971 -4.055643 -1.959290
2.675617 -4.323411 -1.955428
2.875556 -4.642570 -1.959901
3.103919 -5.005264 -1.964516
3.370735 -5.431060 -1.971161
3.684985 -5.932650 -1.981282
4.078342 -6.557850 -2.002360
4.538195 -7.291586 -2.017684
5.137786 -8.245034 -2.049565
5.938570 -9.521897 -2.100790
7.055755 -11.195545 -2.162465
7.955357 -12.615017 -2.086092
8.144453 -12.921965 -1.775581
8.087458 -12.841601 -1.409937
19.551237 -30.917507 -2.550765
25.196787 -39.846352 -2.191714
35.791206 -56.579475 -1.546515
24.746473 -39.178459 0.002724
24.832541 -39.343307 1.080951
24.865774 -39.409611 2.171890
47.910416 -75.898895 6.279846
47.860771 -75.846924 8.368781
0.001835 -0.099878 -0.004371
0.001835 -0.099878 -0.004371
0.001835 -0.099878 -0.004371
0.001835 -0.099878 -0.004371
0.304574 -0.581920 -0.341953
0.312235 -0.594483 -0.332461
0.339487 -0.638311 -0.342280
0.363449 -0.676713 -0.346159
0.401904 -0.738568 -0.361053
0.449588 -0.815253 -0.380052
2.484163 -4.069730 -1.959262
2.653233 -4.341631 -1.956854
2.853343 -4.665148 -1.962605
3.075789 -5.024907 -1.965123
3.343095 -5.457165 -1.973508
3.657453 -5.963279 -1.984551
4.036913 -6.576712 -2.000802
4.498545 -7.323059 -2.019024
5.092113 -8.282605 -2.051179
5.885686 -9.561695 -2.101848
6.993703 -11.234488 -2.162409
7.944271 -12.757608 -2.102154
8.056939 -12.941693 -1.772043
8.060648 -12.957122 -1.417664
19.234798 -30.807751 -2.532389
24.998329 -40.039562 -2.194229
35.550365 -56.919876 -1.549955
35.459232 -56.816242 0.006137
24.470652 -39.268242 1.075145
27.792208 -44.618214 2.451301
48.426006 -77.699829 6.406298
0.001820 -0.099615 -0.004360
0.001820 -0.099615 -0.004360
0.001820 -0.099615 -0.004360
0.001820 -0.099615 -0.004360
0.001820 -0.099615 -0.004360
0.307063 -0.592257 -0.348058
0.315650 -0.606461 -0.339302
0.334424 -0.637030 -0.340389
0.360858 -0.680159 -0.347042
0.400021 -0.743723 -0.362749
0.441514 -0.811390 -0.376784
2.462514 -4.087257 -1.960774
2.628050 -4.357000 -1.956823
2.826223 -4.681710 -1.962574
3.048395 -5.043858 -1.965731
3.311206 -5.474414 -1.972879
3.621604 -5.982955 -1.983964
4.002609 -6.604508 -2.002282
4.456888 -7.348561 -2.018983
5.052510 -8.320624 -2.053627
5.835260 -9.601825 -2.103277
6.924560 -11.275023 -2.162024
7.919107 -12.885057 -2.115434
8.027522 -13.069759 -1.782861
8.042749 -13.104051 -1.428352
19.124748 -31.038095 -2.541851
25.000395 -40.574379 -2.215216
0.001806 -0.099353 -0.004348
47.847691 -77.651619 0.010282
24.299833 -39.512810 1.078081
27.497753 -44.715939 2.448131
47.960754 -77.978546 6.406080
0.001806 -0.099353 -0.004348
0.001806 -0.099353 -0.004348
0.001806 -0.099353 -0.004348
0.001806 -0.099353 -0.004348
0.001806 -0.099353 -0.004348
0.307011 -0.598077 -0.351104
0.309160 -0.601996 -0.335371
0.330490 -0.637103 -0.339436
0.356674 -0.680360 -0.346131
0.390640 -0.736484 -0.357603
0.435627 -0.810444 -0.375143
2.446933 -4.111703 -1.966140
2.606394 -4.376564 -1.958976
2.800613 -4.697130 -1.962544
3.020856 -5.062675 -1.966339
3.282196 -5.496371 -1.974036
3.596705 -6.015940 -1.988336
3.966100 -6.628821 -2.002750
4.420410 -7.379694 -2.020786
5.009170 -8.355981 -2.055244
5.782494 -9.638350 -2.103967
6.866207 -11.319950 -2.163264
7.886883 -12.992993 -2.125937
8.008864 -13.202233 -1.794843
8.016727 -13.224951 -1.436635
18.888365 -31.040197 -2.533226
0.001814 -0.099071 -0.004336
0.001814 -0.099071 -0.004336
24.519625 -40.340343 0.003387
24.266628 -39.954952 1.086663
0.001814 -0.099071 -0.004336
46.617172 -76.751488 6.283899
0.001814 -0.099071 -0.004336
0.001814 -0.099071 -0.004336
0.001814 -0.099071 -0.004336
0.001814 -0.099071 -0.004336
0.001814 -0.099071 -0.004336
0.296123 -0.586304 -0.341911
0.308061 -0.606468 -0.337316
0.329210 -0.641740 -0.341299
0.349614 -0.676009 -0.342528
0.387899 -0.739987 -0.358443
0.437039 -0.822136 -0.380008
0.485074 -0.902225 -0.395757
2.586538 -4.399198 -1.962582
2.778143 -4.721433 -1.965932
2.993221 -5.081324 -1.966947
3.256980 -5.524715 -1.977575
3.560585 -6.035225 -1.987749
3.928471 -6.651249 -2.002712
4.380159 -7.410512 -2.022125
4.963126 -8.390306 -2.056445
5.730887 -9.680616 -2.105765
6.803553 -11.362386 -2.163854
7.852235 -13.108789 -2.137269
7.963060 -13.297174 -1.801495
7.986277 -13.345641 -1.444730
18.601603 -30.980486 -2.519167
0.001800 -0.098809 -0.004324
0.001800 -0.098809 -0.004324
26.882463 -44.812870 0.004413
23.995594 -40.025146 1.084965
0.001800 -0.098809 -0.004324
47.144150 -78.663483 6.418066
0.001800 -0.098809 -0.004324
0.001800 -0.098809 -0.004324
0.001800 -0.098809 -0.004324
0.001800 -0.098809 -0.004324
0.001800 -0.098809 -0.004324
0.295863 -0.592205 -0.344957
0.305035 -0.608011 -0.337302
0.325091 -0.641875 -0.340346
0.344376 -0.674704 -0.340720
0.382347 -0.738825 -0.356718
0.427263 -0.814937 -0.375114
0.480275 -0.904824 -0.395742
2.561747 -4.413736 -1.962553
2.752444 -4.738691 -1.966585
2.969328 -5.106341 -1.970115
3.225691 -5.543100 -1.977542
3.525374 -6.053695 -1.987162
3.890686 -6.673482 -2.002674
4.341959 -7.442033 -2.023928
4.917767 -8.419287 -2.056817
5.681300 -9.718962 -2.107196
6.738665 -11.405644 -2.164443
7.818787 -13.223251 -2.148604
7.839956 -13.268770 -1.791238
7.885184 -13.354837 -1.440583
18.362377 -30.983868 -2.510682
0.001809 -0.098526 -0.004312
0.001809 -0.098526 -0.004312
0.001809 -0.098526 -0.004312
0.001809 -0.098526 -0.004312
0.001809 -0.098526 -0.004312
46.754150 -79.039688 6.427061
0.001809 -0.098526 -0.004312
0.001809 -0.098526 -0.004312
0.001809 -0.098526 -0.004312
0.001809 -0.098526 -0.004312
0.001809 -0.098526 -0.004312
0.286997 -0.583187 -0.337804
0.299532 -0.604918 -0.334350
0.322932 -0.644933 -0.341271
0.344750 -0.682518 -0.344294
0.380480 -0.743853 -0.358415
0.423132 -0.817101 -0.375099
0.478585 -0.911974 -0.398039
2.538755 -4.431345 -1.963979
2.728532 -4.759051 -1.968606
2.941423 -5.124701 -1.970723
3.198167 -5.567883 -1.979890
3.492974 -6.076935 -1.988229
3.855717 -6.700495 -2.004155
4.303552 -7.473343 -2.025730
4.871306 -8.453088 -2.058017
5.628107 -9.759003 -2.108625
6.678454 -11.447908 -2.165360
7.790296 -13.348006 -2.161606
7.835775 -13.430222 -1.807157
7.939146 -13.616439 -1.464072
18.234797 -31.174803 -2.517506
0.001795 -0.098264 -0.004300
0.001795 -0.098264 -0.004300
46.245693 -79.066284 0.011648
23.509123 -40.255020 1.084137
0.001795 -0.098264 -0.004300
46.368431 -79.426048 6.437034
0.001795 -0.098264 -0.004300
0.001795 -0.098264 -0.004300
0.001795 -0.098264 -0.004300
0.001795 -0.098264 -0.004300
0.001795 -0.098264 -0.004300
0.287565 -0.590553 -0.341869
0.297398 -0.607908 -0.335316
0.319692 -0.646549 -0.341257
0.341295 -0.684257 -0.344280
0.374841 -0.742680 -0.356690
0.414399 -0.811346 -0.371019
0.476505 -0.919321 -0.400335
2.513947 -4.447663 -1.964677
2.701682 -4.774387 -1.968576
2.911557 -5.141786 -1.970691
3.168529 -5.591445 -1.981642
3.463305 -6.104995 -1.990949
3.816489 -6.722975 -2.004116
4.265879 -7.506155 -2.027993
4.824111 -8.482411 -2.058388
5.578301 -9.801174 -2.110795
6.617959 -11.498994 -2.167570
7.763590 -13.478017 -2.175442
7.889079 -13.704762 -1.837894
7.907733 -13.747451 -1.473091
18.274553 -31.657114 -2.547849
0.001779 -0.098001 -0.004289
0.001779 -0.098001 -0.004289
45.855434 -79.443443 0.011990
0.001779 -0.098001 -0.004289
0.001779 -0.098001 -0.004289
45.991791 -79.831306 6.448684
0.001779 -0.098001 -0.004289
0.001779 -0.098001 -0.004289
0.001779 -0.098001 -0.004289
0.001779 -0.098001 -0.004289
0.001779 -0.098001 -0.004289
0.282160 -0.587438 -0.338796
0.293600 -0.607810 -0.334323
0.317401 -0.649637 -0.342182
0.337016 -0.684386 -0.343369
0.369321 -0.741412 -0.354965
0.413795 -0.819847 -0.374257
0.474511 -0.926579 -0.402632
2.488864 -4.461789 -1.964648
2.674815 -4.791699 -1.969230
2.886230 -5.164770 -1.973219
3.136864 -5.609311 -1.981609
3.426689 -6.123466 -1.990362
3.779255 -6.746234 -2.004585
4.220925 -7.529345 -2.027491
4.777200 -8.515700 -2.059589
5.527440 -9.845783 -2.113335
6.564002 -11.557168 -2.171400
7.725414 -13.595751 -2.187053
7.865862 -13.846236 -1.850800
7.881413 -13.884095 -1.482854
18.485834 -32.462856 -2.603790
0.001789 -0.097720 -0.004277
0.001789 -0.097720 -0.004277
45.462322 -79.850960 0.012348
0.001789 -0.097720 -0.004277
0.001789 -0.097720 -0.004277
0.001789 -0.097720 -0.004277
0.001789 -0.097720 -0.004277
0.001789 -0.097720 -0.004277
0.001789 -0.097720 -0.004277
0.001789 -0.097720 -0.004277
0.001789 -0.097720 -0.004277
0.276692 -0.584342 -0.335723
0.288845 -0.606230 -0.332350
0.308910 -0.642001 -0.336536
0.330884 -0.681433 -0.340663
0.364609 -0.741734 -0.354095
0.407831 -0.818755 -0.372616
0.468672 -0.927494 -0.401846
2.462035 -4.474566 -1.963892
2.644097 -4.800168 -1.966465
2.855202 -5.179871 -1.972548
3.104124 -5.627541 -1.981576
3.395698 -6.149533 -1.992531
3.740702 -6.769946 -2.005053
4.179031 -7.554938 -2.027912
4.729621 -8.544494 -2.059961
5.472200 -9.878876 -2.113656
6.500803 -11.604193 -2.172962
7.697267 -13.727670 -2.201166
7.846671 -14.003091 -1.865555
7.846467 -14.013574 -1.491688
18.079844 -32.179092 -2.572486
0.001775 -0.097458 -0.004265
0.001775 -0.097458 -0.004265
45.067234 -80.226089 0.012688
0.001775 -0.097458 -0.004265
0.001775 -0.097458 -0.004265
45.191559 -80.602852 6.468633
0.001775 -0.097458 -0.004265
0.001775 -0.097458 -0.004265
0.001775 -0.097458 -0.004265
0.001775 -0.097458 -0.004265
0.001775 -0.097458 -0.004265
0.275572 -0.588639 -0.337749
0.287595 -0.610660 -0.334295
0.310055 -0.651209 -0.341215
0.332743 -0.692407 -0.346032
0.361774 -0.745119 -0.354936
0.401013 -0.816015 -0.370162
0.457616 -0.918601 -0.396438
2.436817 -4.488376 -1.963864
2.623343 -4.826556 -1.971221
2.828666 -5.200909 -1.974436
3.073160 -5.646719 -1.982139
3.363607 -6.173743 -1.994149
3.704126 -6.794464 -2.006028
4.135087 -7.576899 -2.027411
4.681865 -8.573017 -2.060333
5.424370 -9.925413 -2.116936
6.443104 -11.656668 -2.175822
7.668807 -13.861444 -2.215558
7.803215 -14.113709 -1.874291
7.821393 -14.157439 -1.502192
18.064556 -32.587502 -2.596702
0.001784 -0.097176 -0.004253
0.001784 -0.097176 -0.004253
44.693565 -80.643021 0.013036
44.141563 -79.710854 2.126335
0.001784 -0.097176 -0.004253
43.917450 -79.398735 6.351721
43.912823 -79.452850 8.474368
0.001784 -0.097176 -0.004253
0.001784 -0.097176 -0.004253
0.001784 -0.097176 -0.004253
0.001784 -0.097176 -0.004253
0.267743 -0.580908 -0.331616
0.285466 -0.613558 -0.335261
0.306017 -0.651152 -0.340263
0.328446 -0.692466 -0.345120
0.358898 -0.748502 -0.355777
0.396851 -0.818043 -0.370148
0.448452 -0.912843 -0.392570
2.412384 -4.503698 -1.964563
2.594299 -4.837986 -1.969825
2.799240 -5.216834 -1.974406
3.043002 -5.667386 -1.983297
3.330422 -6.196099 -1.995216
3.668295 -6.820496 -2.007510
4.095700 -7.607130 -2.029215
4.632072 -8.597827 -2.059875
5.375223 -9.970013 -2.119848
6.384064 -11.707128 -2.178358
7.640003 -13.997084 -2.230227
7.774984 -14.253898 -1.886964
7.793024 -14.297969 -1.512325
18.120935 -33.135002 -2.631909
0.001770 -0.096914 -0.004241
0.001770 -0.096914 -0.004241
44.290653 -81.010948 0.013372
0.001770 -0.096914 -0.004241
0.001770 -0.096914 -0.004241
44.412899 -81.393784 6.491364
0.001770 -0.096914 -0.004241
0.001770 -0.096914 -0.004241
0.001770 -0.096914 -0.004241
0.001770 -0.096914 -0.004241
0.001770 -0.096914 -0.004241
0.262502 -0.577607 -0.328543
0.280830 -0.611835 -0.333288
0.305344 -0.657273 -0.343065
0.320750 -0.686204 -0.340621
0.355148 -0.750262 -0.355762
0.390965 -0.816804 -0.368507
0.442873 -0.913496 -0.391785
2.386982 -4.517228 -1.964534
2.568751 -4.855866 -1.971162
2.769716 -5.232587 -1.974375
3.013622 -5.689559 -1.985050
3.298907 -6.221658 -1.997386
3.637773 -6.856562 -2.012029
4.054256 -7.633721 -2.030097
4.586787 -8.630946 -2.061493
5.322960 -10.009161 -2.121649
6.322780 -11.753807 -2.180247
7.667473 -14.239046 -2.261852
7.770017 -14.439610 -1.905657
7.761403 -14.435117 -1.522087
17.850740 -33.091061 -2.620089
0.001752 -0.096647 -0.004229
0.001752 -0.096647 -0.004229
43.478348 -80.623657 0.013539
43.348408 -80.447174 2.133173
43.245277 -80.320030 4.263593
0.001752 -0.096647 -0.004229
43.165314 -80.266350 8.508302
0.001752 -0.096647 -0.004229
0.001752 -0.096647 -0.004229
0.001752 -0.096647 -0.004229
0.001752 -0.096647 -0.004229
0.258107 -0.575794 -0.326489
0.279512 -0.616228 -0.335233
0.298776 -0.652514 -0.339296
0.319863 -0.692498 -0.343298
0.347956 -0.745648 -0.352327
0.385821 -0.817220 -0.367679
0.432085 -0.904352 -0.386376
2.361504 -4.530614 -1.964507
2.542244 -4.874063 -1.972500
2.740122 -5.248157 -1.974344
2.982283 -5.708218 -1.985614
3.258933 -6.234036 -1.995147
3.596994 -6.873691 -2.010980
4.008588 -7.655628 -2.029596
4.544324 -8.673294 -2.065188
5.269602 -10.050700 -2.123820
6.261168 -11.800173 -2.182135
7.575083 -14.268257 -2.259285
7.717278 -14.539897 -1.913003
7.735932 -14.586448 -1.533332
17.887598 -33.632668 -2.654455
0.001761 -0.096365 -0.004217
0.001761 -0.096365 -0.004217
43.470806 -81.764313 0.014052
0.001761 -0.096365 -0.004217
0.001761 -0.096365 -0.004217
43.588928 -82.149803 6.511300
0.001761 -0.096365 -0.004217
0.001761 -0.096365 -0.004217
0.001761 -0.096365 -0.004217
0.001761 -0.096365 -0.004217
0.001761 -0.096365 -0.004217
0.248836 -0.564861 -0.318317
0.276424 -0.617594 -0.335219
0.296294 -0.655558 -0.340221
0.315495 -0.692516 -0.342387
0.344208 -0.747362 -0.352313
0.379122 -0.814289 -0.365225
0.425568 -0.903351 -0.384821
2.335948 -4.543854 -1.964479
2.513835 -4.886671 -1.971787
2.712191 -5.266918 -1.975593
2.949925 -5.725021 -1.985582
3.225333 -6.255826 -1.996215
3.561526 -6.900855 -2.012968
3.966810 -7.681752 -2.030478
4.502729 -8.710382 -2.068055
5.216701 -10.084901 -2.124883
6.202715 -11.857758 -2.185966
7.540484 -14.400708 -2.273397
7.680542 -14.678295 -1.925210
7.698084 -14.723433 -1.542906
18.036983 -34.386375 -2.705655
0.001747 -0.096103 -0.004206
0.001747 -0.096103 -0.004206
43.071571 -82.149254 0.014388
0.001747 -0.096103 -0.004206
0.001747 -0.096103 -0.004206
43.179764 -82.520996 6.521261
0.001747 -0.096103 -0.004206
0.001747 -0.096103 -0.004206
0.001747 -0.096103 -0.004206
0.001747 -0.096103 -0.004206
0.001747 -0.096103 -0.004206
0.235103 -0.544591 -0.304026
0.272680 -0.617319 -0.334226
0.289092 -0.649086 -0.335514
0.308871 -0.687636 -0.338785
0.339619 -0.747446 -0.351444
0.379179 -0.824292 -0.369276
0.421056 -0.905429 -0.384806
2.307738 -4.551986 -1.962270
2.492261 -4.912473 -1.976544
2.684113 -5.285543 -1.976843
2.922729 -5.751816 -1.989122
3.194244 -6.282548 -1.998936
3.523189 -6.922685 -2.013439
3.925762 -7.709372 -2.031822
4.457843 -8.748827 -2.070919
5.160957 -10.122387 -2.126314
6.145164 -11.907681 -2.188828
7.489066 -14.503360 -2.282785
7.690633 -14.896933 -1.948303
7.668617 -14.866641 -1.553411
17.725428 -34.269718 -2.688272
0.001756 -0.095822 -0.004194
0.001756 -0.095822 -0.004194
42.673042 -82.539383 0.014725
0.001756 -0.095822 -0.004194
0.001756 -0.095822 -0.004194
42.787006 -82.927422 6.534158
0.001756 -0.095822 -0.004194
0.001756 -0.095822 -0.004194
0.001756 -0.095822 -0.004194
0.001756 -0.095822 -0.004194
0.001756 -0.095822 -0.004194
