# This PCD file was generated using the MATLAB® pcwrite function
# from Computer Vision Toolbox®.
# .PCD v.7 - Point Cloud Data file format
VERSION .7
FIELDS x y z
SIZE 4 4 4
TYPE F F F
COUNT 1 1 1
WIDTH 1677
HEIGHT 1
VIEWPOINT 0 0 0 1 0 0 0
POINTS 1677
DATA ascii
2.189298 10.785800 -1.319784
2.296737 11.304018 -1.106208
2.305024 11.323115 -0.833311
2.299866 11.285437 -0.557624
2.306836 11.297967 -0.283470
0.004262 -0.208676 -0.007803
2.313051 11.294838 0.261374
2.319412 11.304248 0.536600
2.320577 11.287890 0.809022
2.326014 11.292679 1.083597
2.310405 11.203687 1.350500
13.172994 64.834053 9.300114
0.004262 -0.208676 -0.007803
0.004262 -0.208676 -0.007803
0.118904 0.354499 -0.348694
0.122427 0.370655 -0.340068
0.135372 0.433392 -0.356323
0.149028 0.498920 -0.370540
0.192362 0.708788 -0.451287
0.370898 1.577564 -0.820148
0.425451 1.839412 -0.881746
0.883291 4.057197 -1.709856
0.944268 4.348527 -1.702780
1.010457 4.660081 -1.689161
1.086564 5.018409 -1.675008
1.169286 5.412309 -1.655513
1.269728 5.885380 -1.638964
1.386893 6.442856 -1.619471
1.524669 7.091914 -1.595014
1.694271 7.891140 -1.569110
1.869255 8.919695 -1.541126
2.057069 9.828750 -1.450529
2.248446 10.743709 -1.316349
0.004253 -0.208412 -0.007793
3.459696 16.605963 -1.212955
4.238976 20.359081 -0.992941
5.047931 24.241919 -0.594402
5.031112 24.136013 -0.014757
0.004253 -0.208412 -0.007793
0.004253 -0.208412 -0.007793
0.004253 -0.208412 -0.007793
0.004253 -0.208412 -0.007793
2.380451 11.201756 1.351835
0.004253 -0.208412 -0.007793
0.004253 -0.208412 -0.007793
0.004253 -0.208412 -0.007793
0.122853 0.357471 -0.350729
0.125398 0.368529 -0.339081
0.137959 0.427701 -0.353498
0.153851 0.501855 -0.372329
0.197242 0.706174 -0.450426
0.380041 1.570332 -0.817706
0.434177 1.822782 -0.875576
0.907427 4.050499 -1.709141
0.970493 4.343317 -1.702795
1.038841 4.656317 -1.689819
1.116623 5.012353 -1.675027
1.202813 5.411412 -1.657189
1.305584 5.882041 -1.640002
1.424740 6.433146 -1.619036
1.568278 7.090945 -1.596710
1.741663 7.885374 -1.569887
1.923775 8.918724 -1.542790
2.089088 9.694938 -1.433003
2.303232 10.691999 -1.311750
0.004268 -0.208130 -0.007783
3.560097 16.603617 -1.214299
4.358088 20.338541 -0.993232
5.721673 26.724081 -0.654866
5.144091 23.979788 -0.014845
5.173830 24.075172 0.561535
0.004268 -0.208130 -0.007783
9.494061 44.244110 3.157578
14.765059 68.808449 6.556336
2.461043 11.258096 1.360124
0.004268 -0.208130 -0.007783
0.004268 -0.208130 -0.007783
0.004268 -0.208130 -0.007783
0.123549 0.345265 -0.343577
0.130930 0.378319 -0.344955
0.140872 0.423742 -0.351613
0.154127 0.483770 -0.363344
0.201365 0.700030 -0.447852
0.389794 1.564762 -0.816078
0.444289 1.813327 -0.872492
0.931514 4.043664 -1.708427
0.997848 4.339591 -1.703496
1.067624 4.654241 -1.691118
1.146216 5.004246 -1.674449
1.235711 5.402598 -1.656659
1.340612 5.874713 -1.640026
1.463250 6.421063 -1.618141
1.611950 7.083714 -1.597159
1.793438 7.892463 -1.573261
1.977504 8.913563 -1.543805
2.122156 9.564577 -1.416036
2.369717 10.696330 -1.313893
2.695469 12.175700 -1.193775
3.660568 16.586407 -1.214666
4.482209 20.340742 -0.994649
5.905126 26.821875 -0.658154
5.142131 23.284859 -0.014775
5.910798 26.773937 0.625447
0.004257 -0.207865 -0.007773
0.004257 -0.207865 -0.007773
0.004257 -0.207865 -0.007773
0.004257 -0.207865 -0.007773
14.612395 65.988037 9.499042
0.004257 -0.207865 -0.007773
13.824015 62.245583 12.024259
0.130187 0.359934 -0.352756
0.132874 0.371007 -0.341028
0.144604 0.423182 -0.351606
0.161728 0.498838 -0.371419
0.203429 0.685029 -0.440998
0.399966 1.562762 -0.816078
0.453419 1.798326 -0.867093
0.954751 4.033070 -1.706256
1.023578 4.332215 -1.702826
1.095168 4.646451 -1.690494
1.176191 4.997848 -1.674468
1.267972 5.395674 -1.656680
1.376441 5.870957 -1.641064
1.503085 6.420407 -1.620014
1.652614 7.074891 -1.597187
1.838164 7.880690 -1.572923
2.031988 8.903897 -1.544172
2.146065 9.407511 -1.395160
2.433448 10.678489 -1.313480
2.778831 12.204480 -1.198122
3.758878 16.573128 -1.215309
4.613119 20.355015 -0.996725
0.004247 -0.207601 -0.007762
0.004247 -0.207601 -0.007762
5.257807 23.128061 0.540476
0.004247 -0.207601 -0.007762
0.004247 -0.207601 -0.007762
0.004247 -0.207601 -0.007762
0.004247 -0.207601 -0.007762
0.004247 -0.207601 -0.007762
0.004247 -0.207601 -0.007762
0.004247 -0.207601 -0.007762
0.133338 0.359480 -0.352749
0.135325 0.367151 -0.339060
0.150880 0.434711 -0.358176
0.165663 0.498214 -0.371413
0.209998 0.691205 -0.444417
0.408218 1.553681 -0.812821
0.463782 1.792461 -0.865551
0.978794 4.029758 -1.706997
1.047646 4.321236 -1.700787
1.120944 4.634997 -1.688587
1.205217 4.991486 -1.674485
1.300513 5.394410 -1.658356
1.409013 5.857798 -1.639565
1.540919 6.415988 -1.620963
1.694087 7.069633 -1.598049
1.887717 7.889730 -1.576665
2.083668 8.896542 -1.544860
0.004238 -0.207337 -0.007752
2.495494 10.670841 -1.314225
2.878318 12.321045 -1.210852
3.855132 16.563845 -1.216229
4.743912 20.399338 -1.000200
5.338185 22.962040 -0.566918
5.382010 23.112627 -0.014975
5.386586 23.092815 0.540224
0.004238 -0.207337 -0.007752
0.004238 -0.207337 -0.007752
0.004238 -0.207337 -0.007752
10.280763 44.049206 5.291435
17.722824 75.969910 10.959837
0.004238 -0.207337 -0.007752
14.148832 60.447067 11.707133
0.138649 0.367349 -0.357845
0.141107 0.376815 -0.344934
0.153070 0.427229 -0.354411
0.168614 0.492297 -0.368713
0.214647 0.686684 -0.442700
0.418223 1.549740 -0.812007
0.473513 1.780994 -0.861695
1.004212 4.022186 -1.706283
1.074892 4.317051 -1.701487
1.149616 4.624678 -1.687323
1.236045 4.980608 -1.673313
1.335040 5.392506 -1.660033
1.446465 5.851266 -1.640097
1.581064 6.410810 -1.621913
1.740297 7.067070 -1.599747
1.940307 7.891734 -1.579298
2.132194 8.861262 -1.541003
2.207218 9.172597 -1.364840
2.563112 10.669669 -1.315905
0.004225 -0.207069 -0.007742
3.958178 16.556530 -1.217434
4.877940 20.421690 -1.002744
6.452439 27.040602 -0.666429
5.553362 23.220726 -0.015141
5.533851 23.099669 0.541019
0.004225 -0.207069 -0.007742
11.253204 47.085869 3.376508
0.004225 -0.207069 -0.007742
10.570518 44.069069 5.301150
18.037012 75.289787 10.876652
0.004225 -0.207069 -0.007742
0.004225 -0.207069 -0.007742
0.139157 0.355138 -0.350694
0.142824 0.369500 -0.341007
0.155057 0.419760 -0.350647
0.171798 0.488135 -0.366911
0.218098 0.678707 -0.439270
0.427902 1.545823 -0.811192
0.483632 1.773138 -0.859382
1.028524 4.016614 -1.706296
1.101346 4.312896 -1.702186
1.179633 4.627466 -1.690544
1.265877 4.973694 -1.673331
1.365873 5.379411 -1.658397
1.482680 5.848765 -1.641641
1.620503 6.407557 -1.623324
1.783506 7.062907 -1.601026
1.988754 7.888356 -1.580816
2.194052 8.889425 -1.547865
2.256971 9.142694 -1.362370
2.624259 10.649230 -1.315256
3.042739 12.362627 -1.218241
0.004240 -0.206787 -0.007732
0.004240 -0.206787 -0.007732
0.004240 -0.206787 -0.007732
0.004240 -0.206787 -0.007732
0.004240 -0.206787 -0.007732
11.546426 47.148613 2.249987
0.004240 -0.206787 -0.007732
0.004240 -0.206787 -0.007732
0.004240 -0.206787 -0.007732
0.004240 -0.206787 -0.007732
0.004240 -0.206787 -0.007732
0.004240 -0.206787 -0.007732
0.142780 0.356276 -0.351707
0.146552 0.370651 -0.341980
0.160765 0.427714 -0.355337
0.176642 0.490891 -0.368700
0.221879 0.672459 -0.436696
0.438262 1.543528 -0.811192
0.494576 1.768823 -0.858611
1.052361 4.009101 -1.705581
1.127668 4.304746 -1.701517
1.206057 4.615366 -1.688637
1.295656 4.966598 -1.673349
1.399887 5.375216 -1.659523
1.517948 5.842276 -1.642171
1.661111 6.403780 -1.624737
1.828019 7.058192 -1.602306
2.038623 7.884324 -1.582335
2.245872 8.875006 -1.547580
0.004230 -0.206523 -0.007722
2.689560 10.645814 -1.316701
3.094896 12.264012 -1.210470
0.004230 -0.206523 -0.007722
0.004230 -0.206523 -0.007722
0.004230 -0.206523 -0.007722
0.004230 -0.206523 -0.007722
17.912062 71.584274 1.686558
0.004230 -0.206523 -0.007722
0.004230 -0.206523 -0.007722
0.004230 -0.206523 -0.007722
0.004230 -0.206523 -0.007722
11.857654 46.973358 6.813177
0.004230 -0.206523 -0.007722
0.004230 -0.206523 -0.007722
0.144848 0.350711 -0.348638
0.152100 0.378511 -0.346874
0.165384 0.430462 -0.357210
0.182529 0.497053 -0.372286
0.230196 0.683681 -0.442684
0.449227 1.544809 -0.812819
0.505801 1.764340 -0.857840
1.078256 4.006682 -1.707051
1.152689 4.294831 -1.700162
1.236492 4.615749 -1.691218
1.325839 4.957266 -1.672772
1.432938 5.371075 -1.660647
1.554262 5.835324 -1.642702
1.698623 6.392498 -1.624301
1.870263 7.049715 -1.602752
2.092016 7.899393 -1.587562
2.275939 8.768064 -1.531702
2.402035 9.258317 -1.383098
2.753850 10.629956 -1.316752
3.199680 12.367318 -1.222275
3.724138 14.418873 -1.067854
3.727263 14.408355 -0.715897
3.731330 14.401582 -0.362603
3.782761 14.590922 -0.012650
14.493897 56.448887 1.331048
0.004219 -0.206258 -0.007712
0.004219 -0.206258 -0.007712
16.439432 63.804516 6.136257
0.004219 -0.206258 -0.007712
0.004219 -0.206258 -0.007712
16.660574 64.412567 10.933478
0.004219 -0.206258 -0.007712
0.148908 0.353487 -0.350673
0.154594 0.374548 -0.344907
12.985156 49.865166 -27.532827
0.183851 0.485885 -0.366892
0.234841 0.680871 -0.441823
0.460210 1.546017 -0.814447
0.515284 1.754554 -0.854755
1.101071 3.995283 -1.704879
1.178573 4.288408 -1.700176
1.262773 4.603333 -1.689311
1.357454 4.957212 -1.675175
1.465489 5.364873 -1.661219
1.588511 5.824693 -1.642218
1.738543 6.390425 -1.626174
1.914975 7.050466 -1.605280
2.139113 7.889391 -1.587967
2.299310 8.646218 -1.513222
2.459941 9.258041 -1.385092
2.815647 10.612283 -1.316568
3.280500 12.381738 -1.225502
3.817289 14.432238 -1.070446
3.829443 14.456539 -0.719344
0.004210 -0.205994 -0.007702
0.004210 -0.205994 -0.007702
0.004210 -0.205994 -0.007702
0.004210 -0.205994 -0.007702
0.004210 -0.205994 -0.007702
17.831299 67.603477 6.510246
0.004210 -0.205994 -0.007702
0.004210 -0.205994 -0.007702
0.004210 -0.205994 -0.007702
0.004210 -0.205994 -0.007702
0.151690 0.351257 -0.349645
0.156143 0.367201 -0.340979
0.169965 0.418850 -0.351559
0.189203 0.490287 -0.369579
0.239020 0.676313 -0.440105
0.467454 1.533031 -0.809562
0.528936 1.760759 -0.858613
1.126196 3.992765 -1.706348
1.204885 4.283637 -1.700875
1.289933 4.594438 -1.688686
1.386148 4.945909 -1.674000
1.499024 5.362209 -1.662894
1.627215 5.830690 -1.646297
1.777978 6.386223 -1.627584
1.959260 7.049065 -1.607391
2.189768 7.892418 -1.590969
2.321354 8.524401 -1.494741
2.519449 9.263157 -1.387924
2.880417 10.605793 -1.317780
3.351339 12.357162 -1.225001
4.445295 16.449863 -1.218823
5.523983 20.464388 -1.012547
0.004200 -0.205730 -0.007692
0.004200 -0.205730 -0.007692
0.004200 -0.205730 -0.007692
0.004200 -0.205730 -0.007692
0.004200 -0.205730 -0.007692
18.087717 67.003944 6.462130
0.004200 -0.205730 -0.007692
0.004200 -0.205730 -0.007692
0.004200 -0.205730 -0.007692
0.004200 -0.205730 -0.007692
0.155787 0.353984 -0.351679
0.158978 0.364901 -0.339992
0.175418 0.424978 -0.355311
0.195097 0.496390 -0.373165
0.245032 0.678696 -0.441812
0.478900 1.535894 -0.812003
0.540221 1.757957 -0.858613
1.150822 3.988288 -1.707089
1.230198 4.275097 -1.700204
1.318053 4.589060 -1.689343
1.415763 4.938124 -1.674018
1.530521 5.351912 -1.662362
1.660377 5.815905 -1.644798
1.816413 6.378055 -1.628072
2.003051 7.045496 -1.609086
2.238407 7.887533 -1.592486
2.338964 8.391201 -1.474308
2.564034 9.212482 -1.382663
2.944130 10.595059 -1.318526
3.413106 12.299536 -1.221329
4.550499 16.458920 -1.221426
5.644930 20.440243 -1.013023
7.636088 27.687256 -0.688877
14.618209 53.163830 -0.026443
0.004191 -0.205467 -0.007681
0.004191 -0.205467 -0.007681
0.004191 -0.205467 -0.007681
18.682903 67.657471 6.534895
20.345835 73.591759 8.917741
0.004191 -0.205467 -0.007681
17.373568 62.668663 10.686229
17.317732 62.375557 12.203138
0.157611 0.348387 -0.348610
0.165046 0.374342 -0.345866
0.179488 0.425933 -0.356244
0.196240 0.485205 -0.367771
0.245270 0.660157 -0.433244
0.490201 1.536836 -0.813631
1.111245 3.759843 -1.728844
1.174930 3.981878 -1.707101
1.256243 4.266204 -1.699535
1.345602 4.581665 -1.689359
1.446375 4.933856 -1.675228
1.563975 5.344882 -1.662935
1.695534 5.808406 -1.645328
1.856461 6.371192 -1.629022
2.049173 7.045057 -1.611615
2.288488 7.881968 -1.594005
2.358812 8.271401 -1.456149
2.613976 9.176403 -1.379636
3.009444 10.589718 -1.319969
3.473238 12.237768 -1.217284
4.654054 16.449230 -1.222770
5.773318 20.442339 -1.014814
7.829325 27.760595 -0.691890
0.004206 -0.205184 -0.007671
0.004206 -0.205184 -0.007671
0.004206 -0.205184 -0.007671
0.004206 -0.205184 -0.007671
0.004206 -0.205184 -0.007671
0.004206 -0.205184 -0.007671
0.004206 -0.205184 -0.007671
18.105692 63.837399 10.902674
0.004206 -0.205184 -0.007671
0.160880 0.347728 -0.348603
0.165122 0.361890 -0.338997
0.180818 0.416663 -0.351539
0.200333 0.484324 -0.367764
0.248392 0.652008 -0.429813
0.501199 1.537774 -0.815259
1.132696 3.746361 -1.725770
1.199216 3.973325 -1.706386
1.283506 4.264606 -1.701602
1.373974 4.573897 -1.689375
1.476281 4.923629 -1.674650
1.595875 5.336067 -1.662955
1.734355 5.809678 -1.648394
1.895358 6.364429 -1.629970
2.091419 7.035321 -1.612061
2.336629 7.874619 -1.595151
2.380992 8.158851 -1.439290
2.664659 9.150055 -1.378002
3.078822 10.591067 -1.322345
3.469954 11.947245 -1.191050
4.754205 16.437815 -1.223971
5.905521 20.442610 -1.016607
8.031867 27.842764 -0.695192
0.004195 -0.204919 -0.007661
0.004195 -0.204919 -0.007661
0.004195 -0.204919 -0.007661
0.004195 -0.204919 -0.007661
19.225473 66.570213 6.450518
0.004195 -0.204919 -0.007661
0.004195 -0.204919 -0.007661
0.004195 -0.204919 -0.007661
0.004195 -0.204919 -0.007661
0.165493 0.352042 -0.351658
0.169363 0.364581 -0.340951
0.186354 0.422682 -0.355291
0.205785 0.488594 -0.370452
0.262410 0.682089 -0.445221
0.509687 1.529890 -0.812816
1.152321 3.729440 -1.721152
1.225845 3.975571 -1.710039
1.307081 4.250205 -1.698877
1.400364 4.562542 -1.688109
1.506306 4.917165 -1.675264
1.628270 5.328915 -1.663526
1.770014 5.803582 -1.649431
1.933674 6.355562 -1.630457
2.131384 7.017817 -1.610840
2.384734 7.866964 -1.596297
2.405394 8.063788 -1.425352
2.721214 9.144362 -1.379437
3.138111 10.563912 -1.321230
3.498595 11.785890 -1.177304
4.854904 16.427692 -1.225312
6.037680 20.454596 -1.018960
8.232418 27.930702 -0.698631
0.004185 -0.204655 -0.007651
0.004185 -0.204655 -0.007651
0.004185 -0.204655 -0.007651
0.004185 -0.204655 -0.007651
0.004185 -0.204655 -0.007651
0.004185 -0.204655 -0.007651
0.004185 -0.204655 -0.007651
0.004185 -0.204655 -0.007651
0.004185 -0.204655 -0.007651
0.166246 0.343124 -0.346547
0.173117 0.365549 -0.341924
0.186937 0.411727 -0.349647
0.209252 0.485970 -0.369548
0.263906 0.668734 -0.439222
0.519438 1.525376 -0.812001
1.173349 3.717715 -1.718848
1.249343 3.966944 -1.709323
1.335616 4.249856 -1.701631
1.428865 4.558323 -1.689406
1.536310 4.910529 -1.675878
1.662155 5.323130 -1.664651
1.805125 5.795441 -1.649960
1.974763 6.351708 -1.632330
2.181498 7.029688 -1.616284
2.422923 7.820990 -1.590024
2.438342 8.000905 -1.416938
2.784501 9.154934 -1.383385
3.198337 10.540257 -1.320579
3.578317 11.802097 -1.180902
4.956297 16.408472 -1.226094
6.164453 20.446594 -1.020375
8.429084 28.000008 -0.701646
0.004176 -0.204392 -0.007641
0.004176 -0.204392 -0.007641
0.004176 -0.204392 -0.007641
19.059404 63.283463 4.603477
0.004176 -0.204392 -0.007641
0.004176 -0.204392 -0.007641
0.004176 -0.204392 -0.007641
0.004176 -0.204392 -0.007641
0.004176 -0.204392 -0.007641
0.168999 0.340781 -0.345519
0.178522 0.371487 -0.345838
0.192135 0.415978 -0.352459
0.213332 0.485005 -0.369541
0.268554 0.665720 -0.438360
0.529154 1.520809 -0.811186
1.198727 3.718029 -1.721945
1.275157 3.963324 -1.710792
1.362018 4.242154 -1.701645
1.457082 4.550055 -1.689422
1.567724 4.905262 -1.677088
1.693760 5.309778 -1.663567
1.842354 5.790456 -1.651504
2.013017 6.338301 -1.631894
2.226054 7.022506 -1.617563
0.004166 -0.204128 -0.007631
2.484087 7.977148 -1.415348
2.837051 9.129058 -1.382031
3.259096 10.511884 -1.319464
3.665087 11.832397 -1.185993
5.061676 16.401974 -1.227858
6.296082 20.440533 -1.021980
8.623599 28.039717 -0.704006
0.004166 -0.204128 -0.007631
0.004166 -0.204128 -0.007631
0.004166 -0.204128 -0.007631
0.004166 -0.204128 -0.007631
0.004166 -0.204128 -0.007631
19.426434 63.011707 7.701436
0.004166 -0.204128 -0.007631
0.004166 -0.204128 -0.007631
0.004166 -0.204128 -0.007631
0.173027 0.343398 -0.347553
0.179668 0.364115 -0.341910
0.197134 0.420239 -0.355270
0.217707 0.485812 -0.370432
0.272323 0.661045 -0.436642
0.536591 1.511136 -0.807928
1.220602 3.711574 -1.721955
1.300047 3.961766 -1.712987
1.385114 4.229381 -1.699603
1.484147 4.543945 -1.690077
1.595060 4.893072 -1.675911
1.722785 5.295029 -1.661929
1.876350 5.782215 -1.652031
2.052418 6.336554 -1.634227
2.269268 7.019591 -1.619672
2.455058 7.601884 -1.552243
2.518613 7.927622 -1.409205
2.889663 9.115258 -1.382348
3.317061 10.488118 -1.318811
3.739259 11.834863 -1.188282
5.160176 16.392818 -1.229335
6.424823 20.449251 -1.024235
8.807793 28.077351 -0.706262
17.190992 54.935699 -0.028997
0.004178 -0.203841 -0.007621
0.004178 -0.203841 -0.007621
0.004178 -0.203841 -0.007621
0.004178 -0.203841 -0.007621
22.690117 72.193291 8.836017
0.004178 -0.203841 -0.007621
0.004178 -0.203841 -0.007621
0.004178 -0.203841 -0.007621
0.179360 0.352491 -0.353671
0.183538 0.364980 -0.342883
0.199249 0.414311 -0.352445
0.218547 0.474571 -0.365038
0.277427 0.659694 -0.436636
0.543137 1.497857 -0.803042
1.242113 3.699269 -1.719652
1.321879 3.945373 -1.709359
1.412880 4.228784 -1.702355
1.513400 4.538942 -1.691374
1.625262 4.883816 -1.675929
1.756730 5.292629 -1.664155
1.913003 5.774969 -1.653068
2.091181 6.328608 -1.635175
2.314370 7.017873 -1.622200
2.468756 7.490582 -1.532979
2.570342 7.924121 -1.411189
2.943256 9.098770 -1.382387
3.387590 10.491279 -1.321651
3.819585 11.841237 -1.191136
5.256177 16.365025 -1.229552
6.553808 20.432026 -1.025370
9.024360 28.179260 -0.710227
0.004168 -0.203577 -0.007611
0.004168 -0.203577 -0.007611
0.004168 -0.203577 -0.007611
0.004168 -0.203577 -0.007611
0.004168 -0.203577 -0.007611
20.474041 63.789341 7.823745
0.004168 -0.203577 -0.007611
0.004168 -0.203577 -0.007611
0.004168 -0.203577 -0.007611
0.179933 0.343559 -0.348559
0.185743 0.360893 -0.340915
0.200083 0.405036 -0.347740
0.224648 0.480403 -0.368624
0.282954 0.660101 -0.437487
0.553204 1.494889 -0.803041
1.263971 3.690575 -1.718891
1.345736 3.937984 -1.709371
1.439702 4.222390 -1.703054
1.541842 4.534046 -1.692671
1.655684 4.878289 -1.677138
1.788093 5.278741 -1.663071
1.946772 5.762303 -1.652582
2.129877 6.316381 -1.635200
2.360188 7.013611 -1.624312
2.488694 7.397645 -1.517426
2.618898 7.915124 -1.412196
2.994098 9.068245 -1.380473
3.456397 10.494580 -1.324490
3.901699 11.859140 -1.195106
5.370896 16.385098 -1.233420
6.666285 20.375244 -1.024529
9.228242 28.252693 -0.713480
0.004158 -0.203314 -0.007601
0.004158 -0.203314 -0.007601
0.004158 -0.203314 -0.007601
0.004158 -0.203314 -0.007601
0.004158 -0.203314 -0.007601
0.004158 -0.203314 -0.007601
0.004158 -0.203314 -0.007601
0.004158 -0.203314 -0.007601
0.004158 -0.203314 -0.007601
0.183702 0.344405 -0.349573
0.189067 0.360062 -0.340908
0.205895 0.410845 -0.351491
0.228135 0.477652 -0.367719
0.287341 0.657026 -0.436625
0.557817 1.476353 -0.795712
1.289365 3.690317 -1.721988
1.373061 3.941076 -1.713752
1.466339 4.217894 -1.704437
1.566690 4.518178 -1.690122
1.684901 4.868964 -1.677155
1.820827 5.272299 -1.664194
1.981055 5.751276 -1.652604
2.169211 6.309848 -1.636610
2.402897 7.008041 -1.626004
2.498156 7.285101 -1.497788
2.687937 7.963485 -1.423280
3.043059 9.037971 -1.378558
3.519771 10.474191 -1.324538
3.982495 11.864447 -1.197960
5.479405 16.394001 -1.236442
0.004148 -0.203049 -0.007590
9.450190 28.375954 -0.718008
0.004148 -0.203049 -0.007590
0.004148 -0.203049 -0.007590
0.004148 -0.203049 -0.007590
0.004148 -0.203049 -0.007590
0.004148 -0.203049 -0.007590
0.004148 -0.203049 -0.007590
21.252934 63.602573 9.417350
0.004148 -0.203049 -0.007590
0.004148 -0.203049 -0.007590
0.184574 0.337141 -0.345482
0.193312 0.362596 -0.342862
0.209859 0.411638 -0.352424
0.234198 0.483434 -0.371305
0.291132 0.652221 -0.434907
0.570386 1.482065 -0.799782
1.310479 3.681592 -1.721226
1.396277 3.931613 -1.713035
1.492332 4.211429 -1.705134
1.595037 4.512954 -1.691418
1.714059 4.859465 -1.677171
1.852920 5.263834 -1.664764
2.017757 5.747382 -1.654653
2.207886 6.301215 -1.637557
2.448112 7.001353 -1.627700
2.512790 7.182974 -1.480378
2.719032 7.905586 -1.415836
3.093031 9.011195 -1.377201
3.590014 10.486668 -1.328538
4.060540 11.874407 -1.201182
5.564632 16.332216 -1.234274
6.939000 20.405668 -1.030079
9.658540 28.452133 -0.721404
0.004138 -0.202785 -0.007580
0.004138 -0.202785 -0.007580
0.004138 -0.202785 -0.007580
0.004138 -0.202785 -0.007580
0.004138 -0.202785 -0.007580
0.004138 -0.202785 -0.007580
0.004138 -0.202785 -0.007580
0.004138 -0.202785 -0.007580
0.004138 -0.202785 -0.007580
0.188860 0.339570 -0.347517
0.196086 0.360074 -0.341874
0.214643 0.414020 -0.354297
0.234199 0.470478 -0.365012
0.292100 0.638803 -0.428907
0.586580 1.498053 -0.808737
1.332267 3.670530 -1.719693
1.420768 3.923546 -1.713047
1.517712 4.203053 -1.705147
1.622347 4.501903 -1.690793
1.743419 4.847691 -1.676592
1.886220 5.258813 -1.666439
2.053001 5.735599 -1.654675
2.250352 6.303396 -1.641276
2.490808 6.991128 -1.628560
2.530174 7.096240 -1.465934
2.786818 7.947497 -1.425945
3.119121 8.914827 -1.365515
3.655257 10.471119 -1.329283
4.141116 11.876786 -1.203849
5.661638 16.305870 -1.234771
7.083112 20.428698 -1.033374
9.870470 28.517550 -0.724616
0.004129 -0.202521 -0.007570
0.004129 -0.202521 -0.007570
0.004129 -0.202521 -0.007570
0.004129 -0.202521 -0.007570
0.004129 -0.202521 -0.007570
0.004129 -0.202521 -0.007570
21.094353 60.776890 9.034505
0.004129 -0.202521 -0.007570
21.348988 61.364883 12.242848
0.194812 0.346903 -0.352614
0.199336 0.359241 -0.341867
0.216437 0.408058 -0.351471
0.239825 0.474471 -0.367699
0.301094 0.649340 -0.434896
0.594540 1.489756 -0.806293
1.356358 3.668309 -1.722018
1.444486 3.915584 -1.713058
1.544288 4.198084 -1.706529
1.649409 4.492785 -1.690807
1.774346 4.843262 -1.678398
1.918233 5.249950 -1.667009
2.089695 5.731264 -1.656725
2.289702 6.296140 -1.642685
2.525003 6.956656 -1.624004
2.555139 7.033650 -1.456313
2.835629 7.937211 -1.426952
3.191706 8.954986 -1.374206
3.712056 10.437074 -1.327699
4.218424 11.875600 -1.206140
5.755888 16.271423 -1.234706
7.210945 20.414286 -1.034786
10.071253 28.562477 -0.727305
0.004119 -0.202257 -0.007560
0.004119 -0.202257 -0.007560
0.004119 -0.202257 -0.007560
0.004119 -0.202257 -0.007560
0.004119 -0.202257 -0.007560
0.004119 -0.202257 -0.007560
21.531759 60.901424 9.070838
0.004119 -0.202257 -0.007560
0.004119 -0.202257 -0.007560
0.195661 0.339568 -0.348523
0.201958 0.356716 -0.340879
0.222300 0.413750 -0.355222
0.244921 0.476748 -0.369489
0.306590 0.649586 -0.435746
0.594148 1.457225 -0.792450
1.379228 3.662462 -1.722800
1.468775 3.909236 -1.713798
1.570981 4.190903 -1.707228
1.675745 4.481701 -1.690180
1.803330 4.833236 -1.678413
1.951174 5.240577 -1.667580
2.125760 5.724886 -1.658267
2.328187 6.282730 -1.642710
2.536356 6.855306 -1.604452
2.598011 7.018672 -1.456342
2.877807 7.908021 -1.424709
3.245948 8.936192 -1.374245
3.758575 10.374621 -1.322623
4.301862 11.890816 -1.210111
0.004133 -0.201974 -0.007550
7.339516 20.400969 -1.036292
10.290309 28.655001 -0.731222
0.004133 -0.201974 -0.007550
0.004133 -0.201974 -0.007550
0.004133 -0.201974 -0.007550
0.004133 -0.201974 -0.007550
24.153210 67.187622 6.641737
0.004133 -0.201974 -0.007550
0.004133 -0.201974 -0.007550
0.004133 -0.201974 -0.007550
0.004133 -0.201974 -0.007550
0.199440 0.340301 -0.349537
0.205268 0.355804 -0.340872
0.224142 0.407727 -0.352397
0.246505 0.468851 -0.365890
0.311489 0.648103 -0.435741
0.598704 1.440321 -0.785935
1.400869 3.651039 -1.721267
1.494951 3.908005 -1.716722
1.595573 4.180293 -1.706555
1.703331 4.474055 -1.690835
1.832936 4.824858 -1.679026
1.982465 5.229543 -1.667598
2.159173 5.711028 -1.657781
2.367453 6.274982 -1.644119
0.004123 -0.201710 -0.007540
0.004123 -0.201710 -0.007540
2.925162 7.889241 -1.424417
3.295103 8.908324 -1.372886
3.843522 10.414087 -1.330351
4.382291 11.889719 -1.212591
0.004123 -0.201710 -0.007540
0.004123 -0.201710 -0.007540
10.497126 28.708364 -0.734195
0.004123 -0.201710 -0.007540
0.004123 -0.201710 -0.007540
0.004123 -0.201710 -0.007540
0.004123 -0.201710 -0.007540
0.004123 -0.201710 -0.007540
0.004123 -0.201710 -0.007540
0.004123 -0.201710 -0.007540
0.004123 -0.201710 -0.007540
0.004123 -0.201710 -0.007540
0.203060 0.341091 -0.350550
0.207762 0.353296 -0.339885
0.226310 0.403436 -0.350510
0.252072 0.472771 -0.368578
0.307618 0.622834 -0.423745
0.607515 1.435428 -0.785119
1.422322 3.643428 -1.721276
1.517288 3.896125 -1.715276
1.620108 4.169555 -1.705883
1.729546 4.462679 -1.690208
1.860494 4.810921 -1.677848
2.014358 5.220134 -1.668168
2.194497 5.702406 -1.658815
2.404693 6.261543 -1.644142
0.004114 -0.201446 -0.007530
2.674746 6.972269 -1.453056
2.976370 7.889736 -1.427372
3.353631 8.906229 -1.375435
3.906132 10.402082 -1.331557
4.446927 11.857882 -1.211894
0.004114 -0.201446 -0.007530
0.004114 -0.201446 -0.007530
0.004114 -0.201446 -0.007530
0.004114 -0.201446 -0.007530
0.004114 -0.201446 -0.007530
0.004114 -0.201446 -0.007530
0.004114 -0.201446 -0.007530
0.004114 -0.201446 -0.007530
0.004114 -0.201446 -0.007530
24.716227 66.222252 9.922738
0.004114 -0.201446 -0.007530
0.004114 -0.201446 -0.007530
0.205657 0.338549 -0.349522
0.211657 0.353979 -0.340858
0.232360 0.408984 -0.354262
0.255434 0.469882 -0.367673
0.318832 0.638200 -0.432304
0.619500 1.439042 -0.788374
1.445088 3.635205 -1.721286
1.542194 3.889070 -1.716016
1.645241 4.160448 -1.705895
1.757821 4.454384 -1.690864
1.891519 4.803651 -1.679058
2.046870 5.212326 -1.669289
2.232881 5.698622 -1.661373
2.445284 6.256983 -1.646475
2.568496 6.575317 -1.550782
2.720167 6.968074 -1.455309
3.019461 7.859301 -1.425130
3.406667 8.888910 -1.375751
3.964034 10.365991 -1.329974
4.534429 11.874465 -1.216240
5.334231 13.997865 -1.074448
5.316549 13.934826 -0.718096
0.004104 -0.201182 -0.007520
0.004104 -0.201182 -0.007520
0.004104 -0.201182 -0.007520
0.004104 -0.201182 -0.007520
0.004104 -0.201182 -0.007520
0.004104 -0.201182 -0.007520
0.004104 -0.201182 -0.007520
0.004104 -0.201182 -0.007520
0.004104 -0.201182 -0.007520
0.004104 -0.201182 -0.007520
0.209375 0.339262 -0.350536
0.214860 0.353055 -0.340851
0.235236 0.406279 -0.353315
0.261195 0.473699 -0.370361
0.323666 0.636651 -0.432298
0.632828 1.445972 -0.793258
1.466494 3.625395 -1.720524
1.562381 3.871714 -1.712386
1.670301 4.151183 -1.705907
1.785276 4.446257 -1.691518
1.920305 4.792981 -1.679073
2.077976 5.200730 -1.669307
2.269572 5.693184 -1.663422
2.483101 6.244900 -1.646960
2.581427 6.493151 -1.535390
2.762072 6.954412 -1.455706
3.053845 7.810714 -1.419634
3.470902 8.900904 -1.380533
4.033272 10.365563 -1.332811
4.606696 11.855908 -1.217038
5.349655 13.793900 -1.061457
5.359275 13.803523 -0.713082
5.353907 13.773916 -0.361276
5.348128 13.750618 -0.013849
0.004094 -0.200917 -0.007510
0.004094 -0.200917 -0.007510
5.142283 13.175640 0.988380
0.004094 -0.200917 -0.007510
0.004094 -0.200917 -0.007510
0.004094 -0.200917 -0.007510
0.004094 -0.200917 -0.007510
0.004094 -0.200917 -0.007510
0.212465 0.338336 -0.350528
0.217409 0.350476 -0.339863
0.238082 0.403562 -0.352368
0.260557 0.460825 -0.364067
0.328458 0.635056 -0.432292
0.646542 1.452697 -0.798142
1.489139 3.618887 -1.721305
1.588481 3.869879 -1.715309
1.696764 4.143249 -1.706605
1.812671 4.437957 -1.692172
1.946926 4.776803 -1.677299
2.112063 5.193976 -1.670981
2.305554 5.685712 -1.664964
2.524822 6.239415 -1.649293
2.593231 6.406985 -1.519165
2.809466 6.951003 -1.458332
3.079233 7.739933 -1.410237
3.528379 8.889684 -1.381966
4.094725 10.344320 -1.333087
4.674534 11.825760 -1.216716
5.429644 13.754792 -1.060959
5.431805 13.752265 -0.712108
5.418249 13.702165 -0.360296
0.004106 -0.200632 -0.007499
0.004106 -0.200632 -0.007499
0.004106 -0.200632 -0.007499
5.217129 13.134064 0.987488
5.217328 13.120010 1.320830
0.004106 -0.200632 -0.007499
5.529891 13.895081 2.113655
0.004106 -0.200632 -0.007499
0.004106 -0.200632 -0.007499
0.215665 0.337366 -0.350521
0.221930 0.352700 -0.341816
0.237770 0.392572 -0.346723
0.270365 0.474514 -0.372144
0.327437 0.618263 -0.424578
0.649984 1.433934 -0.790812
1.513113 3.613704 -1.722858
1.614661 3.865880 -1.717505
1.721735 4.133698 -1.706617
1.842213 4.432676 -1.694110
1.977793 4.768986 -1.678508
2.144508 5.185602 -1.672103
2.343988 5.681209 -1.667521
2.562540 6.226857 -1.649777
2.605137 6.326814 -1.504188
2.857864 6.953264 -1.462069
3.132051 7.736515 -1.412870
3.583533 8.876880 -1.383119
4.171766 10.357099 -1.337789
0.004096 -0.200368 -0.007489
0.004096 -0.200368 -0.007489
5.223995 12.986376 -0.675028
5.233943 12.997205 -0.343240
5.240948 13.007307 -0.013655
5.245953 13.005654 0.316212
5.252509 13.007907 0.649123
5.298934 13.117102 0.988401
5.275468 13.043802 1.316149
30.913147 77.373810 9.720939
0.004096 -0.200368 -0.007489
0.004096 -0.200368 -0.007489
0.004096 -0.200368 -0.007489
0.217466 0.333205 -0.348472
0.224463 0.350091 -0.340829
0.244466 0.399684 -0.351415
0.270921 0.464950 -0.367646
0.338052 0.631802 -0.432280
1.454319 3.408493 -1.741067
1.535041 3.605220 -1.722867
1.634543 3.850178 -1.714602
1.746634 4.123991 -1.706628
1.865921 4.417344 -1.692199
2.004784 4.756392 -1.677925
2.175463 5.173451 -1.672120
2.371699 5.655769 -1.663988
2.598757 6.210486 -1.649337
2.617299 6.252637 -1.490459
2.902895 6.950231 -1.464692
3.188669 7.746109 -1.417776
3.637922 8.861911 -1.383992
4.240572 10.353467 -1.340393
5.106527 12.497031 -1.290174
0.004086 -0.200103 -0.007479
5.297544 12.950817 -0.674802
5.300037 12.949540 -0.342822
0.004086 -0.200103 -0.007479
0.004086 -0.200103 -0.007479
0.004086 -0.200103 -0.007479
0.004086 -0.200103 -0.007479
5.211893 12.674782 1.282072
5.316516 12.919422 1.641441
5.328639 12.935353 1.978126
0.004086 -0.200103 -0.007479
0.004086 -0.200103 -0.007479
0.221075 0.333859 -0.349485
0.226866 0.347501 -0.339841
0.249910 0.403463 -0.354227
0.276638 0.468673 -0.370334
0.342826 0.630130 -0.432274
1.471617 3.391901 -1.737003
1.556913 3.596608 -1.722876
1.657819 3.840986 -1.714612
1.772192 4.115884 -1.707325
1.894706 4.409989 -1.693495
2.037746 4.753520 -1.680924
2.207794 5.164673 -1.673241
2.409330 5.649052 -1.666038
2.610787 6.132266 -1.633191
2.645448 6.209694 -1.484233
2.945241 6.933179 -1.464719
3.241161 7.748591 -1.421381
3.695248 8.853952 -1.385982
4.310652 10.357515 -1.343927
5.182567 12.481528 -1.291533
6.668473 16.103041 -1.246882
0.004076 -0.199839 -0.007469
0.004076 -0.199839 -0.007469
0.004076 -0.199839 -0.007469
5.394554 12.937596 0.315917
5.395059 12.925001 0.647903
5.304689 12.697803 0.961394
5.270690 12.601583 1.277762
5.274675 12.597744 1.604819
0.004076 -0.199839 -0.007469
0.004076 -0.199839 -0.007469
0.004076 -0.199839 -0.007469
0.223014 0.329616 -0.347436
0.232197 0.351227 -0.342775
0.251458 0.397373 -0.351401
0.277276 0.459001 -0.365836
0.347054 0.626711 -0.431412
1.494991 3.388456 -1.739455
1.580099 3.589293 -1.723657
1.681017 3.829636 -1.713894
1.798479 4.107325 -1.708022
1.921204 4.399296 -1.693508
2.065491 4.740242 -1.680342
2.242534 5.158874 -1.675467
2.443672 5.637144 -1.666565
2.627643 6.070739 -1.621201
2.687967 6.211354 -1.488004
2.987757 6.920023 -1.465487
3.307737 7.772694 -1.429216
3.744306 8.821188 -1.384344
4.383378 10.351471 -1.346534
5.259874 12.449947 -1.291591
6.769611 16.074556 -1.247799
8.595613 20.445297 -1.060284
12.257494 29.228321 -0.761832
0.004067 -0.199576 -0.007459
0.004067 -0.199576 -0.007459
0.004067 -0.199576 -0.007459
5.578025 13.137697 0.996823
5.351947 12.589712 1.279557
0.004067 -0.199576 -0.007459
0.004067 -0.199576 -0.007459
0.004067 -0.199576 -0.007459
0.004067 -0.199576 -0.007459
0.227284 0.331817 -0.349470
0.237281 0.355025 -0.345709
0.254777 0.396247 -0.351393
0.283726 0.464327 -0.369422
0.354608 0.631649 -0.434832
1.512770 3.373345 -1.736205
1.601223 3.580704 -1.723665
1.705633 3.823614 -1.715361
1.821034 4.091994 -1.705979
1.946891 4.386700 -1.692880
2.096101 4.733816 -1.682146
2.276314 5.153224 -1.677692
2.482509 5.635730 -1.670135
2.635526 5.989552 -1.604128
2.722856 6.188382 -1.486360
3.022196 6.884376 -1.461802
3.363640 7.781667 -1.434121
3.799991 8.808896 -1.385775
4.454535 10.356421 -1.350301
5.331134 12.422509 -1.291828
6.876359 16.066870 -1.250257
8.727780 20.437777 -1.062443
12.517814 29.373041 -0.767506
0.004057 -0.199312 -0.007449
0.004057 -0.199312 -0.007449
0.004057 -0.199312 -0.007449
5.548606 12.855921 0.977916
5.442487 12.592884 1.283014
0.004057 -0.199312 -0.007449
0.004057 -0.199312 -0.007449
0.004057 -0.199312 -0.007449
0.004057 -0.199312 -0.007449
0.233803 0.338658 -0.354568
0.238513 0.349096 -0.342760
0.258294 0.395013 -0.351386
0.286240 0.459634 -0.367619
0.350974 0.609886 -0.424548
1.534001 3.366526 -1.737027
1.623605 3.571426 -1.723675
1.729452 3.813712 -1.715372
1.847180 4.085177 -1.707360
1.974787 4.377092 -1.693534
2.126078 4.723344 -1.682758
2.307078 5.140318 -1.677709
2.517059 5.621188 -1.670155
2.646379 5.917389 -1.589364
2.765778 6.187253 -1.489716
3.063708 6.868968 -1.462198
3.415552 7.772750 -1.436103
3.852549 8.788987 -1.386089
4.529563 10.359323 -1.354071
5.398017 12.372660 -1.290016
6.972987 16.034637 -1.250890
8.872839 20.439169 -1.065268
12.772720 29.484093 -0.772429
0.004071 -0.199028 -0.007439
0.004071 -0.199028 -0.007439
0.004071 -0.199028 -0.007439
0.004071 -0.199028 -0.007439
5.606031 12.770066 1.304036
5.620785 12.790998 1.640984
0.004071 -0.199028 -0.007439
5.227738 11.863234 2.145970
0.004071 -0.199028 -0.007439
0.230729 0.323397 -0.345372
0.238173 0.340001 -0.337850
0.260281 0.390557 -0.349500
0.289308 0.456626 -0.366714
0.360677 0.619746 -0.430537
1.555233 3.359604 -1.737849
1.647484 3.567372 -1.725998
1.750267 3.798848 -1.713196
1.871055 4.073041 -1.706686
2.002600 4.369401 -1.694829
2.152825 4.707805 -1.681579
2.340849 5.134278 -1.679934
2.552846 5.612210 -1.671696
2.657294 5.847106 -1.575062
2.800124 6.166144 -1.488487
3.095616 6.831707 -1.458140
3.466897 7.765932 -1.438409
3.909729 8.779662 -1.388078
4.592604 10.338815 -1.354811
5.476646 12.356282 -1.291562
7.085417 16.038410 -1.254331
9.012237 20.435656 -1.067806
13.009780 29.562462 -0.776495
0.004061 -0.198764 -0.007429
0.004061 -0.198764 -0.007429
0.004061 -0.198764 -0.007429
5.670425 12.727820 0.972956
5.666141 12.705051 1.300654
5.682642 12.729626 1.637228
0.004061 -0.198764 -0.007429
0.004061 -0.198764 -0.007429
0.004061 -0.198764 -0.007429
0.235113 0.325498 -0.347406
0.243375 0.343694 -0.340784
0.266523 0.395802 -0.353252
0.298845 0.468311 -0.373893
0.355135 0.594804 -0.418540
1.576418 3.352543 -1.738671
1.666138 3.551366 -1.722920
1.776258 3.795799 -1.716120
1.897127 4.065918 -1.708067
2.028849 4.358079 -1.694842
2.181813 4.697372 -1.682190
2.373853 5.126277 -1.681607
2.587815 5.601239 -1.672730
0.004052 -0.198501 -0.007419
2.833519 6.143066 -1.486842
3.132807 6.806878 -1.456680
3.515047 7.751537 -1.439414
3.965314 8.766342 -1.389509
4.662814 10.334302 -1.357648
5.552035 12.332134 -1.292361
7.186001 16.014067 -1.255665
9.150279 20.427586 -1.070156
13.242456 29.626266 -0.780231
25.453594 57.106480 -0.036660
0.004052 -0.198501 -0.007419
0.004052 -0.198501 -0.007419
34.229774 76.673897 5.837231
0.004052 -0.198501 -0.007419
5.793367 12.778660 1.647586
0.004052 -0.198501 -0.007419
0.004052 -0.198501 -0.007419
0.004052 -0.198501 -0.007419
0.241641 0.332277 -0.352504
0.247931 0.345770 -0.342738
0.270664 0.396163 -0.354184
0.294617 0.448933 -0.364006
0.367085 0.609510 -0.427099
1.596694 3.341750 -1.737865
1.688426 3.543667 -1.723700
1.796912 3.780694 -1.713944
1.923129 4.056577 -1.708763
2.056599 4.350068 -1.696136
2.213876 4.693715 -1.685187
2.405371 5.112384 -1.681623
2.621946 5.588299 -1.673256
2.673971 5.697455 -1.544146
2.880747 6.147810 -1.491865
3.144240 6.722249 -1.442969
3.555088 7.718861 -1.437166
4.010293 8.724897 -1.386752
4.730665 10.323882 -1.359786
5.611793 12.273014 -1.289611
7.310671 16.035141 -1.260653
9.291766 20.425861 -1.072883
13.486997 29.712088 -0.784583
0.004042 -0.198237 -0.007408
0.004042 -0.198237 -0.007408
34.858585 76.929771 3.899606
0.004042 -0.198237 -0.007408
0.004042 -0.198237 -0.007408
0.004042 -0.198237 -0.007408
0.004042 -0.198237 -0.007408
0.004042 -0.198237 -0.007408
0.004042 -0.198237 -0.007408
0.247612 0.337374 -0.356580
0.251147 0.344579 -0.342731
0.267575 0.380368 -0.345719
0.300683 0.452350 -0.366694
0.371873 0.607618 -0.427093
1.615507 3.329454 -1.736243
1.712125 3.537235 -1.725252
1.826678 3.783807 -1.719781
1.948367 4.047431 -1.709459
2.085105 4.341520 -1.697431
2.245217 4.685981 -1.686992
2.439110 5.105733 -1.683848
2.659433 5.579960 -1.675305
2.678574 5.618598 -1.527531
2.915588 6.127863 -1.491052
3.198801 6.736443 -1.449676
3.592959 7.678171 -1.433620
4.066505 8.712769 -1.388461
4.797933 10.306788 -1.361226
5.690599 12.250676 -1.290785
7.423039 16.034824 -1.263953
9.436335 20.419754 -1.075518
13.734844 29.786396 -0.788751
24.888443 54.114773 -0.035804
0.004033 -0.197973 -0.007398
0.004033 -0.197973 -0.007398
0.004033 -0.197973 -0.007398
0.004033 -0.197973 -0.007398
0.004033 -0.197973 -0.007398
0.004033 -0.197973 -0.007398
33.418343 72.302605 13.069070
0.004033 -0.197973 -0.007398
0.243486 0.320628 -0.346363
0.253521 0.341826 -0.341743
0.276825 0.391925 -0.353230
0.309666 0.462247 -0.372974
0.374968 0.602466 -0.425374
1.636544 3.322035 -1.737065
1.733589 3.527601 -1.725261
1.843276 3.759994 -1.713963
1.972759 4.036428 -1.709470
2.111981 4.331437 -1.698085
2.274091 4.674994 -1.687602
2.469589 5.091892 -1.683864
2.678727 5.535038 -1.666696
2.691427 5.559292 -1.515998
2.938677 6.082898 -1.484405
3.241154 6.723549 -1.450813
3.633237 7.646893 -1.431697
4.117710 8.689504 -1.388494
4.862469 10.288295 -1.362432
5.757099 12.207157 -1.289715
7.535642 16.033751 -1.267253
9.582578 20.425175 -1.078715
13.949307 29.797800 -0.791256
25.198862 53.967300 -0.036057
25.706949 55.006210 1.377138
0.004022 -0.197708 -0.007388
0.004022 -0.197708 -0.007388
0.004022 -0.197708 -0.007388
0.004022 -0.197708 -0.007388
0.004022 -0.197708 -0.007388
0.004022 -0.197708 -0.007388
0.004022 -0.197708 -0.007388
0.247183 0.321065 -0.347376
0.255141 0.337500 -0.339774
0.277958 0.385823 -0.350403
0.308899 0.451048 -0.367578
0.374175 0.589142 -0.419372
1.656003 3.311204 -1.736257
1.756577 3.521195 -1.726812
1.866823 3.751301 -1.714701
1.996285 4.023593 -1.708795
2.138009 4.319499 -1.698096
2.306180 4.670750 -1.690599
2.500797 5.079611 -1.684432
2.689318 5.472614 -1.653013
2.702830 5.498266 -1.504002
2.974776 6.066178 -1.484425
3.294408 6.733474 -1.456776
3.675814 7.620798 -1.430749
4.169614 8.667737 -1.388807
4.934560 10.285591 -1.365734
5.825832 12.168703 -1.289205
7.620415 15.972357 -1.265917
9.721558 20.413364 -1.081064
14.173732 29.827629 -0.794282
25.507578 53.816273 -0.036306
26.949478 56.815464 1.426106
0.004034 -0.197423 -0.007378
36.412079 76.724518 5.902124
0.004034 -0.197423 -0.007378
0.004034 -0.197423 -0.007378
0.004034 -0.197423 -0.007378
0.004034 -0.197423 -0.007378
0.004034 -0.197423 -0.007378
0.254599 0.329244 -0.353494
0.258956 0.337884 -0.340747
0.283598 0.389295 -0.353215
0.311853 0.447938 -0.366672
0.384156 0.598689 -0.425361
1.679146 3.306555 -1.738708
1.776334 3.507966 -1.725276
1.893531 3.749172 -1.718352
2.022902 4.015356 -1.710176
2.158241 4.295454 -1.693620
2.334959 4.659384 -1.691209
2.533695 5.068433 -1.685552
2.690060 5.391073 -1.633747
2.739923 5.489438 -1.505868
3.016954 6.059291 -1.486947
3.333740 6.710567 -1.456059
3.724976 7.608696 -1.432403
4.230637 8.661022 -1.391634
5.011048 10.291356 -1.370200
5.905494 12.153235 -1.291122
7.722160 15.939762 -1.266971
9.870160 20.420422 -1.084449
14.441278 29.944204 -0.799632
25.860220 53.732906 -0.036604
26.965794 56.010735 1.409480
0.004024 -0.197158 -0.007368
0.004024 -0.197158 -0.007368
0.004024 -0.197158 -0.007368
0.004024 -0.197158 -0.007368
0.004024 -0.197158 -0.007368
0.004024 -0.197158 -0.007368
0.004024 -0.197158 -0.007368
0.256218 0.324919 -0.351445
0.260594 0.333483 -0.338779
0.286280 0.386292 -0.352268
0.319549 0.454397 -0.371157
0.383337 0.585298 -0.419359
1.700058 3.298745 -1.739529
1.800692 3.502631 -1.727600
1.915268 3.734809 -1.716904
2.047936 4.005622 -1.710871
2.188136 4.289659 -1.696197
2.365389 4.649174 -1.692417
2.565637 5.057502 -1.686672
2.697680 5.323141 -1.618541
0.004014 -0.196894 -0.007358
3.063209 6.063197 -1.491968
3.374284 6.693307 -1.456453
3.775484 7.595636 -1.434058
4.285853 8.645723 -1.393064
5.075753 10.267114 -1.370941
5.962973 12.086042 -1.287812
7.806180 15.877394 -1.265634
10.021042 20.421131 -1.087649
14.651222 29.923082 -0.801479
24.147139 49.425522 -0.034574
27.337088 55.929253 1.411208
0.004014 -0.196894 -0.007358
0.004014 -0.196894 -0.007358
0.004014 -0.196894 -0.007358
0.004014 -0.196894 -0.007358
0.004014 -0.196894 -0.007358
0.004014 -0.196894 -0.007358
0.004014 -0.196894 -0.007358
0.259207 0.323722 -0.351437
0.261346 0.327580 -0.335829
0.286524 0.378591 -0.348502
0.318570 0.443224 -0.365760
0.385427 0.578498 -0.416783
1.717526 3.282332 -1.736279
1.819503 3.487526 -1.725292
1.937026 3.722328 -1.716185
2.071158 3.990323 -1.709512
2.216442 4.282376 -1.698132
2.399165 4.647748 -1.696607
2.598454 5.045928 -1.687793
2.705353 5.259258 -1.604348
0.004005 -0.196630 -0.007348
3.102870 6.050459 -1.493240
3.418593 6.680520 -1.457963
3.809836 7.552817 -1.430183
4.340825 8.625772 -1.393935
5.129744 10.225535 -1.369351
6.010681 12.005354 -1.283005
7.894298 15.816802 -1.264580
10.176617 20.438663 -1.091693
0.004005 -0.196630 -0.007348
24.497589 49.396526 -0.034875
24.590401 49.560017 1.253547
0.004005 -0.196630 -0.007348
0.004005 -0.196630 -0.007348
0.004005 -0.196630 -0.007348
0.004005 -0.196630 -0.007348
0.004005 -0.196630 -0.007348
0.004005 -0.196630 -0.007348
0.004005 -0.196630 -0.007348
0.259203 0.316297 -0.347346
0.266768 0.330984 -0.338764
0.290706 0.378748 -0.349434
0.321535 0.440000 -0.364855
0.389070 0.574939 -0.415920
1.739155 3.275946 -1.737914
1.844620 3.483559 -1.728388
1.960364 3.713054 -1.716922
2.096898 3.981975 -1.710892
2.240489 4.266449 -1.696861
2.432125 4.644374 -1.700200
2.631153 5.036316 -1.689465
2.711535 5.193759 -1.589648
2.846540 5.457300 -1.510080
3.116579 5.991388 -1.483255
3.460442 6.668638 -1.459469
3.851304 7.521541 -1.428585
4.393290 8.604477 -1.394526
5.188770 10.189881 -1.368693
6.009925 11.823712 -1.267740
7.992562 15.783885 -1.265630
10.335437 20.451498 -1.095646
0.003995 -0.196366 -0.007338
23.611570 46.917999 -0.033791
24.361483 48.369865 1.226786
0.003995 -0.196366 -0.007338
0.003995 -0.196366 -0.007338
0.003995 -0.196366 -0.007338
0.003995 -0.196366 -0.007338
36.257874 71.820503 11.282703
0.003995 -0.196366 -0.007338
0.003995 -0.196366 -0.007338
0.265154 0.321270 -0.351422
0.270493 0.331337 -0.339736
0.295504 0.380559 -0.351307
0.326701 0.441681 -0.366645
0.398387 0.582642 -0.421053
1.760744 3.269411 -1.739549
1.862598 3.468538 -1.726079
1.981996 3.700336 -1.716202
2.120905 3.970120 -1.710902
2.270402 4.262189 -1.700078
2.455623 4.622083 -1.697230
2.662967 5.024798 -1.690584
2.716155 5.126637 -1.574439
2.886082 5.454965 -1.513794
3.163004 5.992258 -1.487861
3.507324 6.660521 -1.462092
3.885413 7.482606 -1.425358
4.449206 8.589922 -1.396234
5.232297 10.132699 -1.365004
5.988699 11.616193 -1.249479
8.069045 15.707662 -1.263308
10.495682 20.482868 -1.100440
0.004010 -0.196084 -0.007327
23.334011 45.702976 -0.033393
23.576218 46.157131 1.173671
0.004010 -0.196084 -0.007327
0.004010 -0.196084 -0.007327
0.004010 -0.196084 -0.007327
0.004010 -0.196084 -0.007327
0.004010 -0.196084 -0.007327
0.004010 -0.196084 -0.007327
0.004010 -0.196084 -0.007327
0.267428 0.318448 -0.350393
0.272811 0.328457 -0.338748
0.298103 0.377512 -0.350360
0.333743 0.446384 -0.370231
0.403822 0.582165 -0.421904
1.778152 3.254632 -1.737112
1.883456 3.456078 -1.725315
2.009333 3.697083 -1.719853
2.143961 3.956442 -1.710226
2.298543 4.252309 -1.701373
2.485878 4.611097 -1.698437
2.692970 5.009672 -1.690598
2.722788 5.062607 -1.560245
2.917662 5.436821 -1.513348
3.189566 5.956866 -1.483712
3.539485 6.626546 -1.459144
3.929067 7.456205 -1.424735
4.499703 8.564467 -1.396266
5.293433 10.101771 -1.365045
5.992165 11.451488 -1.235891
8.185976 15.710922 -1.267308
10.658345 20.498716 -1.104676
0.003999 -0.195819 -0.007317
23.609659 45.591339 -0.033614
23.810278 45.938641 1.171455
0.003999 -0.195819 -0.007317
0.003999 -0.195819 -0.007317
0.003999 -0.195819 -0.007317
0.003999 -0.195819 -0.007317
0.003999 -0.195819 -0.007317
0.003999 -0.195819 -0.007317
0.003999 -0.195819 -0.007317
0.269592 0.315668 -0.349365
0.277424 0.330259 -0.340702
0.303025 0.379211 -0.352232
0.330830 0.432066 -0.363037
0.409120 0.581716 -0.422754
1.799658 3.247854 -1.738748
1.905299 3.447102 -1.726094
2.031688 3.685729 -1.719862
2.165225 3.939334 -1.708181
2.326733 4.244325 -1.703307
2.516166 4.602077 -1.700240
2.718407 4.985849 -1.687852
2.732336 5.007725 -1.548587
2.953654 5.427123 -1.515213
3.241279 5.969859 -1.491234
3.579600 6.608090 -1.459538
3.991228 7.468748 -1.431267
4.535399 8.510597 -1.391828
5.347105 10.060862 -1.363686
6.020420 11.342937 -1.228091
8.257069 15.624917 -1.264282
10.810537 20.501078 -1.108155
0.003990 -0.195555 -0.007307
23.873674 45.456776 -0.033822
24.139318 45.923386 1.174379
0.003990 -0.195555 -0.007307
0.003990 -0.195555 -0.007307
0.003990 -0.195555 -0.007307
0.003990 -0.195555 -0.007307
0.003990 -0.195555 -0.007307
0.003990 -0.195555 -0.007307
0.003990 -0.195555 -0.007307
0.274118 0.317433 -0.351399
0.278800 0.325848 -0.338733
0.304685 0.374630 -0.350345
0.331908 0.425684 -0.360335
0.411888 0.576439 -0.421034
1.820048 3.237412 -1.738755
1.927956 3.439621 -1.727645
2.054868 3.675907 -1.720598
2.197608 3.941636 -1.714356
2.353125 4.232814 -1.703959
2.543720 4.587792 -1.700252
2.728329 4.930881 -1.675165
2.738609 4.947783 -1.535407
2.972295 5.382298 -1.507837
3.279621 5.954274 -1.492088
3.619867 6.587024 -1.459561
4.034351 7.444198 -1.430968
4.597099 8.503095 -1.394933
5.406035 10.030205 -1.363724
6.814614 12.684968 -1.374224
8.370317 15.612997 -1.267300
10.966836 20.509422 -1.112010
0.003980 -0.195292 -0.007297
24.174841 45.373009 -0.034070
24.456791 45.882912 1.176713
0.003980 -0.195292 -0.007297
0.003980 -0.195292 -0.007297
0.003980 -0.195292 -0.007297
0.003980 -0.195292 -0.007297
0.003980 -0.195292 -0.007297
0.003980 -0.195292 -0.007297
0.003980 -0.195292 -0.007297
0.283643 0.328227 -0.359560
0.285172 0.330623 -0.342648
0.310545 0.377765 -0.353157
0.340643 0.433445 -0.365718
0.413039 0.567904 -0.417601
1.842359 3.231992 -1.741204
1.947709 3.425142 -1.726109
2.078666 3.665580 -1.721336
2.218708 3.924239 -1.712311
2.381135 4.222404 -1.705253
2.573846 4.576271 -1.701459
2.733171 4.869697 -1.660267
2.753429 4.902783 -1.526794
3.015419 5.385927 -1.513398
3.295430 5.899438 -1.483353
3.652292 6.554261 -1.456983
4.076792 7.415215 -1.430019
4.658309 8.497742 -1.398317
5.461861 9.989491 -1.362599
6.900267 12.662165 -1.376145
8.463978 15.570126 -1.267786
11.119663 20.500652 -1.115116
0.003971 -0.195028 -0.007287
24.479311 45.312710 -0.034321
0.003971 -0.195028 -0.007287
0.003971 -0.195028 -0.007287
0.003971 -0.195028 -0.007287
0.003971 -0.195028 -0.007287
0.003971 -0.195028 -0.007287
0.003971 -0.195028 -0.007287
0.003971 -0.195028 -0.007287
0.003971 -0.195028 -0.007287
0.275983 0.307213 -0.346278
0.287374 0.327743 -0.341660
0.312149 0.373156 -0.351270
0.342557 0.428633 -0.363914
0.415560 0.562698 -0.415882
1.859430 3.216801 -1.738766
1.968512 3.414160 -1.726116
2.099267 3.652553 -1.720614
2.246882 3.919942 -1.715745
2.408474 4.214326 -1.707187
2.603177 4.567145 -1.703261
0.003960 -0.194763 -0.007277
2.763284 4.853678 -1.516656
3.046552 5.367061 -1.512952
3.328444 5.879520 -1.482953
3.671011 6.499587 -1.449577
4.119563 7.390170 -1.429719
4.715802 8.484992 -1.400582
5.515636 9.949451 -1.361471
6.978892 12.631272 -1.377130
8.552631 15.517925 -1.267569
11.271038 20.496244 -1.118406
0.003960 -0.194763 -0.007277
24.793417 45.267944 -0.034582
0.003960 -0.194763 -0.007277
0.003960 -0.194763 -0.007277
0.003960 -0.194763 -0.007277
0.003960 -0.194763 -0.007277
33.624550 61.245045 8.145494
0.003960 -0.194763 -0.007277
0.003960 -0.194763 -0.007277
