# This PCD file was generated using the MATLAB® pcwrite function
# from Computer Vision Toolbox®.
# .PCD v.7 - Point Cloud Data file format
VERSION .7
FIELDS x y z
SIZE 4 4 4
TYPE F F F
COUNT 1 1 1
WIDTH 1623
HEIGHT 1
VIEWPOINT 0 0 0 1 0 0 0
POINTS 1623
DATA ascii
3.703872 -4.720379 -2.009011
4.036099 -5.138325 -2.023034
4.404671 -5.600306 -2.029804
4.879394 -6.197357 -2.054359
5.451518 -6.914627 -2.078640
6.219131 -7.879619 -2.129097
7.190003 -9.100396 -2.183944
8.697611 -10.894359 -2.293206
9.335403 -11.690043 -2.108194
9.374577 -11.747068 -1.762501
9.391036 -11.775946 -1.414724
0.002000 -0.103894 -0.003593
49.594788 -61.822399 -3.767230
19.896088 -24.880108 -0.769920
17.123198 -21.434525 -0.028208
19.616037 -24.557907 0.695992
16.311874 -20.453068 1.189042
17.322016 -21.721300 1.908334
17.579494 -22.058483 2.594733
0.002000 -0.103894 -0.003593
0.002000 -0.103894 -0.003593
35.730534 -44.810345 9.345935
35.261909 -44.255840 10.589564
0.359851 -0.552743 -0.344842
0.374328 -0.571266 -0.340151
0.404286 -0.609084 -0.347818
0.436803 -0.650350 -0.355091
0.486552 -0.713318 -0.373074
2.782021 -3.602812 -1.998169
2.974009 -3.847157 -2.005141
3.178059 -4.107073 -2.004376
3.424797 -4.419710 -2.014140
3.683103 -4.748780 -2.012203
4.010583 -5.165703 -2.024807
4.374135 -5.626808 -2.030337
4.847818 -6.229628 -2.055863
5.413409 -6.947157 -2.079081
6.175473 -7.916551 -2.129490
7.144186 -9.149067 -2.185777
8.642722 -10.953236 -2.295132
9.264875 -11.738647 -2.107322
9.358110 -11.864283 -1.772053
9.365838 -11.882514 -1.421070
30.463369 -38.435307 -3.471494
19.765257 -24.991161 -1.514232
19.534422 -24.718269 -0.761376
16.629778 -21.065491 -0.027622
0.001992 -0.103627 -0.003584
16.585247 -21.039661 1.217873
17.451235 -22.141020 1.936618
17.488668 -22.204309 2.600121
0.001992 -0.103627 -0.003584
0.001992 -0.103627 -0.003584
35.610928 -45.189941 9.382471
35.174088 -44.669121 10.640150
0.360427 -0.558595 -0.347897
0.367320 -0.567652 -0.336216
0.398083 -0.606968 -0.344986
0.432547 -0.651167 -0.354182
0.484148 -0.717249 -0.373921
2.764091 -3.621363 -1.999783
2.951263 -3.862491 -2.004352
3.152653 -4.122098 -2.002900
3.401048 -4.440557 -2.014808
3.659792 -4.774111 -2.014110
3.981384 -5.188423 -2.024788
4.338714 -5.647080 -2.028657
4.808910 -6.252576 -2.054317
5.373921 -6.977930 -2.079058
6.131595 -7.953237 -2.129883
7.088389 -9.185105 -2.184634
8.588663 -11.013384 -2.297384
9.236928 -11.841312 -2.116254
9.276755 -11.900497 -1.769449
9.349552 -12.001708 -1.428915
30.395016 -38.804295 -3.488930
19.262812 -24.646877 -1.486541
19.356646 -24.784386 -0.759920
16.568077 -21.236130 -0.027658
16.713104 -21.436619 0.601272
16.508816 -21.191116 1.221213
16.909767 -21.711241 1.890258
16.676691 -21.428873 2.497503
0.001985 -0.103362 -0.003575
0.001985 -0.103362 -0.003575
35.484470 -45.564980 9.418041
35.083878 -45.084408 10.691108
0.362017 -0.565814 -0.351974
0.366767 -0.572237 -0.338168
0.395192 -0.608961 -0.344976
0.431565 -0.656198 -0.355970
0.483929 -0.724027 -0.376483
2.746023 -3.639830 -2.001397
2.928423 -3.877698 -2.003562
3.136287 -4.148753 -2.007258
3.376023 -4.459786 -2.014790
3.636339 -4.799303 -2.016017
3.954379 -5.213999 -2.025964
4.312602 -5.679290 -2.031402
4.779333 -6.287542 -2.056836
5.339020 -7.014630 -2.080886
6.088709 -7.991212 -2.130693
7.040777 -9.231716 -2.186095
8.529363 -11.067031 -2.298331
9.226342 -11.967482 -2.129387
9.213561 -11.959702 -1.770351
0.001978 -0.103096 -0.003566
30.301430 -39.145378 -3.503821
47.348957 -61.156292 -3.675866
19.318388 -25.029427 -0.763959
0.001978 -0.103096 -0.003566
16.561909 -21.495796 0.600297
17.077847 -22.178362 1.272894
16.637444 -21.616932 1.873646
16.435577 -21.371342 2.479707
0.001978 -0.103096 -0.003566
0.001978 -0.103096 -0.003566
0.001978 -0.103096 -0.003566
34.988865 -45.498547 10.741698
0.360401 -0.568965 -0.352985
0.365118 -0.575445 -0.339139
0.391186 -0.609553 -0.344025
0.425105 -0.654144 -0.353263
0.485824 -0.733705 -0.380759
2.720541 -3.649987 -1.998120
2.904413 -3.891277 -2.002001
3.102768 -4.153144 -2.000678
3.352400 -4.482443 -2.016144
3.609239 -4.819884 -2.015998
3.931845 -5.245500 -2.029529
4.279463 -5.704484 -2.031381
4.748352 -6.320820 -2.058847
5.294400 -7.041250 -2.079474
6.045361 -8.031584 -2.131921
6.988898 -9.276159 -2.186811
8.470915 -11.121930 -2.299603
9.188377 -12.064122 -2.136917
9.168141 -12.042198 -1.774759
9.299218 -12.221743 -1.442353
30.217445 -39.517269 -3.520971
46.798714 -61.169048 -3.660254
0.001970 -0.102829 -0.003557
0.001970 -0.102829 -0.003557
16.306078 -21.417387 0.595485
17.016016 -22.361723 1.277883
16.475672 -21.670519 1.869842
16.774364 -22.077629 2.550601
0.001970 -0.102829 -0.003557
0.001970 -0.102829 -0.003557
0.001970 -0.102829 -0.003557
34.897362 -45.922478 10.794504
0.350342 -0.561235 -0.345823
0.364397 -0.580110 -0.341091
0.388171 -0.611584 -0.344015
0.423998 -0.659211 -0.355050
0.486433 -0.742060 -0.384177
2.702270 -3.668232 -1.999734
2.876307 -3.900817 -1.998121
3.084288 -4.178638 -2.004307
3.328274 -4.502884 -2.016811
3.582322 -4.842453 -2.016621
3.892070 -5.256266 -2.024729
4.256384 -5.741041 -2.035784
4.704377 -6.339345 -2.055776
5.257867 -7.076008 -2.080839
6.003145 -8.070665 -2.133148
6.937166 -9.317524 -2.187155
8.418551 -11.188974 -2.303158
9.161264 -12.171755 -2.146687
9.262818 -12.314478 -1.806979
9.284915 -12.352571 -1.451322
30.127422 -39.871552 -3.536986
45.067268 -59.637321 -3.552353
0.001963 -0.102564 -0.003547
0.001963 -0.102564 -0.003547
16.478338 -21.909058 0.606609
16.768166 -22.308870 1.269165
16.484688 -21.941475 1.885185
16.516918 -22.000196 2.530600
0.001963 -0.102564 -0.003547
0.001963 -0.102564 -0.003547
0.001963 -0.102564 -0.003547
0.001963 -0.102564 -0.003547
0.348728 -0.564337 -0.346835
0.360599 -0.580521 -0.340100
0.385216 -0.613543 -0.344005
0.417558 -0.657083 -0.352343
0.482867 -0.744476 -0.384167
2.684974 -3.687844 -2.002162
2.848858 -3.909655 -1.994241
3.061474 -4.195522 -2.004289
3.301751 -4.520197 -2.016107
3.560328 -4.868179 -2.019169
3.868924 -5.285303 -2.027696
4.223859 -5.765168 -2.035763
4.677593 -6.376079 -2.059311
5.217636 -7.105882 -2.080816
5.963243 -8.110049 -2.134792
6.889140 -9.360555 -2.188242
8.362880 -11.248026 -2.305407
9.142733 -12.292130 -2.158697
9.265023 -12.464281 -1.821201
9.258412 -12.464500 -1.458226
30.067780 -40.270817 -3.556956
44.386433 -59.444309 -3.525443
0.001956 -0.102299 -0.003538
0.001956 -0.102299 -0.003538
16.575056 -22.301262 0.614967
16.614107 -22.361786 1.266938
17.019545 -22.921799 1.961547
16.156401 -21.772409 2.493854
0.001956 -0.102299 -0.003538
0.001956 -0.102299 -0.003538
0.001956 -0.102299 -0.003538
0.001956 -0.102299 -0.003538
0.347152 -0.567387 -0.347846
0.354813 -0.578044 -0.337146
0.383397 -0.616829 -0.344935
0.413379 -0.657697 -0.351434
0.474957 -0.741082 -0.380727
2.666003 -3.703965 -2.002960
2.829768 -3.928178 -1.995769
3.038591 -4.212260 -2.004271
3.279262 -4.541309 -2.017460
3.532559 -4.886167 -2.018508
3.841058 -5.308080 -2.028273
4.193323 -5.789927 -2.036295
4.641347 -6.400260 -2.058780
5.177302 -7.133057 -2.080328
5.918470 -8.142920 -2.134765
6.836168 -9.397021 -2.187840
8.299367 -11.292667 -2.305048
9.128794 -12.415878 -2.171546
9.217161 -12.544253 -1.825372
9.237827 -12.581333 -1.465880
29.959410 -40.594898 -3.570705
43.735104 -59.258690 -3.499764
0.001948 -0.102032 -0.003529
0.001948 -0.102032 -0.003529
16.440228 -22.378653 0.614623
16.731569 -22.781866 1.285639
16.680031 -22.728636 1.936950
15.809589 -21.555712 2.458764
0.001948 -0.102032 -0.003529
0.001948 -0.102032 -0.003529
0.001948 -0.102032 -0.003529
0.001948 -0.102032 -0.003529
0.345391 -0.570546 -0.348858
0.354028 -0.582674 -0.339098
0.379290 -0.617386 -0.343984
0.411139 -0.661287 -0.352322
0.462504 -0.732021 -0.373858
2.642427 -3.716490 -2.001313
2.807008 -3.944622 -1.995751
3.014526 -4.231965 -2.004981
3.252876 -4.560394 -2.017440
3.504392 -4.908896 -2.019130
3.814831 -5.338855 -2.031240
4.156123 -5.809750 -2.034614
4.602798 -6.428202 -2.058756
5.135519 -7.163348 -2.080303
5.872711 -8.183372 -2.135991
6.783919 -9.444654 -2.189298
8.241009 -11.352553 -2.307296
9.088356 -12.514259 -2.179353
9.198337 -12.673756 -1.836320
9.209481 -12.698308 -1.473157
29.422169 -40.365627 -3.535003
43.028938 -59.031082 -3.471047
46.015175 -63.167519 -1.885278
0.001939 -0.101763 -0.003520
16.095860 -22.184597 0.606646
16.872732 -23.267668 1.307451
16.591364 -22.889765 1.942383
15.754484 -21.756207 2.470782
0.001939 -0.101763 -0.003520
0.001939 -0.101763 -0.003520
0.001939 -0.101763 -0.003520
0.001939 -0.101763 -0.003520
0.340672 -0.569459 -0.346804
0.351257 -0.584419 -0.339088
0.377347 -0.620711 -0.344914
0.405820 -0.660466 -0.350514
0.453585 -0.727062 -0.369561
2.626274 -3.739232 -2.005371
2.786992 -3.963434 -1.997278
2.992870 -4.251998 -2.006421
3.224165 -4.576293 -2.016050
3.478861 -4.931798 -2.020394
3.785725 -5.362008 -2.031816
4.132272 -5.848082 -2.039569
4.573076 -6.463741 -2.061783
5.092397 -7.191836 -2.079815
5.834916 -8.232101 -2.139722
6.726102 -9.481249 -2.188524
8.173784 -11.396340 -2.306609
8.550481 -11.925747 -2.067276
0.001955 -0.101478 -0.003511
9.188108 -12.821863 -1.481372
29.001919 -40.288376 -3.513007
42.372334 -58.838409 -3.445179
0.001955 -0.101478 -0.003511
0.001955 -0.101478 -0.003511
16.115719 -22.481035 0.612330
16.097372 -22.472128 1.257243
0.001955 -0.101478 -0.003511
15.371351 -21.494730 2.430538
0.001955 -0.101478 -0.003511
0.001955 -0.101478 -0.003511
0.001955 -0.101478 -0.003511
0.001955 -0.101478 -0.003511
0.337890 -0.571189 -0.346794
0.347363 -0.584804 -0.338097
0.374266 -0.622653 -0.344904
0.403529 -0.664038 -0.351402
0.450909 -0.730935 -0.370408
0.494839 -0.792811 -0.382517
2.764039 -3.979618 -1.997261
2.967115 -4.267887 -2.005674
3.199440 -4.596031 -2.016716
3.452340 -4.955158 -2.021658
3.756658 -5.387212 -2.032990
4.098015 -5.869927 -2.038994
4.531906 -6.485742 -2.060235
5.053765 -7.223917 -2.080716
5.789155 -8.266867 -2.140111
6.675394 -9.524353 -2.189610
8.107800 -11.445947 -2.306901
8.448911 -11.927751 -2.059118
0.001948 -0.101213 -0.003502
9.155290 -12.935830 -1.488274
28.579042 -40.186337 -3.489597
41.709156 -58.647423 -3.419312
0.001948 -0.101213 -0.003502
45.430050 -63.941898 -0.072700
0.001948 -0.101213 -0.003502
0.001948 -0.101213 -0.003502
18.203760 -25.728128 2.166624
15.756289 -22.298761 2.511751
0.001948 -0.101213 -0.003502
0.001948 -0.101213 -0.003502
0.001948 -0.101213 -0.003502
0.001948 -0.101213 -0.003502
0.339142 -0.578465 -0.350871
0.343555 -0.585099 -0.337105
0.368193 -0.620199 -0.342072
0.401301 -0.667541 -0.352291
0.445288 -0.730219 -0.368683
0.496112 -0.802829 -0.386582
2.745906 -4.001226 -2.000332
2.948098 -4.290198 -2.008571
3.174584 -4.615641 -2.017383
3.427369 -4.977178 -2.022921
3.730390 -5.412503 -2.034761
4.068050 -5.897864 -2.040630
4.492844 -6.505923 -2.058686
5.017130 -7.258998 -2.082541
5.746855 -8.303582 -2.141336
6.624938 -9.564416 -2.190323
8.043517 -11.493752 -2.307192
8.414943 -12.024453 -2.067485
9.121872 -13.035990 -1.865654
9.136321 -13.066160 -1.497237
27.953857 -39.790417 -3.441040
41.054176 -58.435326 -3.392969
44.702034 -63.642685 -1.875715
0.001941 -0.100947 -0.003492
0.001941 -0.100947 -0.003492
0.001941 -0.100947 -0.003492
0.001941 -0.100947 -0.003492
15.634464 -22.389317 2.512179
0.001941 -0.100947 -0.003492
0.001941 -0.100947 -0.003492
0.001941 -0.100947 -0.003492
0.001941 -0.100947 -0.003492
0.331541 -0.573027 -0.345752
0.338848 -0.583873 -0.335133
0.367315 -0.624857 -0.343943
0.394036 -0.663634 -0.348685
0.437524 -0.726562 -0.365243
0.001933 -0.100680 -0.003483
2.729332 -4.023809 -2.004177
2.926040 -4.309895 -2.010011
3.149617 -4.635105 -2.018049
3.400306 -4.998116 -2.023543
3.698650 -5.432053 -2.034142
4.034609 -5.920911 -2.040608
4.456995 -6.532998 -2.059170
4.979163 -7.292284 -2.083904
5.705893 -8.348505 -2.144231
6.567587 -9.601640 -2.189920
7.977536 -11.534964 -2.306504
8.981422 -12.983814 -2.224577
9.092661 -13.148371 -1.874496
9.119559 -13.196748 -1.506387
26.700697 -38.478107 -3.313940
40.441704 -58.251575 -3.368998
0.001933 -0.100680 -0.003483
0.001933 -0.100680 -0.003483
0.001933 -0.100680 -0.003483
0.001933 -0.100680 -0.003483
0.001933 -0.100680 -0.003483
15.540577 -22.537008 2.518497
0.001933 -0.100680 -0.003483
0.001933 -0.100680 -0.003483
0.001933 -0.100680 -0.003483
0.001933 -0.100680 -0.003483
0.329699 -0.576128 -0.346763
0.336967 -0.587026 -0.336103
0.367199 -0.631107 -0.346754
0.391704 -0.667151 -0.349573
0.437906 -0.734816 -0.368662
0.496256 -0.819984 -0.393080
2.707061 -4.041170 -2.004931
2.908398 -4.337647 -2.015095
3.127699 -4.659088 -2.020772
3.373346 -5.021039 -2.024806
3.668048 -5.455189 -2.034718
4.006454 -5.951700 -2.043350
4.423140 -6.565424 -2.061178
4.932196 -7.312514 -2.081564
5.655002 -8.376098 -2.142949
6.518313 -9.647138 -2.191749
7.908447 -11.580183 -2.306142
8.946409 -13.092118 -2.234340
9.072539 -13.285242 -1.886375
9.081203 -13.307762 -1.512911
0.001926 -0.100415 -0.003474
39.803268 -58.063568 -3.344269
0.001926 -0.100415 -0.003474
27.928072 -40.815559 -0.046796
28.323938 -41.423813 1.115660
0.001926 -0.100415 -0.003474
0.001926 -0.100415 -0.003474
15.580983 -22.873989 2.546349
0.001926 -0.100415 -0.003474
0.001926 -0.100415 -0.003474
0.001926 -0.100415 -0.003474
0.001926 -0.100415 -0.003474
0.326970 -0.577726 -0.346753
0.333174 -0.587238 -0.335112
0.361139 -0.628569 -0.343922
0.386416 -0.666167 -0.347765
0.430187 -0.731064 -0.365222
0.495176 -0.827086 -0.395515
2.686398 -4.059468 -2.006457
2.872459 -4.337086 -2.007056
3.100351 -4.675185 -2.020066
3.348126 -5.044823 -2.026711
3.640347 -5.480699 -2.036488
3.974850 -5.977582 -2.044432
4.390183 -6.596910 -2.063187
4.896028 -7.348585 -2.083852
5.605078 -8.404996 -2.142085
6.463254 -9.684223 -2.191717
7.847794 -11.633390 -2.307736
8.916033 -13.208617 -2.245504
9.045615 -13.409260 -1.896617
9.063208 -13.445189 -1.522622
25.007950 -36.941833 -3.156235
24.958712 -36.897087 -2.115911
28.077196 -41.526337 -1.209163
24.791327 -36.691776 -0.042160
27.956753 -41.395432 1.110630
0.001919 -0.100150 -0.003465
0.001919 -0.100150 -0.003465
0.001919 -0.100150 -0.003465
0.001919 -0.100150 -0.003465
0.001919 -0.100150 -0.003465
0.001919 -0.100150 -0.003465
0.001919 -0.100150 -0.003465
0.324205 -0.579326 -0.346743
0.329395 -0.587418 -0.334120
0.357117 -0.628884 -0.342971
0.385146 -0.671065 -0.349552
0.424531 -0.730251 -0.363497
0.490966 -0.829657 -0.395504
2.669708 -4.083793 -2.011073
2.853198 -4.361017 -2.010682
3.073963 -4.692681 -2.020046
3.321709 -5.066889 -2.027973
3.609330 -5.501276 -2.036466
3.946288 -6.008079 -2.047174
4.353790 -6.623405 -2.063670
4.856382 -7.379608 -2.084751
5.556098 -8.435216 -2.141639
6.407990 -9.720983 -2.191684
7.779082 -11.674815 -2.307047
8.889006 -13.331783 -2.257787
9.015347 -13.530101 -1.906390
9.040572 -13.577900 -1.531769
24.998762 -37.388149 -3.181987
38.568623 -57.674187 -3.295758
25.361507 -37.986683 -1.101784
24.597008 -36.858498 -0.042088
27.746403 -41.596928 1.111856
0.001912 -0.099884 -0.003456
0.001912 -0.099884 -0.003456
0.001912 -0.099884 -0.003456
0.001912 -0.099884 -0.003456
0.001912 -0.099884 -0.003456
0.001912 -0.099884 -0.003456
0.001912 -0.099884 -0.003456
0.326172 -0.588080 -0.351841
0.332344 -0.597754 -0.339997
0.352109 -0.627713 -0.341080
0.379857 -0.670028 -0.347744
0.422889 -0.735416 -0.365201
0.484736 -0.829147 -0.393863
2.641638 -4.091128 -2.007192
2.826568 -4.373984 -2.009205
3.050572 -4.714730 -2.022083
3.293066 -5.085647 -2.027952
3.579222 -5.523284 -2.037041
3.914326 -6.033632 -2.048256
4.318269 -6.651332 -2.064661
4.816538 -7.410415 -2.085649
5.512321 -8.473323 -2.143279
6.354665 -9.760713 -2.192395
7.719953 -11.730642 -2.309292
8.847717 -13.435266 -2.266707
9.013628 -13.695718 -1.922473
9.007935 -13.697491 -1.539415
25.008406 -37.870491 -3.210702
37.975376 -57.500057 -3.273115
24.462761 -37.102615 -1.071965
27.116209 -41.132309 -0.046307
27.272449 -41.400230 1.102450
0.001904 -0.099617 -0.003447
0.001904 -0.099617 -0.003447
0.001904 -0.099617 -0.003447
0.001904 -0.099617 -0.003447
0.001904 -0.099617 -0.003447
0.001904 -0.099617 -0.003447
0.001904 -0.099617 -0.003447
0.322410 -0.588232 -0.350809
0.328516 -0.597919 -0.339006
0.353893 -0.636835 -0.345772
0.377545 -0.673418 -0.348632
0.415252 -0.731520 -0.361761
0.481400 -0.833256 -0.394667
2.616595 -4.102905 -2.005628
2.803925 -4.393045 -2.010643
3.025184 -4.735624 -2.023433
3.268443 -5.110596 -2.030498
3.547924 -5.543534 -2.037019
3.879057 -6.056469 -2.048232
4.283643 -6.680670 -2.066160
4.775213 -7.441839 -2.086548
5.458289 -8.499038 -2.141579
6.298323 -9.799603 -2.192734
7.660446 -11.786164 -2.311536
8.312852 -12.791401 -2.149037
8.953701 -13.775359 -1.926403
8.980753 -13.827148 -1.548186
24.573338 -37.695538 -3.183339
37.374512 -57.304295 -3.249522
24.304018 -37.326241 -1.074272
24.279449 -37.317051 -0.042070
24.807440 -38.141129 1.011452
0.001897 -0.099352 -0.003438
0.001897 -0.099352 -0.003438
0.001897 -0.099352 -0.003438
0.001897 -0.099352 -0.003438
0.001897 -0.099352 -0.003438
0.001897 -0.099352 -0.003438
0.001897 -0.099352 -0.003438
0.314841 -0.582632 -0.345690
0.322700 -0.595198 -0.336052
0.347806 -0.634209 -0.342940
0.377044 -0.679867 -0.351318
0.413453 -0.736728 -0.363465
0.478149 -0.837275 -0.395471
2.594808 -4.121174 -2.007154
2.780433 -4.412449 -2.012081
3.002513 -4.759003 -2.026155
3.237636 -5.128025 -2.029835
3.519691 -5.570632 -2.039386
3.845740 -6.080042 -2.048761
4.241417 -6.700788 -2.064610
4.742326 -7.483665 -2.090685
5.408784 -8.528399 -2.141132
6.244483 -9.838743 -2.193445
7.595280 -11.837748 -2.312801
0.001890 -0.099087 -0.003428
0.001890 -0.099087 -0.003428
8.953173 -13.963541 -1.557518
24.363024 -37.846142 -3.184084
36.791016 -57.146889 -3.228019
24.675241 -38.388779 -1.100512
24.044262 -37.423950 -0.041935
24.612825 -38.336025 1.012852
0.001890 -0.099087 -0.003428
0.001890 -0.099087 -0.003428
0.001890 -0.099087 -0.003428
0.001890 -0.099087 -0.003428
0.001890 -0.099087 -0.003428
0.001890 -0.099087 -0.003428
0.001890 -0.099087 -0.003428
0.312031 -0.584171 -0.345680
0.316088 -0.590889 -0.332117
0.346612 -0.638903 -0.344810
0.368875 -0.674227 -0.346813
0.407813 -0.735784 -0.361740
0.461137 -0.819709 -0.384864
2.571595 -4.135778 -2.007134
2.758541 -4.432831 -2.014249
2.964531 -4.758506 -2.018592
3.209637 -5.147908 -2.030455
3.488131 -5.590530 -2.039363
3.815363 -6.108297 -2.050949
4.207478 -6.731359 -2.066617
4.703896 -7.517146 -2.092509
5.364357 -8.565731 -2.142771
6.187279 -9.872580 -2.193039
7.526530 -11.879327 -2.312437
8.138471 -12.842315 -2.141673
8.175769 -12.910629 -1.791253
8.921391 -14.090123 -1.565912
24.225780 -38.111649 -3.194572
36.208843 -56.959724 -3.205470
23.732121 -37.394585 -1.068000
23.788252 -37.497314 -0.041766
24.540346 -38.709644 1.019126
50.964157 -80.349083 4.347396
0.001882 -0.098820 -0.003419
0.001882 -0.098820 -0.003419
0.001882 -0.098820 -0.003419
0.001882 -0.098820 -0.003419
0.001882 -0.098820 -0.003419
0.001882 -0.098820 -0.003419
0.311077 -0.588574 -0.347712
0.320682 -0.604212 -0.339955
0.341626 -0.637608 -0.342918
0.367457 -0.679080 -0.348600
0.401257 -0.733243 -0.359157
0.452106 -0.814343 -0.380778
2.547338 -4.148667 -2.006342
2.737501 -4.454669 -2.017144
2.944643 -4.786355 -2.023370
3.182521 -5.169237 -2.031716
3.461543 -5.618310 -2.042326
3.786829 -6.139651 -2.054241
4.172301 -6.760110 -2.068115
4.663170 -7.547123 -2.093405
5.314503 -8.594520 -2.142322
6.128826 -9.904425 -2.192260
7.456479 -11.918843 -2.311744
8.727130 -13.939024 -2.317225
8.871565 -14.179017 -1.961087
8.892693 -14.223525 -1.575053
24.158520 -38.491638 -3.214660
25.143734 -40.088505 -2.247104
23.953169 -38.224415 -1.087633
24.669205 -39.379547 -0.043438
16.187666 -25.893286 0.677311
16.347242 -26.167856 1.404899
0.001898 -0.098533 -0.003410
0.001898 -0.098533 -0.003410
0.001898 -0.098533 -0.003410
0.001898 -0.098533 -0.003410
0.001898 -0.098533 -0.003410
0.001898 -0.098533 -0.003410
0.302782 -0.581328 -0.341572
0.311313 -0.595415 -0.333077
0.336630 -0.636301 -0.341027
0.361265 -0.676363 -0.345893
0.398540 -0.736804 -0.360004
0.446048 -0.813551 -0.379137
2.525907 -4.166136 -2.007867
2.715327 -4.474827 -2.019311
2.916627 -4.801349 -2.022663
3.150302 -5.182353 -2.029768
3.429700 -5.637877 -2.042302
3.752985 -6.162719 -2.054769
4.133893 -6.783736 -2.068089
4.624312 -7.580183 -2.095228
5.272692 -8.636353 -2.145213
6.072287 -9.939260 -2.192225
7.387280 -11.959613 -2.311379
8.697549 -14.069452 -2.330623
8.844915 -14.317284 -1.973192
8.867988 -14.365534 -1.585133
23.937160 -38.629765 -3.214552
24.727743 -39.933540 -2.230292
23.576300 -38.108200 -1.080352
0.001890 -0.098266 -0.003401
16.104208 -26.091137 0.680158
16.211645 -26.285017 1.406256
0.001890 -0.098266 -0.003401
0.001890 -0.098266 -0.003401
0.001890 -0.098266 -0.003401
0.001890 -0.098266 -0.003401
0.001890 -0.098266 -0.003401
0.001890 -0.098266 -0.003401
0.306294 -0.593039 -0.348713
0.314844 -0.607304 -0.339935
0.333524 -0.637953 -0.341016
0.356073 -0.675099 -0.344084
0.392033 -0.734176 -0.357421
0.440831 -0.814354 -0.378311
2.503407 -4.181908 -2.008620
2.689119 -4.488517 -2.018561
2.888685 -4.818286 -2.022642
3.123927 -5.204990 -2.031671
3.399748 -5.660506 -2.043473
3.707947 -6.169824 -2.049768
4.095329 -6.807152 -2.068062
4.583896 -7.613856 -2.097051
5.217889 -8.660518 -2.143512
6.016872 -9.979864 -2.193306
7.317856 -11.999977 -2.311013
8.668441 -14.208251 -2.345140
8.815914 -14.454021 -1.985063
8.848193 -14.517899 -1.596336
23.549759 -38.512234 -3.192976
24.783003 -40.539959 -2.256081
24.201796 -39.622467 -1.119187
23.355797 -38.270714 -0.041813
15.929323 -26.142157 0.679163
16.210688 -26.623085 1.419503
0.001883 -0.098001 -0.003392
0.001883 -0.098001 -0.003392
0.001883 -0.098001 -0.003392
0.001883 -0.098001 -0.003392
0.001883 -0.098001 -0.003392
0.001883 -0.098001 -0.003392
0.295312 -0.581346 -0.339508
0.304567 -0.596975 -0.332075
0.331223 -0.641154 -0.341946
0.352638 -0.676924 -0.344074
0.391160 -0.740788 -0.359982
0.435753 -0.815038 -0.377485
2.485809 -4.207468 -2.014007
2.664750 -4.505252 -2.019269
2.862408 -4.836189 -2.023306
3.098382 -5.229106 -2.034216
3.372596 -5.687884 -2.046437
3.679852 -6.202334 -2.053613
4.057637 -6.831998 -2.068543
4.543573 -7.644839 -2.098410
5.173041 -8.694261 -2.144732
5.960610 -10.011335 -2.192899
7.245089 -12.039521 -2.310321
8.633287 -14.333834 -2.357695
8.778997 -14.585620 -1.995998
8.819249 -14.663517 -1.606601
23.468731 -38.878998 -3.212072
0.001876 -0.097735 -0.003383
0.001876 -0.097735 -0.003383
23.143986 -38.417915 -0.041716
15.852091 -26.364265 0.682593
16.369400 -27.232315 1.447202
0.001876 -0.097735 -0.003383
0.001876 -0.097735 -0.003383
0.001876 -0.097735 -0.003383
0.001876 -0.097735 -0.003383
0.001876 -0.097735 -0.003383
0.001876 -0.097735 -0.003383
0.290857 -0.579744 -0.337454
0.308048 -0.608848 -0.338932
0.328990 -0.644291 -0.342876
0.351222 -0.681676 -0.345861
0.384653 -0.738109 -0.357399
0.429749 -0.814113 -0.375844
0.482016 -0.902292 -0.395764
2.641234 -4.523445 -2.020707
2.834139 -4.850686 -2.022598
3.067891 -5.247116 -2.034193
3.335451 -5.700968 -2.044023
3.648582 -6.229744 -2.055799
4.019600 -6.858994 -2.069532
4.499717 -7.673056 -2.098843
5.121467 -8.727082 -2.145118
5.903707 -10.049623 -2.193608
7.177311 -12.077803 -2.309954
7.997992 -13.458627 -2.205308
8.773472 -14.760244 -2.013240
8.789897 -14.799417 -1.616114
23.355627 -39.198135 -3.227211
24.129572 -40.526035 -2.239245
23.503490 -39.492634 -1.107601
23.762775 -39.958912 -0.043005
27.467316 -46.210320 1.196883
15.691196 -26.459881 1.401004
0.001868 -0.097468 -0.003373
0.001868 -0.097468 -0.003373
0.001868 -0.097468 -0.003373
0.001868 -0.097468 -0.003373
0.001868 -0.097468 -0.003373
0.001868 -0.097468 -0.003373
0.289641 -0.584202 -0.339487
0.300480 -0.602942 -0.334016
0.323942 -0.642914 -0.340985
0.346742 -0.681987 -0.344951
0.382692 -0.743203 -0.359103
0.421778 -0.810076 -0.372572
0.482831 -0.914409 -0.400387
2.615867 -4.540372 -2.021415
2.805880 -4.867146 -2.022576
3.038202 -5.264412 -2.034170
3.304122 -5.721435 -2.044596
3.611176 -6.249341 -2.055221
3.978643 -6.878415 -2.068489
4.460948 -7.706953 -2.101127
5.073214 -8.755262 -2.145085
5.847314 -10.084862 -2.193944
7.099000 -12.112641 -2.308283
7.913579 -13.497022 -2.203863
7.967186 -13.598615 -1.847302
7.967888 -13.610624 -1.480330
23.148663 -39.378654 -3.230627
24.063751 -40.964230 -2.255445
0.001861 -0.097203 -0.003364
15.148621 -25.853550 -0.028813
15.235106 -26.021362 0.669114
15.382378 -26.282446 1.386907
46.491825 -79.309494 6.340608
0.001861 -0.097203 -0.003364
0.001861 -0.097203 -0.003364
0.001861 -0.097203 -0.003364
0.001861 -0.097203 -0.003364
0.001861 -0.097203 -0.003364
0.292976 -0.595930 -0.346628
0.303781 -0.614880 -0.340874
0.321787 -0.645952 -0.341914
0.346159 -0.688273 -0.347637
0.378052 -0.743555 -0.358235
0.417772 -0.812155 -0.372561
0.479185 -0.918408 -0.401148
2.588371 -4.551864 -2.019935
2.781086 -4.885716 -2.023925
3.013140 -5.289743 -2.037356
3.274555 -5.745045 -2.046364
3.578698 -6.272459 -2.056301
3.937609 -6.897578 -2.067445
4.415489 -7.726400 -2.099709
5.023284 -8.784051 -2.145052
5.791684 -10.121488 -2.194651
7.032830 -12.153499 -2.308567
7.848636 -13.557817 -2.206618
7.882713 -13.627146 -1.845154
7.888357 -13.647712 -1.479535
15.604677 -26.916929 -2.199555
15.598644 -26.928137 -1.477063
34.486565 -59.468788 -1.655791
14.984560 -25.902819 -0.028700
15.049068 -26.034777 0.667360
15.410769 -26.679659 1.403361
0.001854 -0.096937 -0.003355
0.001854 -0.096937 -0.003355
0.001854 -0.096937 -0.003355
0.001854 -0.096937 -0.003355
0.001854 -0.096937 -0.003355
0.001854 -0.096937 -0.003355
0.285799 -0.589885 -0.341509
0.292107 -0.601230 -0.331052
0.317720 -0.646001 -0.340963
0.340953 -0.686889 -0.345828
0.373424 -0.743872 -0.357367
0.413534 -0.814330 -0.372550
0.475362 -0.922476 -0.401909
2.563613 -4.568025 -2.020643
2.755446 -4.906732 -2.025960
2.981313 -5.303441 -2.036049
3.241027 -5.761879 -2.045742
3.542959 -6.294971 -2.056827
3.898393 -6.919859 -2.067417
4.374987 -7.760625 -2.101993
4.966832 -8.804918 -2.142932
5.736986 -10.163928 -2.196474
6.967237 -12.200357 -2.309829
7.756814 -13.583256 -2.203212
7.859137 -13.766739 -1.857958
7.863758 -13.785871 -1.489612
23.076248 -40.306419 -3.284616
24.196337 -42.275322 -2.312213
15.513094 -27.159611 -0.753990
14.925688 -26.155817 -0.028781
15.040597 -26.367086 0.673792
15.198003 -26.663574 1.397955
15.217995 -26.720097 2.114856
0.001846 -0.096671 -0.003346
0.001846 -0.096671 -0.003346
0.001846 -0.096671 -0.003346
0.001846 -0.096671 -0.003346
0.001846 -0.096671 -0.003346
0.278635 -0.583807 -0.336391
0.295119 -0.613290 -0.337909
0.313585 -0.646060 -0.340012
0.334820 -0.683945 -0.343121
0.367015 -0.741018 -0.354784
0.403990 -0.806888 -0.367649
0.469546 -0.923394 -0.401125
2.537826 -4.582437 -2.020622
2.728616 -4.923890 -2.026623
2.952217 -5.321896 -2.036667
3.213062 -5.788470 -2.048704
3.508167 -6.316659 -2.057354
3.859995 -6.943601 -2.067897
4.333652 -7.790499 -2.103351
4.918133 -8.832242 -2.142899
5.680701 -10.195521 -2.196437
6.894371 -12.239464 -2.309460
7.732789 -13.722148 -2.218566
7.844548 -13.930326 -1.873798
7.836430 -13.927264 -1.499875
22.899483 -40.535519 -3.292402
32.829830 -58.120518 -3.168715
23.883629 -42.325119 -1.170685
14.697742 -26.103445 -0.028567
14.966140 -26.600050 0.677586
15.206874 -27.037409 1.413131
15.202709 -27.052006 2.134373
0.001839 -0.096405 -0.003337
0.001839 -0.096405 -0.003337
0.001839 -0.096405 -0.003337
0.001839 -0.096405 -0.003337
0.001839 -0.096405 -0.003337
0.280090 -0.592589 -0.341488
0.291385 -0.613123 -0.336917
0.310521 -0.647513 -0.340002
0.329774 -0.682417 -0.341312
0.364154 -0.744436 -0.355630
0.405224 -0.818496 -0.372528
0.466713 -0.928950 -0.402658
2.514672 -4.601581 -2.022787
2.710835 -4.957297 -2.034142
2.926714 -5.346786 -2.039852
3.177437 -5.801606 -2.046887
3.473233 -6.338156 -2.057880
3.826148 -6.975580 -2.070918
4.291162 -7.818458 -2.104246
4.866231 -8.860985 -2.142865
5.625473 -10.237350 -2.198259
6.825508 -12.275770 -2.309091
7.701639 -13.850821 -2.232240
7.765266 -13.970159 -1.873283
7.797017 -14.038288 -1.507139
18.944725 -34.004524 -2.752217
24.016035 -43.099922 -2.341838
26.089367 -46.851101 -1.291495
25.523521 -45.874512 -0.047467
14.872519 -26.780676 0.680175
14.805667 -26.682573 1.390070
0.001856 -0.096122 -0.003328
0.001856 -0.096122 -0.003328
0.001856 -0.096122 -0.003328
0.001856 -0.096122 -0.003328
0.001856 -0.096122 -0.003328
0.001856 -0.096122 -0.003328
0.270479 -0.581927 -0.333305
0.288287 -0.614581 -0.336907
0.308078 -0.650625 -0.340931
0.328012 -0.687215 -0.343099
0.360298 -0.746307 -0.355619
0.400164 -0.818947 -0.371702
0.451982 -0.913642 -0.394151
2.487896 -4.616146 -2.022765
2.684615 -4.975841 -2.035491
2.893691 -5.360460 -2.038545
3.148133 -5.828441 -2.049848
3.441862 -6.366200 -2.060618
3.788061 -7.002970 -2.072413
4.249447 -7.847872 -2.105603
4.814776 -8.886847 -2.142414
5.569850 -10.274447 -2.199337
6.749346 -12.308845 -2.307744
7.617558 -13.885978 -2.230792
7.667483 -13.987872 -1.869497
7.798800 -14.237453 -1.523586
18.628885 -33.894318 -2.734464
24.016916 -43.706814 -2.366936
25.796223 -46.976688 -1.290585
25.243229 -45.990582 -0.047300
14.993284 -27.376293 0.693235
45.016590 -82.078537 4.279568
0.001849 -0.095856 -0.003319
0.001849 -0.095856 -0.003319
0.001849 -0.095856 -0.003319
0.001849 -0.095856 -0.003319
0.001849 -0.095856 -0.003319
0.001849 -0.095856 -0.003319
0.269325 -0.586214 -0.335338
0.285308 -0.615943 -0.336896
0.304037 -0.650555 -0.339980
0.323742 -0.687247 -0.342190
0.353951 -0.743332 -0.353037
0.393376 -0.816145 -0.369246
0.443727 -0.909478 -0.391049
2.460069 -4.626834 -2.021285
2.658282 -4.994232 -2.036839
2.864231 -5.378426 -2.039163
3.118709 -5.852911 -2.052212
3.403879 -6.382254 -2.059485
3.752840 -7.032891 -2.074925
4.206602 -7.875353 -2.106497
4.762218 -8.910710 -2.141545
5.515824 -10.314720 -2.201159
6.672332 -12.335086 -2.305419
7.528586 -13.911929 -2.227943
7.704212 -14.246076 -1.898183
7.771494 -14.381541 -1.534222
18.353064 -33.851715 -2.722358
23.546206 -43.440273 -2.344990
25.601330 -47.262924 -1.294242
44.478352 -82.078072 -0.081396
14.824581 -27.440762 0.692785
44.578300 -82.399200 4.283104
0.001841 -0.095589 -0.003309
0.001841 -0.095589 -0.003309
0.001841 -0.095589 -0.003309
0.001841 -0.095589 -0.003309
0.001841 -0.095589 -0.003309
0.001841 -0.095589 -0.003309
0.255982 -0.567747 -0.322046
0.280735 -0.614181 -0.334923
0.299165 -0.648902 -0.338088
0.317903 -0.684033 -0.339482
0.350332 -0.745010 -0.353026
0.388358 -0.816501 -0.368419
0.432933 -0.900352 -0.385631
2.437364 -4.645148 -2.023450
2.630013 -5.009192 -2.036815
2.837337 -5.401235 -2.041705
3.083724 -5.867115 -2.050991
3.364918 -6.396375 -2.057799
3.710100 -7.048988 -2.073371
4.161316 -7.901592 -2.106928
4.710783 -8.940237 -2.141927
5.458746 -10.349497 -2.201864
6.596428 -12.357960 -2.302767
7.602646 -14.240846 -2.273813
7.740710 -14.503816 -1.926867
7.750024 -14.533185 -1.545792
18.107550 -33.861584 -2.714626
23.461447 -43.882961 -2.361450
0.001831 -0.095319 -0.003300
14.950999 -28.033188 -0.029746
22.981865 -43.077705 1.087593
44.161320 -82.761574 4.288937
0.001831 -0.095319 -0.003300
0.001831 -0.095319 -0.003300
0.001831 -0.095319 -0.003300
0.001831 -0.095319 -0.003300
0.001831 -0.095319 -0.003300
0.001831 -0.095319 -0.003300
0.247450 -0.558388 -0.314884
0.278373 -0.617146 -0.335893
0.300006 -0.658186 -0.342780
0.315131 -0.687265 -0.340370
0.348169 -0.749984 -0.354729
0.384073 -0.818511 -0.368408
0.429021 -0.904249 -0.386392
2.409449 -4.657615 -2.022698
2.599952 -5.022762 -2.036107
2.807611 -5.418893 -2.042322
3.054890 -5.892945 -2.053952
3.331946 -6.424463 -2.060536
3.673617 -7.076797 -2.075374
4.119914 -7.932044 -2.108747
4.664976 -8.973047 -2.143562
5.407846 -10.396136 -2.205172
6.520518 -12.395984 -2.302397
7.580730 -14.402657 -2.292523
7.721357 -14.680445 -1.944103
7.719442 -14.689093 -1.557363
17.822165 -33.807579 -2.701672
43.305298 -82.085754 -4.404694
0.001824 -0.095054 -0.003291
43.165592 -81.924721 -0.080272
22.692080 -43.147503 1.086071
42.955704 -81.630020 4.217537
0.001824 -0.095054 -0.003291
0.001824 -0.095054 -0.003291
0.001824 -0.095054 -0.003291
0.001824 -0.095054 -0.003291
0.001824 -0.095054 -0.003291
0.001824 -0.095054 -0.003291
0.248850 -0.567095 -0.319981
0.274639 -0.616875 -0.334902
0.293559 -0.653333 -0.339007
0.311817 -0.688738 -0.340359
0.342704 -0.748506 -0.353004
0.379908 -0.820426 -0.368397
0.422772 -0.903096 -0.384836
2.383148 -4.671131 -2.022676
2.572398 -5.039046 -2.036768
2.776052 -5.433005 -2.041656
3.020579 -5.908469 -2.053329
3.297234 -6.446670 -2.061614
3.635138 -7.100996 -2.076361
4.072937 -7.951905 -2.107790
4.615824 -9.007240 -2.145196
5.356588 -10.446955 -2.209224
6.447174 -12.423178 -2.300722
7.545925 -14.537058 -2.307032
7.681211 -14.802265 -1.954564
7.698644 -14.848199 -1.569682
17.600168 -33.856251 -2.697330
42.882130 -82.393219 -4.408050
0.001817 -0.094788 -0.003282
43.231045 -83.204185 -0.080990
22.366606 -43.109978 1.082087
43.340469 -83.520882 4.302704
0.001817 -0.094788 -0.003282
0.001817 -0.094788 -0.003282
0.001817 -0.094788 -0.003282
0.001817 -0.094788 -0.003282
0.001817 -0.094788 -0.003282
0.001817 -0.094788 -0.003282
0.238148 -0.553013 -0.309755
0.269949 -0.615109 -0.332929
0.291866 -0.657917 -0.340877
0.309100 -0.691890 -0.341247
0.337984 -0.748648 -0.352136
0.373193 -0.817466 -0.365940
0.415442 -0.900385 -0.382507
2.358495 -4.689893 -2.024841
2.545617 -5.056833 -2.038116
2.746938 -5.454154 -2.043557
2.984295 -5.922613 -2.052107
3.258866 -6.461846 -2.060480
3.597937 -7.130758 -2.078871
4.029408 -7.978412 -2.108683
4.566218 -9.036877 -2.145996
5.299608 -10.482580 -2.210300
6.373945 -12.460923 -2.300677
7.524346 -14.699683 -2.326020
7.652026 -14.960318 -1.969462
7.668373 -15.004883 -1.581438
17.422890 -33.990433 -2.699904
0.001810 -0.094523 -0.003273
0.001810 -0.094523 -0.003273
0.001810 -0.094523 -0.003273
22.060081 -43.141914 1.079716
0.001810 -0.094523 -0.003273
0.001810 -0.094523 -0.003273
0.001810 -0.094523 -0.003273
0.001810 -0.094523 -0.003273
0.001810 -0.094523 -0.003273
0.001810 -0.094523 -0.003273
0.001810 -0.094523 -0.003273
0.235497 -0.554101 -0.309744
0.269298 -0.621048 -0.335861
0.287817 -0.657734 -0.339926
0.304845 -0.691788 -0.340337
0.333521 -0.748624 -0.351267
0.370677 -0.822580 -0.367559
0.409126 -0.899194 -0.380951
2.335334 -4.707695 -2.027005
2.515292 -5.067792 -2.036721
2.719524 -5.474213 -2.045457
2.955155 -5.945724 -2.054471
3.225612 -6.487095 -2.062664
3.558596 -7.150465 -2.078841
3.983085 -7.999464 -2.108188
4.518866 -9.067196 -2.147213
5.247705 -10.524027 -2.212864
6.303568 -12.498878 -2.300957
7.493052 -14.846654 -2.342486
7.631943 -15.133146 -1.986461
7.640058 -15.162155 -1.593380
17.202248 -34.040062 -2.695843
42.020386 -83.091339 -4.418354
0.001802 -0.094256 -0.003263
42.407845 -83.965225 -0.080730
0.001802 -0.094256 -0.003263
42.518745 -84.293610 4.317584
0.001802 -0.094256 -0.003263
0.001802 -0.094256 -0.003263
0.001802 -0.094256 -0.003263
0.001802 -0.094256 -0.003263
0.001802 -0.094256 -0.003263
0.001802 -0.094256 -0.003263
0.229842 -0.548982 -0.305647
0.264804 -0.619137 -0.333889
0.283868 -0.657481 -0.338975
0.299885 -0.690018 -0.338529
0.330540 -0.751881 -0.352113
0.363210 -0.817889 -0.364288
0.401334 -0.894579 -0.377850
2.305409 -4.714120 -2.024066
2.485793 -5.080224 -2.036011
2.691890 -5.496282 -2.047999
2.918012 -5.955534 -2.052055
3.187899 -6.503566 -2.062083
3.521346 -7.177497 -2.080844
3.938383 -8.023725 -2.108618
4.470792 -9.104071 -2.149681
5.185754 -10.554694 -2.212823
6.228913 -12.523025 -2.298956
7.453206 -14.979588 -2.356711
7.595873 -15.271165 -1.999021
7.615496 -15.323616 -1.605883
17.047607 -34.220318 -2.702225
41.609203 -83.429749 -4.423692
0.001795 -0.093991 -0.003254
0.001795 -0.093991 -0.003254
0.001795 -0.093991 -0.003254
0.001795 -0.093991 -0.003254
0.001795 -0.093991 -0.003254
0.001795 -0.093991 -0.003254
0.001795 -0.093991 -0.003254
0.001795 -0.093991 -0.003254
0.001795 -0.093991 -0.003254
0.001795 -0.093991 -0.003254
0.224855 -0.545431 -0.302572
0.263989 -0.625112 -0.336821
0.278950 -0.655715 -0.337083
0.302664 -0.704325 -0.345708
0.324226 -0.748694 -0.349531
0.357434 -0.816403 -0.362647
0.398198 -0.899982 -0.379383
2.282898 -4.737463 -2.028417
2.461174 -5.102619 -2.039415
2.661455 -5.515290 -2.049257
2.884885 -5.975883 -2.053222
3.157705 -6.535349 -2.066477
3.481842 -7.203182 -2.082337
3.893532 -8.047733 -2.109047
4.419703 -9.131145 -2.150062
5.123736 -10.580560 -2.212039
6.154234 -12.557692 -2.298584
7.424367 -15.137396 -2.374856
7.618159 -15.543708 -2.028864
7.583122 -15.486122 -1.618197
16.902887 -34.423210 -2.710441
0.001788 -0.093725 -0.003245
0.001788 -0.093725 -0.003245
41.580757 -84.734444 -0.080471
0.001788 -0.093725 -0.003245
41.667488 -85.060341 4.332204
0.001788 -0.093725 -0.003245
0.001788 -0.093725 -0.003245
0.001788 -0.093725 -0.003245
0.001788 -0.093725 -0.003245
0.001788 -0.093725 -0.003245
0.001788 -0.093725 -0.003245
0.215478 -0.532523 -0.293367
0.261667 -0.627924 -0.337791
0.278022 -0.661793 -0.339894
0.294464 -0.696133 -0.340304
0.321241 -0.751893 -0.350377
0.353931 -0.819877 -0.363450
0.390318 -0.895350 -0.376282
2.259365 -4.756966 -2.031310
2.428148 -5.110089 -2.036649
2.630212 -5.530239 -2.049232
2.851806 -5.993838 -2.053793
3.118612 -6.551957 -2.065896
3.442537 -7.226319 -2.083323
3.845444 -8.068659 -2.108551
4.370274 -9.165733 -2.152113
5.047819 -10.582156 -2.206047
6.081524 -12.590861 -2.298211
7.393017 -15.300220 -2.393559
7.530825 -15.590613 -2.029276
7.549171 -15.642099 -1.629948
16.905338 -34.947998 -2.743779
0.001804 -0.093440 -0.003236
0.001804 -0.093440 -0.003236
41.150425 -85.128662 -0.080341
0.001804 -0.093440 -0.003236
41.240387 -85.427971 4.339061
0.001804 -0.093440 -0.003236
0.001804 -0.093440 -0.003236
0.001804 -0.093440 -0.003236
0.001804 -0.093440 -0.003236
0.001804 -0.093440 -0.003236
0.001804 -0.093440 -0.003236
0.210638 -0.528863 -0.290292
0.258497 -0.629183 -0.337781
0.274631 -0.663164 -0.339883
0.290099 -0.695985 -0.339395
0.318102 -0.755141 -0.351223
0.352095 -0.826574 -0.365884
0.387951 -0.902356 -0.378587
2.239672 -4.786826 -2.038576
2.402467 -5.130489 -2.039366
2.596271 -5.542060 -2.047922
2.820844 -6.019001 -2.056752
3.083864 -6.574731 -2.067525
3.399327 -7.244600 -2.082784
3.801976 -8.095660 -2.109906
4.321326 -9.197538 -2.153746
4.987349 -10.610774 -2.206006
6.006433 -12.624666 -2.297838
7.376367 -15.490488 -2.416739
7.493666 -15.749393 -2.044168
7.507490 -15.792319 -1.640949
16.768963 -35.179447 -2.754249
38.384888 -80.483841 -4.230193
0.001798 -0.093175 -0.003227
40.715446 -85.479347 -0.080176
0.001798 -0.093175 -0.003227
40.808372 -85.827644 4.347295
0.001798 -0.093175 -0.003227
0.001798 -0.093175 -0.003227
0.001798 -0.093175 -0.003227
0.001798 -0.093175 -0.003227
0.001798 -0.093175 -0.003227
0.001798 -0.093175 -0.003227
0.202990 -0.518903 -0.283131
0.253156 -0.625668 -0.334827
0.268342 -0.658062 -0.336110
0.286609 -0.697376 -0.339384
0.315171 -0.758261 -0.352069
0.343187 -0.818402 -0.360983
0.380928 -0.899289 -0.376259
0.455685 -1.058733 -0.420928
2.371025 -5.138865 -2.037285
2.565825 -5.556187 -2.047896
2.790976 -6.041286 -2.059114
3.048116 -6.595594 -2.068602
3.357704 -7.259694 -2.081737
3.755829 -8.117154 -2.109872
4.272110 -9.224780 -2.154544
4.943550 -10.670213 -2.212659
5.942628 -12.676601 -2.301049
7.329021 -15.620179 -2.430401
7.457637 -15.906980 -2.059059
7.475569 -15.959278 -1.653822
16.662775 -35.479076 -2.770080
0.001791 -0.092909 -0.003218
0.001791 -0.092909 -0.003218
40.295643 -85.865837 -0.080043
0.001791 -0.092909 -0.003218
40.409893 -86.225586 4.356263
0.001791 -0.092909 -0.003218
0.001791 -0.092909 -0.003218
0.001791 -0.092909 -0.003218
0.001791 -0.092909 -0.003218
0.001791 -0.092909 -0.003218
0.001791 -0.092909 -0.003218
0.191889 -0.501052 -0.270861
0.246501 -0.618894 -0.329910
0.266671 -0.662472 -0.337980
0.280974 -0.693824 -0.336676
0.312848 -0.763071 -0.353772
0.342858 -0.828362 -0.365046
0.372522 -0.892769 -0.372385
0.450884 -1.062762 -0.421645
2.343513 -5.155566 -2.038631
2.537500 -5.577478 -2.050437
2.755067 -6.053528 -2.057892
3.010620 -6.612767 -2.068573
3.318032 -7.282129 -2.082722
3.712847 -8.145425 -2.111689
4.220324 -9.255014 -2.155758
4.871694 -10.679437 -2.208526
5.873969 -12.712876 -2.301653
7.293799 -15.778553 -2.448541
7.337467 -15.879621 -2.050126
0.001784 -0.092644 -0.003209
16.724113 -36.146004 -2.814557
0.001784 -0.092644 -0.003209
0.001784 -0.092644 -0.003209
39.871876 -86.248528 -0.079905
0.001784 -0.092644 -0.003209
39.957962 -86.552551 4.361391
39.131966 -84.842583 6.448498
0.001784 -0.092644 -0.003209
0.001784 -0.092644 -0.003209
0.001784 -0.092644 -0.003209
0.001784 -0.092644 -0.003209
0.001784 -0.092644 -0.003209
0.181570 -0.484719 -0.259614
0.247729 -0.629572 -0.335786
0.264003 -0.665382 -0.338910
0.284094 -0.709821 -0.344755
0.309606 -0.766284 -0.354618
0.340747 -0.835098 -0.367479
0.370829 -0.901401 -0.375463
0.438944 -1.051580 -0.415801
2.314208 -5.170822 -2.039292
2.506490 -5.595610 -2.051695
2.720463 -6.071220 -2.058462
2.971897 -6.630233 -2.068543
3.280915 -7.313749 -2.086247
3.665006 -8.167042 -2.111655
4.168324 -9.284960 -2.156973
4.807209 -10.704282 -2.207740
5.806399 -12.763374 -2.304537
7.232773 -15.891495 -2.459400
7.391618 -16.245914 -2.091874
7.397549 -16.273729 -1.677504
16.509188 -36.242466 -2.814294
0.001776 -0.092377 -0.003199
0.001776 -0.092377 -0.003199
39.417515 -86.608734 -0.079739
0.001776 -0.092377 -0.003199
39.514076 -86.940430 4.369361
0.001776 -0.092377 -0.003199
0.001776 -0.092377 -0.003199
0.001776 -0.092377 -0.003199
0.001776 -0.092377 -0.003199
0.001776 -0.092377 -0.003199
0.001776 -0.092377 -0.003199
0.181431 -0.490171 -0.262668
0.244621 -0.630711 -0.335775
0.263602 -0.673041 -0.342660
0.275386 -0.699765 -0.338451
0.301283 -0.757876 -0.349463
0.335098 -0.833373 -0.365838
0.363891 -0.898193 -0.373134
0.426556 -1.038510 -0.409228
2.284279 -5.179958 -2.037895
2.475531 -5.611403 -2.052310
2.685214 -6.084763 -2.057836
2.937730 -6.651691 -2.070171
3.237708 -7.328705 -2.085198
3.617488 -8.181771 -2.110232
4.116948 -9.307806 -2.156934
4.751897 -10.739649 -2.209556
5.739052 -12.808897 -2.306768
7.134723 -15.909670 -2.455981
7.341762 -16.383894 -2.104191
7.358238 -16.435595 -1.689810
16.623127 -37.036045 -2.868641
0.001765 -0.092107 -0.003190
0.001765 -0.092107 -0.003190
0.001765 -0.092107 -0.003190
0.001765 -0.092107 -0.003190
0.001765 -0.092107 -0.003190
38.317028 -85.650948 6.476633
0.001765 -0.092107 -0.003190
0.001765 -0.092107 -0.003190
0.001765 -0.092107 -0.003190
0.001765 -0.092107 -0.003190
0.001765 -0.092107 -0.003190
0.001758 -0.091842 -0.003181
0.241531 -0.631821 -0.335764
0.257378 -0.667823 -0.338888
0.278394 -0.715766 -0.346530
0.301105 -0.767578 -0.353738
0.328607 -0.829998 -0.363382
0.357020 -0.894922 -0.370806
0.418828 -1.035569 -0.407029
2.253442 -5.189306 -2.036500
2.444481 -5.627022 -2.052925
2.649128 -6.096358 -2.056613
2.899912 -6.668225 -2.070141
3.197555 -7.350493 -2.086182
3.571662 -8.203954 -2.110660
4.058332 -9.318536 -2.153974
4.692904 -10.771948 -2.210629
5.669761 -12.850468 -2.308348
7.048368 -15.961071 -2.457603
7.301844 -16.547253 -2.119778
7.314869 -16.592094 -1.701554
16.372232 -37.045113 -2.861883
30.040417 -67.962074 -3.523845
0.001758 -0.091842 -0.003181
14.768879 -33.503998 -0.032380
37.674007 -85.409370 2.087564
0.001758 -0.091842 -0.003181
0.001758 -0.091842 -0.003181
0.001758 -0.091842 -0.003181
0.001758 -0.091842 -0.003181
0.001758 -0.091842 -0.003181
0.001758 -0.091842 -0.003181
0.001758 -0.091842 -0.003181
0.001751 -0.091576 -0.003172
0.237018 -0.629730 -0.333791
0.252639 -0.665786 -0.336996
0.276240 -0.720343 -0.348316
0.297202 -0.769027 -0.353726
0.325789 -0.834961 -0.365000
0.353099 -0.898397 -0.371566
0.411162 -1.032559 -0.404830
2.224046 -5.201930 -2.036474
2.409557 -5.633779 -2.050331
2.615287 -6.112978 -2.057182
2.863525 -6.688073 -2.071217
3.158799 -7.375601 -2.088182
3.526448 -8.227680 -2.111550
4.009809 -9.352245 -2.156440
4.632904 -10.802122 -2.211330
5.597827 -12.886222 -2.308950
6.950561 -15.986591 -2.455304
7.261847 -16.714346 -2.135831
7.277105 -16.765057 -1.714983
16.211914 -37.259148 -2.871070
0.001751 -0.091576 -0.003172
0.001751 -0.091576 -0.003172
14.850827 -34.219036 -0.032813
14.419952 -33.260254 0.807700
0.001751 -0.091576 -0.003172
14.051891 -32.459476 2.436016
0.001751 -0.091576 -0.003172
0.001751 -0.091576 -0.003172
0.001751 -0.091576 -0.003172
0.001751 -0.091576 -0.003172
0.001751 -0.091576 -0.003172
0.001744 -0.091311 -0.003163
0.231141 -0.624416 -0.329856
0.250732 -0.670185 -0.338866
0.263440 -0.700308 -0.336621
0.294012 -0.772105 -0.354572
0.319209 -0.831569 -0.362544
0.344827 -0.891647 -0.367693
0.402063 -1.026078 -0.401173
2.193699 -5.214756 -2.036448
2.377619 -5.647278 -2.050304
2.582818 -6.132934 -2.058946
2.823600 -6.702894 -2.070634
3.118325 -7.396956 -2.089166
3.478883 -8.249977 -2.111977
3.956344 -9.379191 -2.157236
4.572387 -10.836364 -2.212774
5.522511 -12.914345 -2.308249
6.846801 -16.005417 -2.451885
7.215483 -16.870554 -2.150481
7.233682 -16.928961 -1.727475
18.374126 -42.907600 -3.298322
0.001744 -0.091311 -0.003163
0.001744 -0.091311 -0.003163
14.288507 -33.465969 -0.031969
31.425116 -73.533073 1.788044
0.001744 -0.091311 -0.003163
0.001744 -0.091311 -0.003163
0.001744 -0.091311 -0.003163
0.001744 -0.091311 -0.003163
0.001744 -0.091311 -0.003163
0.001744 -0.091311 -0.003163
0.001744 -0.091311 -0.003163
0.001761 -0.091026 -0.003154
0.232052 -0.635128 -0.335732
0.249351 -0.676266 -0.341676
0.266064 -0.716405 -0.344699
0.289260 -0.771896 -0.353704
0.315642 -0.834805 -0.363347
0.340781 -0.895106 -0.368454
0.395063 -1.024734 -0.399703
2.163440 -5.225294 -2.035738
2.345361 -5.662754 -2.050919
2.550642 -6.156668 -2.061903
2.787717 -6.724089 -2.072262
3.073459 -7.411469 -2.088117
3.432628 -8.271379 -2.112405
3.902048 -9.399742 -2.156780
4.511220 -10.864044 -2.213102
5.447902 -12.950234 -2.308850
6.758165 -16.051596 -2.452945
7.182391 -17.070103 -2.170501
7.186378 -17.096033 -1.740152
18.021053 -42.760593 -3.278846
0.001761 -0.091026 -0.003154
0.001761 -0.091026 -0.003154
14.157522 -33.692982 -0.031978
14.019006 -33.396416 0.807213
31.484007 -74.966393 3.720341
0.001761 -0.091026 -0.003154
0.001761 -0.091026 -0.003154
0.001761 -0.091026 -0.003154
0.001761 -0.091026 -0.003154
0.001761 -0.091026 -0.003154
0.001761 -0.091026 -0.003154
0.001754 -0.090760 -0.003144
0.226898 -0.631352 -0.332778
0.241895 -0.667643 -0.336023
0.259039 -0.709389 -0.340194
0.284637 -0.771605 -0.352835
0.310658 -0.834641 -0.362521
0.336134 -0.896783 -0.368442
0.386830 -1.019831 -0.396775
2.133844 -5.237391 -2.035712
2.313962 -5.677647 -2.051534
2.516400 -6.172748 -2.062472
2.749483 -6.739756 -2.072232
3.034943 -7.437719 -2.090624
3.387688 -8.296140 -2.113757
3.849160 -9.423573 -2.157158
4.449133 -10.889561 -2.213058
5.370772 -12.973812 -2.307497
6.668478 -16.095434 -2.453724
7.120393 -17.197096 -2.181413
7.145723 -17.274729 -1.754139
18.045414 -43.513660 -3.328503
0.001754 -0.090760 -0.003144
14.073677 -34.021950 -0.884932
14.434894 -34.909878 -0.032829
13.846980 -33.524300 0.808496
30.613405 -74.084526 3.667925
0.001754 -0.090760 -0.003144
0.001754 -0.090760 -0.003144
0.001754 -0.090760 -0.003144
0.001754 -0.090760 -0.003144
0.001754 -0.090760 -0.003144
0.001754 -0.090760 -0.003144
0.001747 -0.090495 -0.003135
0.221129 -0.625927 -0.328842
0.240571 -0.673649 -0.338832
0.260196 -0.722175 -0.346474
0.280002 -0.771299 -0.351967
0.307057 -0.837831 -0.363324
0.331496 -0.898418 -0.368430
0.376542 -1.009698 -0.391660
2.104191 -5.249308 -2.035686
2.280342 -5.687085 -2.050223
2.484230 -6.193927 -2.064832
2.712619 -6.758755 -2.073307
2.992615 -7.454783 -2.090591
3.340402 -8.315228 -2.113721
3.793157 -9.439875 -2.155866
4.385414 -10.911086 -2.212270
5.302500 -13.018858 -2.310052
6.573241 -16.125954 -2.452543
7.104599 -17.439728 -2.207035
7.098719 -17.442461 -1.767002
13.054297 -32.019444 -2.442381
0.001747 -0.090495 -0.003135
13.038265 -32.043488 -0.831448
13.044065 -32.073444 -0.030234
13.044034 -32.105118 0.772327
13.070751 -32.202503 1.586392
13.080886 -32.243244 2.396742
0.001747 -0.090495 -0.003135
0.001747 -0.090495 -0.003135
0.001747 -0.090495 -0.003135
0.001747 -0.090495 -0.003135
0.001747 -0.090495 -0.003135
