# This PCD file was generated using the MATLAB® pcwrite function
# from Computer Vision Toolbox®.
# .PCD v.7 - Point Cloud Data file format
VERSION .7
FIELDS x y z
SIZE 4 4 4
TYPE F F F
COUNT 1 1 1
WIDTH 1601
HEIGHT 1
VIEWPOINT 0 0 0 1 0 0 0
POINTS 1601
DATA ascii
-3.070035 -2.148214 -0.001333
-3.089708 -2.160188 0.085846
-3.252384 -2.270814 0.182943
-3.228668 -2.253588 0.272942
-3.474222 -2.421137 0.392324
-2.753246 -1.922786 0.389644
-2.941485 -2.050886 0.500529
-2.918450 -2.034255 0.580685
-2.981671 -2.076185 0.680399
-0.496372 -0.366730 -0.358272
-2.738503 -1.902571 -1.866616
-2.741788 -1.904086 -1.768400
-2.792030 -1.937030 -1.700072
-2.931616 -2.031766 -1.682695
-3.116100 -2.156333 -1.681962
-3.268629 -2.258884 -1.654799
-3.512379 -2.424430 -1.662178
-3.766164 -2.595733 -1.660839
-4.027542 -2.772979 -1.648692
-4.319584 -2.969887 -1.632545
-4.571630 -3.139258 -1.587413
-5.030070 -3.450080 -1.594368
-5.479101 -3.752860 -1.571547
-5.966272 -4.082617 -1.535018
-6.538551 -4.468290 -1.490852
-7.286780 -5.019393 -1.452818
-8.195855 -5.640126 -1.397741
-9.745486 -6.696455 -1.380598
-9.894918 -6.793571 -1.120054
-10.814186 -7.419395 -0.917720
-10.338227 -7.088626 -0.585534
0.000181 -0.026275 -0.001184
-3.089152 -2.134227 -0.001326
-3.107239 -2.144951 0.085992
-3.260276 -2.248431 0.182670
-3.217085 -2.217322 0.270857
-3.828690 -2.632829 0.430772
-2.839660 -1.958059 0.400333
-2.918690 -2.010301 0.494693
-2.990360 -2.058228 0.592686
-2.998287 -2.062056 0.681517
-0.513921 -0.374307 -0.369484
-2.727285 -1.872356 -1.851912
-2.727360 -1.871682 -1.752429
-2.811542 -1.927184 -1.705449
-2.944600 -2.015621 -1.683543
-3.123396 -2.135595 -1.679515
-3.276428 -2.237251 -1.652479
-3.526119 -2.403928 -1.662171
-3.769512 -2.567062 -1.656044
-4.025996 -2.737868 -1.641642
-4.344357 -2.950055 -1.635519
-4.625622 -3.138139 -1.600088
-5.046464 -3.418666 -1.593351
-5.499798 -3.721979 -1.571543
-5.974892 -4.038157 -1.531271
-6.550935 -4.421582 -1.487886
-7.340645 -4.996102 -1.458005
-8.212276 -5.584072 -1.395235
-9.741398 -6.613912 -1.374799
-9.807125 -6.653286 -1.105930
0.000189 -0.026016 -0.001173
-10.384075 -7.035059 -0.585909
-10.506134 -7.112018 -0.295886
-3.079318 -2.102185 -0.001318
-3.150538 -2.148574 0.086880
-3.253122 -2.216002 0.181560
-3.259052 -2.219140 0.273374
-2.870269 -1.956049 0.321398
-2.913382 -1.983534 0.409165
-2.883663 -1.962813 0.486909
-2.964311 -2.015448 0.585238
-3.052378 -2.072975 0.691150
-0.518786 -0.373008 -0.371514
-2.732073 -1.852507 -1.847985
-2.723257 -1.845893 -1.743031
0.000198 -0.025758 -0.001162
-2.954489 -1.997384 -1.682680
-3.132801 -2.114758 -1.677881
-3.299842 -2.225271 -1.657868
-3.502535 -2.358568 -1.644703
-3.773570 -2.537138 -1.651249
-4.019449 -2.699717 -1.632672
-4.353168 -2.919480 -1.632534
-4.645585 -3.111471 -1.600635
-5.056234 -3.382906 -1.590307
-5.513498 -3.683677 -1.569233
-5.983902 -3.992693 -1.527525
-6.562135 -4.372657 -1.484550
-7.321567 -4.921740 -1.448598
-8.223679 -5.520745 -1.391615
-9.713057 -6.513374 -1.365519
-9.744046 -6.529071 -1.094594
0.000198 -0.025758 -0.001162
0.000198 -0.025758 -0.001162
-10.555035 -7.056746 -0.296121
-3.224754 -2.172291 -0.001317
-3.114402 -2.098028 0.085543
-3.259024 -2.192583 0.181195
0.000198 -0.025758 -0.001162
0.000198 -0.025758 -0.001162
-2.830255 -1.903894 0.395936
-2.909949 -1.955286 0.489421
-3.091200 -2.073880 0.607937
-3.064110 -2.055135 0.691158
-0.502169 -0.357343 -0.358240
0.000180 -0.025516 -0.001150
0.000180 -0.025516 -0.001150
-2.818633 -1.883861 -1.696459
-2.962755 -1.978101 -1.680961
-3.138666 -2.092425 -1.674619
-3.308207 -2.202380 -1.655548
-3.523677 -2.343240 -1.648334
-3.789526 -2.516163 -1.651926
-4.017335 -2.664840 -1.625622
-4.337823 -2.873179 -1.620612
-4.668081 -3.087600 -1.602283
-5.073834 -3.352437 -1.589795
-5.523054 -3.644177 -1.566000
-5.989567 -3.948276 -1.523362
-6.563253 -4.320658 -1.479361
-7.365263 -4.887774 -1.451515
-8.238629 -5.462187 -1.388830
-9.689985 -6.414979 -1.356935
-9.779087 -6.468752 -1.094224
-10.740223 -7.099234 -0.900977
-10.600410 -7.001759 -0.593467
-10.394859 -6.863797 -0.290543
-3.111717 -2.071067 -0.001303
-3.135007 -2.084782 0.085782
-7.267846 -4.797456 0.403953
-7.579987 -4.998546 0.632421
-2.972217 -1.974813 0.330326
-2.807769 -1.865543 0.391300
-2.954146 -1.959965 0.494994
-3.074511 -2.037986 0.602433
-3.417863 -2.260985 0.768171
-0.496819 -0.349586 -0.353128
-2.712011 -1.793766 -1.820536
0.000188 -0.025257 -0.001139
-2.813992 -1.858106 -1.687476
-2.972436 -1.959789 -1.680097
-3.139785 -2.067106 -1.668917
-3.318759 -2.182633 -1.654770
-3.507289 -2.303407 -1.634503
-3.772269 -2.473605 -1.638237
-4.045177 -2.649684 -1.630738
-4.344519 -2.841687 -1.617031
-4.669483 -3.049986 -1.596764
-5.081536 -3.315587 -1.586244
-5.522559 -3.598359 -1.559999
-6.004505 -3.907143 -1.521279
-6.580352 -4.276100 -1.477506
-7.398884 -4.850673 -1.452810
-8.246540 -5.399312 -1.384930
-9.665557 -6.321542 -1.348582
-9.728100 -6.357367 -1.084559
-10.705488 -6.988139 -0.894697
-10.518559 -6.863861 -0.586754
-10.462540 -6.822158 -0.291335
-3.111677 -2.045247 -0.001295
-3.260481 -2.141004 0.088940
-5.672486 -3.703221 0.313852
-5.607526 -3.658277 0.465807
-2.988749 -1.960167 0.330892
-2.794960 -1.834000 0.388057
-2.981853 -1.953439 0.497784
-3.182545 -2.081603 0.621242
-3.146708 -2.057645 0.704501
-0.508854 -0.352900 -0.360259
-2.706326 -1.767027 -1.809751
-2.708543 -1.767757 -1.713898
-2.818792 -1.837270 -1.683878
-2.967117 -1.931130 -1.670676
-3.165310 -2.057634 -1.676231
-3.319049 -2.154685 -1.648595
-3.534830 -2.291358 -1.641044
-3.770466 -2.441464 -1.631389
-4.071817 -2.632548 -1.635214
-4.356316 -2.812547 -1.615237
-4.696537 -3.029043 -1.600066
-5.087892 -3.276807 -1.582186
-5.538090 -3.563121 -1.558611
-6.016844 -3.865963 -1.518779
-6.589783 -4.228407 -1.474169
-7.377575 -4.774432 -1.443078
-8.263987 -5.342950 -1.382702
-9.647568 -6.228433 -1.340925
-9.738649 -6.282114 -1.081586
0.000170 -0.025015 -0.001127
-10.555565 -6.798998 -0.586569
-10.632239 -6.842878 -0.294918
-3.210819 -2.083194 -0.001292
-3.239303 -2.099829 0.088021
-3.294598 -2.133597 0.181123
-2.971206 -1.925879 0.245378
-2.996460 -1.940535 0.330528
-2.864233 -1.854582 0.396192
-2.887726 -1.868853 0.480262
-3.057870 -1.975959 0.594669
-3.160353 -2.039761 0.704879
-0.522358 -0.357107 -0.368410
-2.703046 -1.742745 -1.800925
-2.714044 -1.749041 -1.711073
-2.821612 -1.815966 -1.679383
-2.987198 -1.919585 -1.675803
-3.156889 -2.026413 -1.665647
-3.342168 -2.142217 -1.653984
-3.530494 -2.259767 -1.633034
-3.771595 -2.411434 -1.625909
-4.077160 -2.602760 -1.631366
-4.370672 -2.786166 -1.614635
-4.716992 -3.003771 -1.601163
-5.090159 -3.236907 -1.577115
-5.548485 -3.524724 -1.555839
-6.023957 -3.821651 -1.515031
-6.587248 -4.173416 -1.468239
-7.349825 -4.696728 -1.432372
-8.279397 -5.285507 -1.380194
-9.615991 -6.129974 -1.331644
-9.608013 -6.120128 -1.063185
-10.736018 -6.833013 -0.890651
-10.714163 -6.813826 -0.593191
-10.635806 -6.758889 -0.293942
-3.219213 -2.062289 -0.001285
-3.227520 -2.065943 0.087380
0.000178 -0.024756 -0.001116
-2.793172 -1.789171 0.229770
-3.012480 -1.926202 0.331093
-2.896545 -1.851591 0.399219
-2.886573 -1.844578 0.478322
-3.035665 -1.937060 0.588194
-3.281660 -2.090387 0.729320
-0.524263 -0.353839 -0.368399
-2.701069 -1.719488 -1.793078
-2.711953 -1.725632 -1.703552
-2.843990 -1.807036 -1.686554
-2.996521 -1.901148 -1.674939
-3.162504 -2.003527 -1.662385
-3.351165 -2.120735 -1.652434
-3.548033 -2.242120 -1.635209
-3.796839 -2.395746 -1.630691
-4.098356 -2.583015 -1.633920
-4.368652 -2.749592 -1.608074
-4.714983 -2.963291 -1.594541
-5.106904 -3.206283 -1.576602
-5.562520 -3.487398 -1.553989
-6.041351 -3.782505 -1.513779
-6.615052 -4.136107 -1.468976
-7.376567 -4.654101 -1.432369
-8.291983 -5.224511 -1.377129
-9.598794 -6.041602 -1.324449
-9.585541 -6.028560 -1.056864
-10.776179 -6.769001 -0.890652
-10.526087 -6.609838 -0.580695
-10.643845 -6.678257 -0.293105
-3.268555 -2.066226 -0.001279
-3.023832 -1.912609 0.081504
-3.137280 -1.981898 0.171180
-2.729102 -1.725900 0.223644
-3.020319 -1.905952 0.330730
-2.896899 -1.828348 0.397834
-3.048645 -1.921333 0.503374
-3.050299 -1.920861 0.588850
-10.443419 -6.514265 2.314957
-0.514516 -0.343225 -0.360226
-2.691801 -1.691259 -1.780333
-2.719003 -1.707421 -1.701665
-2.843866 -1.783310 -1.680264
-3.013417 -1.887425 -1.678354
-3.173855 -1.985055 -1.662377
-3.343130 -2.087985 -1.642405
-3.555983 -2.218485 -1.633019
-3.799220 -2.366706 -1.625895
-4.077512 -2.537263 -1.619826
-4.411896 -2.741179 -1.618197
-4.731829 -2.935874 -1.594534
-5.088873 -3.154299 -1.565451
-5.570744 -3.447952 -1.550755
-6.047235 -3.739285 -1.510030
-6.637900 -4.098898 -1.468971
-7.408925 -4.613169 -1.433339
-8.306604 -5.167086 -1.374621
-9.566706 -5.942539 -1.315167
-9.575233 -5.943120 -1.051845
-10.785935 -6.688809 -0.888279
-10.359235 -6.420083 -0.569411
-10.569654 -6.547366 -0.290035
-3.256431 -2.032452 -0.001269
-2.495332 -1.561892 0.066826
-2.377903 -1.488948 0.129025
-2.713342 -1.694222 0.221562
-2.971409 -1.852306 0.324239
-2.863232 -1.784360 0.391805
-2.965018 -1.845478 0.487799
-3.180243 -1.976881 0.611873
-3.615138 -2.242120 0.797826
-0.514822 -0.339199 -0.359195
-2.690661 -1.669602 -1.773466
-2.716290 -1.684597 -1.694144
-2.856691 -1.769029 -1.682050
-3.019473 -1.866984 -1.675778
-3.200336 -1.976574 -1.670504
-3.353012 -2.068084 -1.641626
-3.536726 -2.178350 -1.618460
-3.828275 -2.354987 -1.632728
-4.095139 -2.515477 -1.621099
-4.420929 -2.711529 -1.615807
-4.744699 -2.907173 -1.593425
-5.095225 -3.117691 -1.561899
-5.584778 -3.413549 -1.549365
-6.063498 -3.701143 -1.508777
-6.657878 -4.058361 -1.468226
-7.449548 -4.580774 -1.436254
-8.319965 -5.111125 -1.372112
-9.540234 -5.852576 -1.307043
-9.524818 -5.838523 -1.042735
-10.770158 -6.596078 -0.883950
-10.483467 -6.416041 -0.574259
-10.566028 -6.461241 -0.288918
-3.270976 -2.016068 -0.001261
-2.548297 -1.574732 0.068039
0.000175 -0.023995 -0.001082
-2.731140 -1.683991 0.222267
-2.925712 -1.800825 0.318119
-2.961621 -1.821193 0.403888
-2.907384 -1.787567 0.476678
-3.252190 -1.995132 0.623551
0.000175 -0.023995 -0.001082
-0.522509 -0.339530 -0.363265
-2.688127 -1.646619 -1.765619
-2.730330 -1.671419 -1.696953
-2.874339 -1.756925 -1.686529
-3.040866 -1.855858 -1.681760
-3.207153 -1.954483 -1.668056
-3.364715 -2.048503 -1.641618
-3.588989 -2.181719 -1.636641
-3.837209 -2.329107 -1.630669
-4.070433 -2.468218 -1.605724
-4.411756 -2.671057 -1.606862
-4.769968 -2.883698 -1.596175
-5.127872 -3.097022 -1.566452
-5.569692 -3.359121 -1.539674
-6.076772 -3.659846 -1.506693
-6.664806 -4.008485 -1.464517
-7.492537 -4.547791 -1.439493
-8.332991 -5.051219 -1.369325
-9.514078 -5.761447 -1.298920
-9.510359 -5.754607 -1.037528
-10.520064 -6.357953 -0.860357
-10.559432 -6.379067 -0.576403
-10.772505 -6.502105 -0.293522
0.000182 -0.023736 -0.001071
0.000182 -0.023736 -0.001071
-2.389466 -1.457907 0.128764
-2.742664 -1.668561 0.222415
-3.004514 -1.824138 0.325555
-3.007692 -1.825306 0.408773
-2.912700 -1.767009 0.475852
-3.058850 -1.853002 0.584337
-3.387362 -2.048619 0.742310
-0.522890 -0.335287 -0.362234
-2.685732 -1.623272 -1.757772
-2.738547 -1.654056 -1.696005
-2.883039 -1.738694 -1.685623
-3.039242 -1.830155 -1.674906
-3.205650 -1.928284 -1.661539
-3.363961 -2.020729 -1.635442
-3.596917 -2.157306 -1.634450
-3.840706 -2.300984 -1.626556
-4.081588 -2.441858 -1.604436
-4.407675 -2.632946 -1.599705
-4.764814 -2.843211 -1.589001
-5.132683 -3.058445 -1.562393
-5.553614 -3.305980 -1.529983
-6.080761 -3.614635 -1.502528
-6.668991 -3.958829 -1.460438
-7.512453 -4.499017 -1.438192
-8.351578 -4.996873 -1.367651
-9.484752 -5.667113 -1.290332
-9.482530 -5.661242 -1.030835
-10.626646 -6.338864 -0.866079
-10.796167 -6.434432 -0.587221
-10.741939 -6.397082 -0.291661
-10.893929 -6.484614 -0.001674
-3.077107 -1.847103 0.081815
-2.513115 -1.511674 0.135008
-2.760647 -1.657572 0.223121
-2.817709 -1.689999 0.304209
-3.038837 -1.819321 0.411568
-2.878339 -1.723780 0.468626
0.000165 -0.023494 -0.001059
0.000165 -0.023494 -0.001059
-0.529130 -0.334641 -0.365284
-2.676846 -1.596929 -1.746006
-2.746359 -1.637122 -1.695057
-2.883612 -1.716392 -1.680229
-3.043344 -1.808720 -1.671474
-3.219702 -1.911399 -1.663157
-3.364257 -1.994562 -1.630037
-3.617162 -2.141019 -1.638080
-3.834281 -2.267203 -1.618339
-4.088886 -2.414254 -1.601867
-4.407784 -2.598627 -1.594335
-4.746099 -2.795140 -1.577415
-5.138366 -3.021789 -1.558840
-5.595944 -3.287453 -1.536433
-6.086106 -3.570473 -1.498779
-6.674543 -3.910259 -1.456728
-7.538057 -4.455458 -1.438188
-8.366392 -4.940467 -1.365419
-9.491365 -5.597114 -1.286849
-9.492481 -5.593244 -1.028416
-10.891702 -6.411634 -0.884646
-10.770817 -6.335601 -0.583862
-10.759438 -6.323811 -0.291148
-11.845735 -6.957063 -0.001725
-11.738000 -6.888420 0.313993
-2.476779 -1.470726 0.132598
-2.683871 -1.591099 0.216159
-2.653549 -1.572127 0.285464
-3.040555 -1.796567 0.410415
-2.934272 -1.733875 0.476147
-2.801727 -1.655278 0.531519
-2.816264 -1.662408 0.612754
-0.523469 -0.327013 -0.360172
-2.672290 -1.573375 -1.737180
-2.752538 -1.619264 -1.693170
-2.893312 -1.699523 -1.680220
-3.044182 -1.785495 -1.666331
-3.224185 -1.888925 -1.659895
-3.372341 -1.973064 -1.628487
-3.624442 -2.117120 -1.635890
-3.866647 -2.256123 -1.626540
-4.091087 -2.383806 -1.597377
-4.452279 -2.590122 -1.605053
-4.733659 -2.751221 -1.568034
-5.160548 -2.994810 -1.560353
-5.619691 -3.257863 -1.537811
-6.082674 -3.521493 -1.492949
-6.689965 -3.867616 -1.455241
-7.498571 -4.374131 -1.425858
-8.379119 -4.883055 -1.362910
0.000180 -0.022976 -0.001036
-9.489912 -5.518343 -1.024695
0.000180 -0.022976 -0.001036
-10.960872 -6.362307 -0.592161
-10.558335 -6.124507 -0.284772
-11.961623 -6.932570 -0.001729
0.000180 -0.022976 -0.001036
-2.583719 -1.513095 0.137912
-2.706687 -1.583364 0.217284
-2.548540 -1.490996 0.273218
-3.055863 -1.781761 0.411121
-3.217028 -1.873743 0.520397
-11.362851 -6.554437 2.151585
-2.873348 -1.673322 0.623128
-0.535655 -0.329728 -0.367303
-2.667551 -1.549926 -1.728353
-2.763206 -1.604019 -1.694100
-2.876518 -1.667504 -1.664955
-3.046419 -1.763208 -1.662043
-3.233287 -1.869189 -1.659072
-3.402756 -1.964362 -1.637730
-3.625122 -2.089534 -1.630788
-3.871280 -2.228943 -1.623111
-4.144131 -2.382485 -1.612737
-4.466982 -2.564215 -1.605045
-4.776018 -2.738896 -1.576849
-5.145603 -2.946660 -1.550720
-5.624668 -3.217535 -1.534114
-6.109504 -3.490050 -1.494607
-6.711977 -3.828817 -1.455236
-7.537181 -4.338513 -1.428448
-8.398353 -4.829605 -1.361513
0.000164 -0.022735 -0.001025
-9.466043 -5.431792 -1.018744
0.000164 -0.022735 -0.001025
-11.135968 -6.378114 -0.599620
-10.718318 -6.134730 -0.288120
0.000164 -0.022735 -0.001025
0.000164 -0.022735 -0.001025
-2.562732 -1.481159 0.136339
0.000164 -0.022735 -0.001025
-2.570787 -1.483926 0.274713
-3.155744 -1.814903 0.423204
0.000164 -0.022735 -0.001025
-2.969676 -1.707144 0.559737
-2.980281 -1.711764 0.644239
-0.574866 -0.347561 -0.392798
-2.668711 -1.530015 -1.723444
-2.764565 -1.583495 -1.689396
-2.879719 -1.647167 -1.661356
-3.032768 -1.732087 -1.649198
-3.237505 -1.846723 -1.655809
-3.405815 -1.939961 -1.633866
-3.628826 -2.063816 -1.627142
-3.862599 -2.194396 -1.614209
-4.152673 -2.355558 -1.610808
-4.464894 -2.528883 -1.599079
-4.779830 -2.704535 -1.572982
-5.153904 -2.912026 -1.548180
-5.637872 -3.182022 -1.532724
-6.115687 -3.446939 -1.491273
-6.723469 -3.784126 -1.453007
-7.532689 -4.278336 -1.422929
-8.408632 -4.771225 -1.358724
-9.482346 -5.373157 -1.272915
-9.424133 -5.335911 -1.010933
0.000171 -0.022476 -0.001014
-10.079115 -5.698101 -0.541045
-10.331598 -5.835455 -0.276858
-10.908976 -6.157726 -0.001659
0.000171 -0.022476 -0.001014
-2.564117 -1.462231 0.135976
-2.672256 -1.522315 0.213120
-2.582616 -1.470801 0.275093
-3.098427 -1.758608 0.414157
-3.445473 -1.952245 0.553804
-2.857041 -1.621358 0.536732
-3.168342 -1.794083 0.682749
-2.702493 -1.529657 -1.836476
-2.666670 -1.508432 -1.716577
-2.767344 -1.563881 -1.685631
-2.917125 -1.645957 -1.677501
-3.050448 -1.718744 -1.653468
-3.230674 -1.817470 -1.646851
-3.426474 -1.925458 -1.638483
-3.635615 -2.039932 -1.624951
-3.888576 -2.178512 -1.619674
-4.156097 -2.325871 -1.606958
-4.450830 -2.487165 -1.588941
-4.800684 -2.678688 -1.574628
-5.177224 -2.885824 -1.550199
-5.649690 -3.144531 -1.530872
-6.132461 -3.408489 -1.490435
-6.737043 -3.739207 -1.451149
-7.505332 -4.205850 -1.413193
-8.429709 -4.717193 -1.357606
-9.415783 -5.264163 -1.259916
-9.435396 -5.270703 -1.008884
-10.403846 -5.804576 -0.833956
-10.652991 -5.940542 -0.569955
-10.184817 -5.675732 -0.272062
-2.625108 -1.478255 -0.001159
-2.993634 -1.681942 0.078293
-2.469242 -1.390085 0.130495
-2.611272 -1.467549 0.207553
-2.587685 -1.453300 0.274731
-2.983183 -1.671309 0.397448
-3.444699 -1.924823 0.551865
-3.066897 -1.714748 0.574341
-2.717272 -1.521175 0.583544
-2.688776 -1.500921 -1.821162
-2.663204 -1.485622 -1.708729
-2.768693 -1.542940 -1.680926
-2.925120 -1.627512 -1.676595
-3.049056 -1.694820 -1.647469
-3.244173 -1.800366 -1.648469
-3.437693 -1.904857 -1.638475
-3.650435 -2.020518 -1.626397
-3.876170 -2.142311 -1.609404
-4.159287 -2.296201 -1.603108
-4.466610 -2.462177 -1.589529
-4.805760 -2.645244 -1.571312
-5.174935 -2.845549 -1.544619
-5.587240 -3.067935 -1.509187
-6.139242 -3.367426 -1.487516
-6.736968 -3.690041 -1.446697
-7.491943 -4.140117 -1.406052
-8.442677 -4.660728 -1.355373
-9.396182 -5.180282 -1.253182
-9.302231 -5.124419 -0.991406
0.000161 -0.021975 -0.000991
-10.482879 -5.764738 -0.559039
-2.532251 -1.408678 -0.068176
-2.638698 -1.465752 -0.001150
-2.734984 -1.517174 0.071215
-2.501619 -1.389019 0.131807
-2.749145 -1.523013 0.217878
-2.690003 -1.490093 0.284768
-2.989140 -1.651971 0.396993
-3.556460 -1.959682 0.568011
-3.298139 -1.818178 0.615839
-2.796635 -1.543782 0.598732
-2.684876 -1.479067 -1.812991
-2.666738 -1.467996 -1.705780
-2.778700 -1.528065 -1.681856
-2.921472 -1.604113 -1.669405
-3.059939 -1.678394 -1.648315
-3.257250 -1.783717 -1.650087
-3.441663 -1.881892 -1.635382
-3.654983 -1.996333 -1.623477
-3.899513 -2.126646 -1.614184
-4.176934 -2.275420 -1.605020
-4.461672 -2.427004 -1.582966
-4.810167 -2.612670 -1.567996
-5.185494 -2.813629 -1.543091
-5.607569 -3.038307 -1.510102
-6.154359 -3.331017 -1.486677
-6.752126 -3.649355 -1.445579
-7.487052 -4.082958 -1.400856
-8.459720 -4.608588 -1.353975
-9.354936 -5.089680 -1.243895
-9.286773 -5.048504 -0.986754
-10.070374 -5.470310 -0.802254
-10.411078 -5.649882 -0.553531
-2.590967 -1.421848 -0.069516
-2.662559 -1.459314 -0.001141
0.000169 -0.021716 -0.000980
-2.621738 -1.435468 0.137773
-2.636269 -1.442101 0.208269
-3.085640 -1.683484 0.325812
-3.073399 -1.675489 0.406986
-3.474761 -1.889861 0.553274
-2.831778 -1.543534 0.527036
-2.766987 -1.507456 0.590597
-2.679585 -1.456041 -1.803798
-2.667333 -1.448260 -1.700872
-2.785749 -1.510949 -1.680907
-2.927364 -1.585327 -1.667601
-3.072888 -1.661663 -1.650017
-3.277313 -1.769279 -1.654959
-3.426243 -1.847905 -1.623037
-3.676484 -1.979624 -1.627834
-3.898651 -2.096173 -1.608702
-4.180179 -2.245022 -1.601169
-4.485982 -2.405641 -1.586533
-4.820343 -2.581145 -1.566333
-5.201943 -2.782578 -1.543083
-5.616768 -3.000205 -1.507788
-6.155414 -3.283063 -1.482095
-6.761972 -3.601389 -1.442980
-7.461558 -4.013487 -1.391767
-8.465815 -4.546913 -1.350627
0.000149 -0.021471 -0.000968
-9.320807 -4.997555 -0.987306
-10.123606 -5.421532 -0.803925
-10.626626 -5.687397 -0.563227
-10.390265 -5.556653 -0.274934
-2.686924 -1.451708 -0.001132
-2.670556 -1.442379 0.069104
-2.663590 -1.437465 0.139550
-2.686934 -1.448655 0.211624
0.000149 -0.021471 -0.000968
-2.974360 -1.599282 0.392600
-3.025529 -1.625050 0.480106
0.000149 -0.021471 -0.000968
-5.351874 -2.854336 1.139609
-2.666744 -1.428634 -1.789505
-2.671118 -1.429728 -1.697923
-2.794541 -1.494163 -1.680897
-2.938171 -1.568527 -1.668489
-3.077780 -1.640653 -1.647440
-3.288946 -1.751000 -1.655764
-3.427217 -1.822164 -1.618402
-3.676477 -1.951475 -1.622732
-3.903880 -2.069969 -1.605956
-4.189922 -2.218184 -1.599880
-4.489878 -2.373431 -1.582949
-4.831599 -2.551344 -1.565222
-5.218226 -2.751446 -1.543075
-5.640712 -2.971197 -1.509625
-6.158484 -3.239199 -1.478343
-6.761556 -3.551263 -1.438527
-7.472884 -3.962501 -1.389490
-8.472432 -4.487721 -1.347559
-9.283444 -4.911064 -1.226711
-9.269082 -4.899309 -0.978749
-10.239251 -5.407530 -0.810622
-10.357616 -5.465119 -0.547273
0.000157 -0.021212 -0.000957
-2.670320 -1.422964 -0.001121
-2.744467 -1.460647 0.070827
-2.643628 -1.406567 0.138071
-2.751651 -1.462543 0.216095
-3.313331 -1.755245 0.347740
-3.017104 -1.598860 0.397021
-2.980290 -1.578929 0.471490
-3.710321 -1.958806 0.686528
-2.756527 -1.459498 0.584693
-2.656484 -1.403481 -1.777252
-2.669885 -1.409247 -1.692034
-2.804528 -1.478614 -1.681827
-2.947043 -1.551353 -1.668479
-3.085443 -1.621831 -1.646575
-3.282602 -1.723368 -1.647619
-3.437512 -1.802155 -1.618393
-3.670984 -1.921477 -1.615447
-3.917276 -2.048088 -1.606631
-4.194077 -2.189437 -1.596669
-4.494864 -2.342932 -1.579961
-4.839244 -2.519726 -1.563008
-5.228695 -2.718468 -1.541547
-5.662765 -2.941109 -1.511001
-6.154294 -3.191818 -1.472928
-6.767776 -3.504861 -1.435557
-7.460398 -3.900967 -1.382997
-8.478662 -4.428607 -1.344489
-9.279672 -4.840832 -1.222528
-9.307577 -4.851145 -0.979859
-10.298423 -5.362997 -0.812850
-10.422464 -5.422660 -0.549039
-10.214500 -5.310292 -0.268642
-2.669454 -1.402727 -0.001111
-2.695863 -1.415188 0.069355
-2.642687 -1.386502 0.137616
-2.775850 -1.454677 0.217359
-3.298475 -1.723117 0.345150
-2.999646 -1.567573 0.393548
-3.040260 -1.587819 0.479569
-5.683093 -2.947246 1.048916
-2.790979 -1.456857 0.590256
-2.649085 -1.380064 -1.767039
-2.682493 -1.396001 -1.694964
-2.814445 -1.463006 -1.682756
-2.936702 -1.524339 -1.657699
-3.084931 -1.598848 -1.641431
-3.272838 -1.694228 -1.637846
-3.457565 -1.787133 -1.623009
-3.670237 -1.894138 -1.610345
-3.913808 -2.017578 -1.600465
-4.184537 -2.153830 -1.588336
-4.497948 -2.311584 -1.576377
-4.838129 -2.483743 -1.558037
-5.245835 -2.688954 -1.542045
-5.677736 -2.907348 -1.510531
-6.149747 -3.144580 -1.467513
-6.798224 -3.470951 -1.437771
-7.433427 -3.832519 -1.373908
-8.493302 -4.374084 -1.342812
-9.280734 -4.773540 -1.219041
-9.234179 -4.745576 -0.969257
-10.140680 -5.207105 -0.798045
-10.391083 -5.330533 -0.545769
0.000148 -0.020713 -0.000934
-2.668441 -1.382543 -0.001101
-2.700264 -1.397578 0.069272
-2.766211 -1.429973 0.143674
0.000148 -0.020713 -0.000934
-3.347250 -1.723723 0.349245
-3.015575 -1.553639 0.394486
-2.927394 -1.508154 0.460380
-2.940469 -1.513489 0.540688
-2.858769 -1.470742 0.602852
-2.652255 -1.362211 -1.763968
-2.688817 -1.379512 -1.693974
-2.810082 -1.440161 -1.675234
-2.937338 -1.503145 -1.653202
-3.090748 -1.579200 -1.639709
-3.266104 -1.666896 -1.629701
-3.466023 -1.766125 -1.622229
-3.684301 -1.874425 -1.611790
-3.905073 -1.984631 -1.592246
-4.200134 -2.131173 -1.589607
-4.507635 -2.283696 -1.575176
-4.768014 -2.413355 -1.531010
-5.250737 -2.653283 -1.538996
-5.673385 -2.863929 -1.504988
-6.155377 -3.102769 -1.464594
-6.763474 -3.404273 -1.426281
-7.430579 -3.776977 -1.369359
-8.502282 -4.316849 -1.340299
-9.263585 -4.697433 -1.213233
-9.223865 -4.673289 -0.965346
-10.165009 -5.145740 -0.797620
-10.417893 -5.268623 -0.545577
0.000156 -0.020454 -0.000923
-2.663730 -1.360629 -0.001090
-2.645624 -1.350347 0.067662
-2.742130 -1.397640 0.142009
-2.956216 -1.504494 0.230204
-3.761072 -1.906851 0.391402
-3.038547 -1.543129 0.396354
0.000156 -0.020454 -0.000923
-2.938424 -1.491003 0.538753
-2.851249 -1.446114 0.599531
-2.646083 -1.339771 -1.754776
-2.691894 -1.361418 -1.691025
-2.808728 -1.418996 -1.669590
-2.941020 -1.483576 -1.650499
-3.093191 -1.557920 -1.636276
-3.264350 -1.641560 -1.623996
-3.454530 -1.735238 -1.612197
-3.676545 -1.843833 -1.603777
-3.925064 -1.965363 -1.595657
-4.203713 -2.102509 -1.586396
-4.530838 -2.262546 -1.578743
-4.820035 -2.403548 -1.543132
-5.253654 -2.616777 -1.535441
-5.684909 -2.827413 -1.503596
-6.152493 -3.055592 -1.459594
-6.793985 -3.369080 -1.428495
-7.434400 -3.725108 -1.366108
-8.488594 -4.246705 -1.334166
-9.235206 -4.616374 -1.206032
-9.216593 -4.603045 -0.961808
-9.721724 -4.849928 -0.760613
-10.234996 -5.102632 -0.534470
-2.709846 -1.364702 -0.071318
-2.725389 -1.371212 -0.001083
-2.694433 -1.355265 0.068737
-2.710631 -1.362101 0.139972
-3.206375 -1.606090 0.249033
-3.829309 -1.912499 0.397353
-3.024118 -1.513948 0.393345
-2.596460 -1.301576 0.405866
-2.978939 -1.489011 0.544597
-2.951091 -1.474625 0.618791
-2.641521 -1.317747 -1.746603
-2.696678 -1.343653 -1.689055
-2.813815 -1.400520 -1.667701
-2.954446 -1.468214 -1.653182
-3.092252 -1.535073 -1.631132
-3.267067 -1.619288 -1.620732
-3.489514 -1.726646 -1.623751
-3.698698 -1.828127 -1.608860
-3.936202 -1.942503 -1.595647
-4.178185 -2.059763 -1.572299
-4.529937 -2.229494 -1.573966
-4.771443 -2.345199 -1.523273
-5.256318 -2.580317 -1.531886
-5.681702 -2.785029 -1.498513
-6.160539 -3.016693 -1.457505
-6.819644 -3.334320 -1.429968
-7.426112 -3.665937 -1.360586
-8.487888 -4.185340 -1.330260
-9.221273 -4.541193 -1.200687
-9.191744 -4.522686 -0.956410
-10.086204 -4.958605 -0.786856
-10.306200 -5.061807 -0.536609
0.000146 -0.019953 -0.000900
-2.697178 -1.337703 -0.001071
-2.718485 -1.346923 0.069164
-2.743424 -1.358483 0.141285
-3.082748 -1.522686 0.238727
-3.757459 -1.850737 0.388822
-2.998714 -1.479748 0.388943
-2.550360 -1.260382 0.397530
-2.862847 -1.411726 0.521919
-3.017738 -1.485700 0.631017
-2.636339 -1.296737 -1.738430
-2.705585 -1.329089 -1.690025
-2.811923 -1.379924 -1.662057
-2.959272 -1.449904 -1.651377
-3.091134 -1.512275 -1.625987
-3.276209 -1.600207 -1.620722
-3.493978 -1.704481 -1.621428
-3.690561 -1.797659 -1.600847
-3.920114 -1.906538 -1.584691
-4.194954 -2.037887 -1.574210
-4.525392 -2.194888 -1.567998
-4.803820 -2.326619 -1.529328
-5.250049 -2.539745 -1.525797
-5.690513 -2.748688 -1.496659
-6.167601 -2.974795 -1.455001
-6.812562 -3.280844 -1.424404
-7.435700 -3.619059 -1.358631
-8.495653 -4.128422 -1.327746
-9.199849 -4.466953 -1.194646
-9.164726 -4.445981 -0.951010
-10.180943 -4.932335 -0.792015
-10.316173 -4.995310 -0.535669
-2.705323 -1.323382 -0.070785
-2.668678 -1.304564 -0.001058
-2.639362 -1.289867 0.066951
-2.797899 -1.364939 0.143715
-3.024802 -1.472714 0.233580
0.000155 -0.019695 -0.000888
-2.910360 -1.415838 0.376416
-2.614615 -1.272833 0.406444
-2.666337 -1.296461 0.484654
-3.056268 -1.482496 0.637321
-2.632996 -1.275648 -1.731278
-2.705442 -1.309028 -1.685115
-2.823130 -1.364497 -1.663925
-2.961232 -1.429003 -1.647777
-3.114643 -1.500673 -1.633679
-3.298455 -1.587355 -1.627220
-3.480585 -1.672416 -1.610625
-3.699356 -1.774700 -1.600110
-3.951262 -1.893348 -1.592891
-4.201724 -2.010308 -1.572280
-4.522655 -2.160404 -1.562626
-4.841323 -2.310190 -1.537038
-5.198431 -2.476910 -1.506537
-5.684999 -2.705671 -1.491115
-6.163264 -2.928984 -1.450001
-6.834789 -3.243038 -1.425135
-7.444436 -3.568722 -1.356353
-8.503077 -4.071571 -1.325231
-9.163264 -4.382199 -1.186516
-9.171022 -4.381923 -0.948958
-10.185604 -4.862293 -0.790192
-10.895893 -5.195283 -0.564112
-10.137131 -4.830467 -0.262041
0.000137 -0.019454 -0.000877
-2.661289 -1.280792 0.067332
-2.753467 -1.323288 0.141026
-3.027709 -1.452482 0.233172
-3.834392 -1.832612 0.394597
-3.649607 -1.743659 0.470926
-2.842061 -1.361537 0.440676
-2.646875 -1.268227 0.479803
-3.091562 -1.476681 0.642884
-2.633949 -1.257292 -1.727187
-2.715962 -1.294660 -1.687065
-2.827639 -1.346487 -1.662036
-2.970912 -1.412446 -1.648664
-3.134550 -1.487827 -1.639659
-3.305765 -1.567321 -1.626396
-3.495049 -1.654453 -1.612928
-3.726278 -1.761025 -1.607376
-3.968812 -1.873529 -1.595618
-4.219964 -1.989046 -1.574831
-4.533180 -2.133298 -1.562020
-4.847473 -2.278811 -1.534823
-5.265090 -2.471206 -1.521726
-5.677420 -2.661988 -1.485110
-6.165712 -2.886628 -1.446664
-6.851428 -3.202576 -1.424756
-7.446850 -3.517180 -1.353101
-8.506520 -4.013071 -1.322160
-9.186423 -4.328325 -1.186276
-9.143658 -4.304321 -0.943559
-10.307246 -4.847374 -0.797445
-10.438721 -4.904462 -0.539012
-2.689573 -1.276793 -0.069974
-2.730395 -1.295288 -0.001040
-2.690257 -1.275370 0.067898
-2.784453 -1.318151 0.142246
-3.782691 -1.782985 0.290753
-3.814080 -1.795982 0.391451
-3.906192 -1.837210 0.502745
-3.031098 -1.429278 0.468788
-2.654011 -1.252726 0.479813
-3.174748 -1.493374 0.658442
-2.628538 -1.236076 -1.719014
-2.721679 -1.278029 -1.686074
-2.843241 -1.333645 -1.666721
-2.974029 -1.392838 -1.645961
-3.138036 -1.467249 -1.637082
-3.302995 -1.542658 -1.620691
-3.499369 -1.631743 -1.610605
-3.731155 -1.736962 -1.605183
-3.964052 -1.843340 -1.589450
-4.232953 -1.965275 -1.575462
-4.557405 -2.112501 -1.566181
-4.828930 -2.236182 -1.524888
-5.279112 -2.440621 -1.521716
-5.655378 -2.611994 -1.475415
-6.167890 -2.844344 -1.443327
-6.860693 -3.158764 -1.422895
-7.445363 -3.464087 -1.349199
-8.522165 -3.960490 -1.321038
-9.169583 -4.255987 -1.180930
-9.135624 -4.236380 -0.940204
-10.287756 -4.766019 -0.793806
-4.804186 -2.233716 -0.247868
-2.700393 -1.262719 -0.070056
-2.755847 -1.287661 -0.001031
-2.624777 -1.226203 0.066057
0.000128 -0.018953 -0.000854
0.000128 -0.018953 -0.000854
-3.192560 -1.483913 0.326663
-3.060649 -1.422077 0.392700
-3.028356 -1.406618 0.467129
-2.680806 -1.246224 0.483389
-3.145636 -1.457666 0.650678
-2.638636 -1.222110 -1.721044
-2.722544 -1.259210 -1.682144
-2.844324 -1.314077 -1.662954
-2.996508 -1.382098 -1.654028
-3.126571 -1.439939 -1.626802
-3.310047 -1.522621 -1.619867
-3.495158 -1.605235 -1.604427
-3.715529 -1.703674 -1.594259
-3.957344 -1.812475 -1.582598
-4.242359 -1.939857 -1.574811
-4.553722 -2.078912 -1.560808
-4.824083 -2.200186 -1.519364
-5.225966 -2.379694 -1.502454
-4.900454 -2.231580 -1.275229
-4.884076 -2.222106 -1.140098
-4.871809 -2.214501 -1.008015
-7.463280 -3.420138 -1.348866
-4.849937 -2.228063 -0.750183
-4.843647 -2.223132 -0.622559
-4.825429 -2.212782 -0.495709
-4.811369 -2.205351 -0.370721
-4.795018 -2.195879 -0.246738
-2.705680 -1.246082 -0.069999
-2.797714 -1.287229 -0.001023
-2.607996 -1.200102 0.065465
-2.750091 -1.263299 0.139755
-3.051979 -1.399256 0.233203
0.000135 -0.018694 -0.000843
-3.309481 -1.512919 0.423591
-3.032678 -1.387292 0.466583
-2.731002 -1.249998 0.491179
-3.227354 -1.472402 0.665867
-2.628245 -1.198890 -1.709810
-2.726464 -1.241843 -1.680174
-2.851727 -1.297428 -1.662943
-2.996163 -1.360932 -1.649529
-3.142949 -1.425364 -1.631070
-3.303902 -1.496007 -1.612534
-3.497476 -1.581819 -1.601332
-3.755801 -1.695697 -1.607344
-3.988504 -1.797916 -1.590798
-4.248149 -1.912843 -1.572879
-4.556776 -2.048534 -1.557818
-4.847481 -2.175992 -1.522662
-4.907127 -2.201488 -1.407200
-4.879703 -2.187222 -1.266456
-4.868457 -2.180166 -1.133433
-4.873956 -2.180542 -1.005782
-4.861187 -2.200288 -0.876593
-4.843058 -2.190098 -0.747109
-4.843546 -2.189277 -0.620924
-4.821604 -2.177397 -0.494025
-4.826064 -2.177352 -0.370850
-4.811104 -2.169629 -0.246914
-2.709056 -1.228616 -0.069895
-4.830654 -2.174278 -0.001142
-2.614756 -1.184825 0.065476
0.000141 -0.018431 -0.000831
-3.143945 -1.418211 0.239626
-3.556989 -1.600599 0.362147
0.000141 -0.018431 -0.000831
-3.035325 -1.366636 0.465759
-2.745469 -1.236737 0.492486
-3.215894 -1.444788 0.661805
-2.635210 -1.183043 -1.709799
-2.720905 -1.219767 -1.672325
-2.844725 -1.273834 -1.654481
-2.997515 -1.340001 -1.645929
-3.149348 -1.406281 -1.630203
-3.307321 -1.474503 -1.610083
-3.515125 -1.564518 -1.605176
-3.768784 -1.675293 -1.608789
-4.005574 -1.777718 -1.593524
-4.255523 -1.886604 -1.571588
-4.542171 -2.010537 -1.548870
-4.861584 -2.148592 -1.523203
-4.903655 -2.165982 -1.402630
-4.886735 -2.156510 -1.265062
-4.885802 -2.155062 -1.134670
-4.876946 -2.149138 -1.003919
-4.859601 -2.164808 -0.873988
-4.855482 -2.161956 -0.747099
-4.858152 -2.161084 -0.621146
-4.836153 -2.149341 -0.494201
-4.845701 -2.152511 -0.371398
-4.842048 -2.148860 -0.247837
-4.862876 -2.156993 -0.124475
-3.054054 -1.360166 -0.001016
-2.669228 -1.189952 0.066691
0.000123 -0.018190 -0.000820
-2.706102 -1.204423 0.205624
-3.492811 -1.548523 0.354731
-4.774998 -2.108266 0.608431
-3.113799 -1.379847 0.476621
-3.054220 -1.353144 0.546626
-3.097952 -1.370952 0.635903
-2.635360 -1.165320 -1.705707
-2.730770 -1.205708 -1.674273
-2.845209 -1.254871 -1.650714
-3.013042 -1.326564 -1.650406
-3.147325 -1.383561 -1.625058
-3.333833 -1.463772 -1.619021
-3.515237 -1.540964 -1.601311
-3.771428 -1.650377 -1.605868
-4.011870 -1.753594 -1.592145
-4.262731 -1.860337 -1.570297
-4.548297 -1.981847 -1.547072
-4.855741 -2.113565 -1.517678
-4.907049 -2.133653 -1.400086
-4.909328 -2.133595 -1.267818
-4.903406 -2.128986 -1.135908
-4.907189 -2.128565 -1.007613
-4.887801 -2.144509 -0.876897
-4.878249 -2.139311 -0.748759
-4.893708 -2.143980 -0.624153
-4.880845 -2.136346 -0.497536
-9.698743 -4.225328 -0.740710
-9.722533 -4.231570 -0.495590
-9.831063 -4.274482 -0.250167
-4.891490 -2.134792 -0.001123
-2.673896 -1.174004 0.066656
0.000132 -0.017932 -0.000809
-2.710842 -1.188264 0.205496
-3.666128 -1.599131 0.371452
-15.831510 -6.839223 2.014081
-3.108607 -1.356717 0.474684
-3.089042 -1.347000 0.551498
-3.125566 -1.361409 0.639986
-2.635582 -1.147167 -1.701615
-2.732744 -1.187659 -1.671323
-2.849032 -1.236836 -1.648825
-3.015603 -1.306850 -1.647702
-3.160109 -1.367299 -1.627614
-3.347395 -1.445885 -1.621451
-3.518862 -1.518297 -1.598987
-3.767046 -1.622557 -1.600036
-4.015172 -1.726583 -1.589397
-4.276725 -1.836996 -1.571567
-4.524376 -1.940457 -1.535144
-4.848597 -2.076217 -1.511603
-4.942287 -2.114953 -1.406662
-4.952233 -2.117109 -1.275649
0.000140 -0.017673 -0.000797
-6.861786 -2.920901 -1.405064
-4.934412 -2.130854 -0.883049
-8.497912 -3.653346 -1.300383
-9.092216 -3.905681 -1.156050
-9.075500 -3.894742 -0.922124
-10.257476 -4.395396 -0.781333
-9.798076 -4.197272 -0.498192
-9.700867 -4.151755 -0.246248
-15.922915 -6.796640 -0.001822
-2.744882 -1.185742 0.068287
-2.695255 -1.163500 0.135612
-2.736094 -1.179722 0.206901
-3.680928 -1.579449 0.372019
-3.886151 -1.665704 0.492593
-3.524997 -1.511084 0.537018
-3.364035 -1.441491 0.599155
-3.198405 -1.370719 0.653324
-2.632731 -1.127264 -1.695482
-2.736423 -1.169833 -1.669353
-2.861099 -1.221731 -1.651631
-3.019900 -1.287314 -1.645896
-3.164738 -1.346900 -1.625892
-3.365672 -1.430597 -1.626322
-3.548118 -1.505724 -1.608227
-3.790247 -1.605708 -1.605846
-4.019742 -1.701027 -1.587334
-4.278700 -1.807704 -1.568354
-4.549782 -1.919238 -1.539900
-4.837317 -2.038412 -1.504424
-5.267104 -2.215784 -1.495309
-5.697022 -2.394017 -1.463822
0.000122 -0.017431 -0.000786
-6.865684 -2.875842 -1.402461
-7.485816 -3.170842 -1.335841
-8.511387 -3.601073 -1.299259
-9.062007 -3.829138 -1.149310
-8.988194 -3.794357 -0.910960
-9.890691 -4.171510 -0.751581
-9.881623 -4.163603 -0.501167
-9.929892 -4.179734 -0.251404
-15.889705 -6.674541 -0.001807
-2.760991 -1.173067 0.068530
-2.718594 -1.154194 0.136460
-2.735371 -1.160634 0.206354
-3.858914 -1.628581 0.389111
-15.767104 -6.593730 1.995989
-3.632252 -1.531686 0.552054
-3.352144 -1.413527 0.595601
-3.456782 -1.455670 0.704420
-2.635890 -1.110521 -1.693430
-2.749446 -1.156481 -1.673261
-2.872889 -1.207033 -1.654437
-3.012299 -1.263517 -1.637807
-3.170652 -1.327716 -1.625025
-3.361923 -1.406069 -1.620615
-3.560038 -1.486441 -1.609758
-3.771765 -1.572259 -1.594194
-4.006775 -1.668310 -1.578429
-4.290700 -1.783539 -1.568983
-4.583617 -1.902225 -1.547635
-4.864867 -2.016873 -1.509375
-5.285035 -2.187397 -1.496818
-5.696220 -2.355054 -1.460121
-6.172104 -2.547813 -1.419130
-6.880197 -2.835298 -1.402079
-7.487438 -3.120678 -1.332911
-8.513562 -3.544213 -1.296464
-9.017701 -3.749337 -1.140945
-8.998713 -3.737758 -0.909834
-9.936559 -4.123440 -0.753246
-9.992100 -4.142265 -0.505541
-10.023922 -4.151266 -0.253162
0.000130 -0.017172 -0.000774
-2.867418 -1.198017 0.071041
-2.736165 -1.142836 0.137030
-2.734535 -1.141603 0.205808
-15.745458 -6.484866 1.586292
-15.738515 -6.475529 1.987641
-15.696376 -6.454964 2.382527
-3.058795 -1.270508 0.542132
-3.488653 -1.445194 0.709244
-2.638966 -1.093791 -1.691378
-2.749503 -1.137761 -1.669330
-2.863320 -1.183555 -1.645036
-3.022739 -1.247265 -1.639591
-3.169784 -1.305804 -1.620735
-3.369874 -1.386459 -1.620604
-3.542776 -1.455263 -1.598183
-3.787550 -1.553076 -1.597093
-4.017947 -1.645680 -1.579102
-4.299032 -1.757855 -1.568332
-4.564287 -1.863390 -1.537495
-4.878077 -1.989320 -1.509916
-5.266922 -2.144374 -1.488194
-5.698746 -2.317617 -1.457342
-6.172067 -2.506170 -1.415792
-6.889006 -2.792482 -1.400587
-7.488713 -3.070587 -1.329981
-8.513549 -3.486711 -1.293390
-9.033510 -3.694903 -1.140238
-8.979387 -3.669174 -0.905733
-9.599603 -3.919441 -0.726008
-10.123031 -4.128068 -0.510941
-10.158702 -4.138381 -0.255944
-15.837371 -6.438943 -0.001778
-2.857488 -1.174494 0.070636
-2.725934 -1.120084 0.136203
0.000112 -0.016930 -0.000763
0.000112 -0.016930 -0.000763
-3.608495 -1.473524 0.454083
-15.667018 -6.337637 2.372522
-3.157473 -1.289523 0.558349
0.000112 -0.016930 -0.000763
-2.643510 -1.077686 -1.690347
-2.751060 -1.119727 -1.666380
-2.878195 -1.170101 -1.649719
-3.033089 -1.230928 -1.641375
-3.163729 -1.281927 -1.613877
-3.370896 -1.364070 -1.617339
-3.545845 -1.432544 -1.595859
-3.780770 -1.524806 -1.590533
-4.029013 -1.622988 -1.579774
-4.301930 -1.730033 -1.565759
-4.560648 -1.831202 -1.532716
-4.901846 -1.965941 -1.513764
-5.295262 -2.120217 -1.492743
-5.711886 -2.284539 -1.457331
-6.169919 -2.463877 -1.412037
-6.870144 -2.738795 -1.393537
-7.495184 -3.022806 -1.328023
-8.507615 -3.427094 -1.289480
-9.056368 -3.643365 -1.140459
-8.987317 -3.612032 -0.904421
-10.223985 -4.104643 -0.771376
-9.805131 -3.933157 -0.493765
-10.143254 -4.064067 -0.254955
0.000121 -0.016673 -0.000752
0.000121 -0.016673 -0.000752
-2.713666 -1.096741 0.135284
0.000121 -0.016673 -0.000752
-3.958310 -1.589669 0.396386
-3.694373 -1.483283 0.463846
-15.642383 -6.223071 2.363352
-3.258317 -1.308179 0.574891
-12.561498 -4.990428 2.543911
-2.646374 -1.060942 -1.688295
-2.757353 -1.103619 -1.666368
-2.879854 -1.151324 -1.646891
-3.036681 -1.211881 -1.639569
-3.172615 -1.264096 -1.614722
-3.387351 -1.347166 -1.621395
-3.562531 -1.415244 -1.599702
-3.782424 -1.500039 -1.587611
-4.045474 -1.601573 -1.582500
-4.308199 -1.703625 -1.564467
-4.585244 -1.810250 -1.537472
-4.916887 -1.937989 -1.514855
-5.305475 -2.088761 -1.492225
-5.716173 -2.246858 -1.455013
-6.167916 -2.420617 -1.408282
-6.895320 -2.701342 -1.395378
-7.493974 -2.972127 -1.324769
-8.505568 -3.367642 -1.286128
-8.975414 -3.550913 -1.127684
-8.948558 -3.536695 -0.898460
-9.865501 -3.893386 -0.742601
-9.842375 -3.882277 -0.494500
-3.067321 -1.219977 -0.077439
-3.081618 -1.224335 -0.000937
-2.829659 -1.124991 0.069640
-2.738443 -1.088143 0.136226
0.000129 -0.016414 -0.000740
-3.650377 -1.442059 0.364649
-15.649591 -6.124935 1.962831
-15.608776 -6.102664 2.352790
-3.356028 -1.323694 0.590784
0.000129 -0.016414 -0.000740
-2.650938 -1.044375 -1.687263
-2.768641 -1.088898 -1.669296
-2.884876 -1.133333 -1.645941
-3.042046 -1.192958 -1.638660
-3.189874 -1.249490 -1.619845
-3.388124 -1.324761 -1.618129
-3.572479 -1.394510 -1.600462
-3.799608 -1.481361 -1.591238
-4.038743 -1.571938 -1.576331
-4.312537 -1.676518 -1.562534
-4.579451 -1.777420 -1.532097
-4.927866 -1.909418 -1.514844
-5.310098 -2.055185 -1.490186
-5.727084 -2.212978 -1.454540
-6.141038 -2.370507 -1.399119
-6.856969 -2.642202 -1.384624
-7.507694 -2.925984 -1.324108
-8.511797 -3.313406 -1.284166
-9.014741 -3.504574 -1.129993
-8.920968 -3.464670 -0.893616
0.000111 -0.016172 -0.000729
-3.065886 -1.199483 -0.154183
-3.081653 -1.204934 -0.077613
-9.769653 -3.780825 -0.001351
-2.996677 -1.169733 0.073633
-3.285307 -1.280161 0.163222
-3.340897 -1.300192 0.249344
-3.671280 -1.426418 0.365960
-3.649790 -1.416688 0.456207
-15.586191 -5.990552 2.344177
-3.486727 -1.351994 0.612512
-3.722507 -1.440821 0.750010
-2.651798 -1.027466 -1.684191
-2.777834 -1.074416 -1.671244
-2.887781 -1.115721 -1.644051
-3.045233 -1.174448 -1.636853
-3.196927 -1.230868 -1.619833
-3.388760 -1.302396 -1.614863
-3.574947 -1.372345 -1.598137
-3.825398 -1.465828 -1.598502
-4.028281 -1.541092 -1.568794
-4.302524 -1.644050 -1.555479
-4.584148 -1.748763 -1.530298
-4.929686 -1.877389 -1.512075
-5.316296 -2.022288 -1.488655
-5.726878 -2.174933 -1.451300
-6.147576 -2.331061 -1.397444
-6.888975 -2.607489 -1.387946
-7.499843 -2.874674 -1.319880
-8.523224 -3.261315 -1.283040
-8.993215 -3.438437 -1.124875
-9.029416 -3.448569 -0.902526
-9.907593 -3.778417 -0.742438
-3.074302 -1.182815 -0.154265
-3.097797 -1.190485 -0.077835
-3.084088 -1.184044 -0.000913
-3.053541 -1.171851 0.074895
0.000119 -0.015913 -0.000718
0.000119 -0.015913 -0.000718
-3.960911 -1.510539 0.394007
-3.661502 -1.396819 0.456683
0.000119 -0.015913 -0.000718
-3.496438 -1.331754 0.612848
-3.787662 -1.440579 0.761497
-2.662599 -1.013296 -1.687240
-2.775912 -1.054631 -1.666333
-2.897562 -1.099568 -1.645917
-3.050389 -1.155506 -1.635944
-3.185438 -1.204683 -1.610408
-3.401480 -1.283956 -1.617292
-3.572541 -1.347003 -1.593499
-3.814720 -1.435723 -1.590487
-4.042534 -1.518896 -1.570835
-4.301441 -1.614301 -1.551625
-4.626578 -1.733280 -1.541011
-4.947851 -1.850560 -1.514269
-5.319037 -1.987131 -1.486110
-5.704912 -2.127865 -1.442525
-6.175851 -2.299743 -1.400760
-6.878390 -2.556810 -1.382748
-7.501858 -2.824371 -1.317273
-8.529308 -3.205617 -1.281079
-8.989152 -3.375774 -1.121846
-8.960071 -3.361309 -0.893591
-10.019442 -3.752837 -0.749128
-3.077416 -1.162922 -0.154067
-3.070987 -1.159296 -0.076985
-15.683923 -5.849860 -0.001698
-3.110955 -1.172301 0.076157
-3.176248 -1.195301 0.157104
-3.709223 -1.391750 0.275713
-3.689615 -1.382994 0.366169
-3.675227 -1.376923 0.457392
-3.596008 -1.346136 0.537944
-3.502331 -1.310076 0.612535
-4.697607 -1.750866 0.942531
-2.661819 -0.995310 -1.683147
-2.786751 -1.040187 -1.669261
-2.898778 -1.080791 -1.643088
-3.043459 -1.132740 -1.628752
-3.178660 -1.181105 -1.603550
-3.408491 -1.264693 -1.617280
-3.571482 -1.322998 -1.589633
-3.812332 -1.409656 -1.586109
-4.040281 -1.492202 -1.566717
-4.303437 -1.586661 -1.549052
-4.636381 -1.706374 -1.540999
-4.947170 -1.818718 -1.510948
-5.330304 -1.956250 -1.486097
-5.720263 -2.097080 -1.443434
-6.177468 -2.260990 -1.398251
-6.879534 -2.513452 -1.380142
-7.516053 -2.780239 -1.316936
-8.519098 -3.147488 -1.276889
-8.948676 -3.301845 -1.114406
-8.975427 -3.308079 -0.893206
-10.060745 -3.704194 -0.750650
0.000107 -0.015409 -0.000695
-3.071882 -1.139294 -0.076833
0.000107 -0.015409 -0.000695
-3.143851 -1.163733 0.076817
-3.181098 -1.176062 0.157023
-3.523774 -1.300378 0.261368
-3.719649 -1.370320 0.368409
-15.516313 -5.661023 1.929216
0.000107 -0.015409 -0.000695
-15.474055 -5.636359 2.703147
0.000107 -0.015409 -0.000695
-2.672274 -0.981484 -1.686196
-2.789315 -1.022693 -1.667290
-2.904842 -1.063830 -1.643076
-3.053220 -1.116183 -1.630535
-3.170000 -1.157024 -1.595836
-3.420781 -1.246665 -1.619709
-3.577209 -1.301550 -1.588850
-3.806265 -1.382407 -1.580276
-4.045182 -1.467414 -1.565337
-4.324907 -1.566111 -1.553522
-4.642431 -1.678125 -1.539795
-4.948433 -1.786745 -1.508179
-5.343184 -1.925936 -1.486592
-5.737631 -2.065840 -1.444806
-6.182920 -2.222535 -1.396575
-6.882701 -2.469629 -1.377907
-7.507704 -2.727982 -1.312706
-8.527666 -3.094815 -1.275484
-8.931913 -3.237241 -1.109984
-8.952994 -3.241280 -0.889104
-10.008591 -3.619637 -0.745192
-3.092306 -1.127613 -0.154136
-3.080162 -1.122015 -0.076868
-15.624797 -5.626667 -0.001661
-3.122163 -1.135240 0.076135
-3.151995 -1.144691 0.155267
-3.630647 -1.315480 0.268768
-15.511709 -5.564439 1.535334
-3.660716 -1.323346 0.453701
0.000114 -0.015150 -0.000683
-15.446655 -5.525792 2.692789
-4.711694 -1.694215 0.941444
-2.671316 -0.963541 -1.682103
-2.785219 -1.002882 -1.661399
-2.907523 -1.045680 -1.641186
-3.054436 -1.096543 -1.627831
-3.174825 -1.137917 -1.594968
-3.420918 -1.224271 -1.616443
-3.568906 -1.275174 -1.581899
-3.812319 -1.359616 -1.579537
-4.056995 -1.445098 -1.566693
-4.331977 -1.540324 -1.552869
-4.630317 -1.643539 -1.532633
-4.954897 -1.756705 -1.507064
-5.348630 -1.893000 -1.485059
-5.743833 -2.030615 -1.443410
-6.169678 -2.177619 -1.390739
-6.872587 -2.421293 -1.373079
-7.508302 -2.679209 -1.310099
-8.535904 -3.042138 -1.274079
-8.957797 -3.188207 -1.110899
-8.956393 -3.184161 -0.887603
-9.978374 -3.543789 -0.741408
-10.011996 -3.551718 -0.496476
-9.657516 -3.422666 -0.239044
0.000098 -0.014909 -0.000672
-3.107808 -1.109699 0.075637
-3.309211 -1.179341 0.162723
-3.801834 -1.351918 0.280907
0.000098 -0.014909 -0.000672
-3.701910 -1.313846 0.457892
0.000098 -0.014909 -0.000672
-15.416630 -5.415066 2.682107
-5.674837 -2.000471 1.131734
-2.678354 -0.948467 -1.683111
-2.789213 -0.986014 -1.660407
-2.916726 -1.029831 -1.643052
-3.048803 -1.074597 -1.621536
-3.194880 -1.124112 -1.601802
-3.400412 -1.194139 -1.603413
-3.565626 -1.250731 -1.577261
-3.819983 -1.337400 -1.579524
-4.076076 -1.424467 -1.570786
-4.317389 -1.507066 -1.544532
-4.637811 -1.615998 -1.532024
-4.946965 -1.720785 -1.501537
-5.357521 -1.861315 -1.484540
-5.748338 -1.993758 -1.441552
-6.175001 -2.138219 -1.389063
-6.853268 -2.368765 -1.366398
-7.514203 -2.632481 -1.308464
-8.536865 -2.985379 -1.271559
-8.951505 -3.127883 -1.107869
-8.951914 -3.124496 -0.885359
-9.923725 -3.458174 -0.735810
-10.007636 -3.485301 -0.495250
-9.916920 -3.449932 -0.244941
-10.355512 -3.597770 -0.001302
-3.131068 -1.097436 0.076066
-3.266752 -1.143069 0.160316
-4.143512 -1.444281 0.305592
-15.451208 -5.339581 1.523109
-3.722473 -1.296808 0.459530
-15.141635 -5.223915 2.248828
-15.388637 -5.302828 2.671750
0.000106 -0.014650 -0.000661
-2.682205 -0.931754 -1.682079
-2.798225 -0.970337 -1.662355
-2.919370 -1.011141 -1.641162
-3.055037 -1.056252 -1.621524
-3.180879 -1.097912 -1.591521
-3.410609 -1.175484 -1.605028
-3.592119 -1.235861 -1.585729
-3.796005 -1.303694 -1.566416
-4.096571 -1.404964 -1.575562
-4.306437 -1.474511 -1.537476
-4.638181 -1.585165 -1.529033
-4.953053 -1.690808 -1.500422
-5.357378 -1.825556 -1.481488
-5.730115 -1.950424 -1.434159
-6.190802 -2.103642 -1.389882
-6.851803 -2.324027 -1.363422
-7.518366 -2.583802 -1.306505
-8.542571 -2.932128 -1.269875
-8.977336 -3.077091 -1.108784
-8.981495 -3.074980 -0.886461
-10.143566 -3.468957 -0.750596
-3.154724 -1.087574 -0.156245
0.000113 -0.014391 -0.000649
-10.375972 -3.537901 -0.001288
-3.137443 -1.078615 0.076078
-3.347183 -1.148439 0.163957
-4.115770 -1.408017 0.302956
-15.428745 -5.232486 1.517925
-3.705541 -1.266206 0.456524
-15.381503 -5.207427 2.280005
-15.355215 -5.192531 2.660745
-5.749797 -1.951128 1.142124
-2.684179 -0.914958 -1.680026
-2.795416 -0.951200 -1.657444
-2.921709 -0.992951 -1.639272
-3.060972 -1.038398 -1.621512
-3.193741 -1.082195 -1.594931
-3.417238 -1.155591 -1.605016
-3.597341 -1.214339 -1.584946
-3.833196 -1.292267 -1.578772
-4.072423 -1.370438 -1.563235
-4.363060 -1.466368 -1.554752
-4.639627 -1.556603 -1.526636
-4.979047 -1.667491 -1.505372
-5.352707 -1.790511 -1.477422
-5.702376 -1.904322 -1.424460
-6.204231 -2.069445 -1.390284
-6.830983 -2.274394 -1.356741
-7.521811 -2.536498 -1.304545
-8.542325 -2.877026 -1.267355
-8.966560 -3.015692 -1.105289
-8.953625 -3.007854 -0.881985
-10.036486 -3.367928 -0.741227
-3.168418 -1.071681 -0.156606
-10.024073 -3.357886 -0.246588
-10.392254 -3.476625 -0.001273
-15.471320 -5.162802 0.376984
-4.077626 -1.370348 0.199515
-4.102891 -1.377147 0.301436
-15.389573 -5.123507 1.511258
-3.738859 -1.254016 0.459787
-15.349086 -5.098070 2.270839
-3.587805 -1.201818 0.620064
-15.303701 -5.074046 3.035288
-2.681015 -0.897037 -1.674912
-2.797282 -0.934240 -1.655472
-2.917042 -0.973060 -1.633625
-3.080219 -1.025507 -1.628679
-3.199819 -1.063538 -1.594919
-3.437632 -1.140204 -1.611512
-3.605739 -1.194573 -1.585704
-3.845797 -1.271675 -1.580942
-4.089090 -1.349649 -1.566643
-4.351517 -1.434513 -1.547696
-4.642981 -1.527856 -1.524836
-4.951934 -1.626669 -1.494331
-5.335238 -1.750451 -1.469810
-5.744618 -1.881458 -1.432288
-6.190258 -2.023922 -1.384448
-6.827461 -2.228173 -1.353393
-7.524516 -2.490544 -1.302585
-8.543595 -2.822630 -1.265114
-8.992606 -2.968478 -1.106435
-9.083709 -2.994862 -0.893125
-9.924811 -3.267015 -0.731578
-10.001493 -3.290184 -0.492036
-10.558116 -3.468401 -0.259185
-10.356882 -3.398527 -0.001255
