# This PCD file was generated using the MATLAB® pcwrite function
# from Computer Vision Toolbox®.
# .PCD v.7 - Point Cloud Data file format
VERSION .7
FIELDS x y z
SIZE 4 4 4
TYPE F F F
COUNT 1 1 1
WIDTH 1588
HEIGHT 1
VIEWPOINT 0 0 0 1 0 0 0
POINTS 1588
DATA ascii
-0.853725 -8.225748 -1.945277
-0.962729 -9.235106 -1.960809
-1.104419 -10.548008 -1.986771
-1.238022 -12.306114 -2.021907
-1.479970 -14.670465 -2.063363
-1.840293 -18.160622 -2.123575
-2.421009 -23.784781 -2.223469
-3.494850 -34.241463 -2.400059
0.001949 -0.063472 -0.001720
0.001949 -0.063472 -0.001720
0.001949 -0.063472 -0.001720
0.001949 -0.063472 -0.001720
0.001949 -0.063472 -0.001720
0.001949 -0.063472 -0.001720
-5.477102 -52.556530 4.928588
-5.622848 -53.774994 6.320303
-5.568916 -53.174389 7.509983
-5.612341 -53.412643 8.818211
0.001949 -0.063472 -0.001720
0.001937 -0.063226 -0.001712
0.001937 -0.063226 -0.001712
0.001937 -0.063226 -0.001712
-0.047171 -0.518188 -0.231389
-0.076287 -0.785754 -0.345602
-0.085119 -0.866140 -0.361171
-0.092451 -0.931063 -0.366218
-0.099726 -0.994841 -0.367521
-0.099531 -0.991791 -0.341568
-0.616886 -5.708221 -1.919812
-0.671565 -6.187568 -1.923456
-0.733907 -6.744210 -1.928161
-0.808462 -7.398165 -1.932627
-0.898979 -8.204983 -1.941574
-1.015252 -9.227207 -1.960378
-1.162998 -10.525609 -1.983793
-1.307398 -12.288731 -2.020268
-1.563754 -14.659473 -2.063063
-1.941398 -18.121828 -2.120306
-2.551025 -23.710808 -2.217872
-3.679181 -34.107464 -2.392079
0.001937 -0.063226 -0.001712
0.001937 -0.063226 -0.001712
0.001937 -0.063226 -0.001712
0.001937 -0.063226 -0.001712
0.001937 -0.063226 -0.001712
0.001937 -0.063226 -0.001712
0.001937 -0.063226 -0.001712
-5.934806 -53.769131 6.323619
-5.863921 -53.046726 7.496671
-5.927884 -53.457664 8.831249
0.001937 -0.063226 -0.001712
0.001925 -0.062981 -0.001705
0.001925 -0.062981 -0.001705
-0.048203 -0.505174 -0.238266
-0.048766 -0.508759 -0.226896
-0.080851 -0.788632 -0.347305
-0.088914 -0.858118 -0.357910
-0.097669 -0.932097 -0.366980
-0.106572 -1.006944 -0.372604
-0.114351 -1.073108 -0.371648
0.001925 -0.062981 -0.001705
-0.706986 -6.185228 -1.924039
-0.772316 -6.739610 -1.928148
-0.850425 -7.391214 -1.932106
-0.946909 -8.209070 -1.943864
-1.069081 -9.230667 -1.962440
-1.223390 -10.520436 -1.984146
-1.375924 -12.265050 -2.017657
-1.645710 -14.632276 -2.060539
-2.042562 -18.086412 -2.117500
-2.679813 -23.632166 -2.211905
-3.904103 -34.341198 -2.410005
0.001925 -0.062981 -0.001705
0.001925 -0.062981 -0.001705
0.001925 -0.062981 -0.001705
0.001925 -0.062981 -0.001705
0.001925 -0.062981 -0.001705
0.001925 -0.062981 -0.001705
0.001925 -0.062981 -0.001705
-6.905406 -59.420364 6.993865
-6.157624 -52.917412 7.483358
-6.198318 -53.108795 8.779392
0.001925 -0.062981 -0.001705
0.001914 -0.062735 -0.001698
0.001914 -0.062735 -0.001698
0.001914 -0.062735 -0.001698
-0.051766 -0.511764 -0.228683
-0.085044 -0.787904 -0.347297
-0.093502 -0.857338 -0.357902
-0.102660 -0.931252 -0.366973
-0.112683 -1.011610 -0.374778
0.001914 -0.062735 -0.001698
-0.679517 -5.681423 -1.913387
-0.742206 -6.180805 -1.924026
-0.810265 -6.730991 -1.927032
-0.892794 -7.387854 -1.932599
-0.993069 -8.197445 -1.942466
-1.120865 -9.216347 -1.960761
-1.282803 -10.507109 -1.983018
-1.445410 -12.250803 -2.016666
-1.728325 -14.612473 -2.059127
-2.144579 -18.060305 -2.115854
-2.810636 -23.576561 -2.208164
-4.058297 -33.959358 -2.384756
0.001914 -0.062735 -0.001698
-8.097651 -67.292542 -1.565617
0.001914 -0.062735 -0.001698
0.001914 -0.062735 -0.001698
0.001914 -0.062735 -0.001698
0.001914 -0.062735 -0.001698
-6.330664 -52.030376 4.888953
-7.228690 -59.231495 6.976488
-6.452215 -52.804180 7.472550
-6.519255 -53.201267 8.800866
0.001914 -0.062735 -0.001698
0.001902 -0.062489 -0.001691
0.001902 -0.062489 -0.001691
0.001902 -0.062489 -0.001691
-0.055928 -0.523624 -0.234956
-0.088526 -0.781750 -0.344723
-0.099358 -0.865574 -0.361960
-0.106742 -0.923067 -0.363882
-0.117429 -1.005132 -0.372588
0.001902 -0.062489 -0.001691
-0.713515 -5.690328 -1.917855
-0.777157 -6.174288 -1.923417
-0.849527 -6.723903 -1.926467
-0.935168 -7.384259 -1.933091
-1.041276 -8.191162 -1.942451
-1.174854 -9.207343 -1.960330
-1.343948 -10.493225 -1.981891
-1.513552 -12.226362 -2.014055
-1.812816 -14.587955 -2.057159
-2.244864 -18.021778 -2.112817
-2.940387 -23.516268 -2.204053
-4.258638 -33.930496 -2.384437
0.001902 -0.062489 -0.001691
0.001902 -0.062489 -0.001691
0.001902 -0.062489 -0.001691
0.001902 -0.062489 -0.001691
0.001902 -0.062489 -0.001691
0.001902 -0.062489 -0.001691
-6.631768 -51.938339 4.883989
-7.559395 -59.113804 6.967715
-6.798033 -53.024052 7.509384
-6.820755 -53.057674 8.783729
0.001902 -0.062489 -0.001691
0.001916 -0.062227 -0.001684
0.001916 -0.062227 -0.001684
-0.055935 -0.503494 -0.238243
-0.059597 -0.530113 -0.238537
-0.093504 -0.786330 -0.347282
-0.103406 -0.859277 -0.359513
-0.112581 -0.927653 -0.366186
-0.123284 -1.006018 -0.373307
-0.690052 -5.265779 -1.911559
-0.746105 -5.680101 -1.915922
-0.813629 -6.171209 -1.923999
-0.889515 -6.722306 -1.927556
-0.977779 -7.372576 -1.931558
-1.088403 -8.176873 -1.940593
-1.228506 -9.196076 -1.959483
-1.404964 -10.478974 -1.980763
-1.583567 -12.201254 -2.011444
-1.897078 -14.562947 -2.055191
-2.349999 -17.998062 -2.111634
-3.072357 -23.444864 -2.199013
-4.444174 -33.789665 -2.376319
0.001916 -0.062227 -0.001684
0.001916 -0.062227 -0.001684
0.001916 -0.062227 -0.001684
0.001916 -0.062227 -0.001684
0.001916 -0.062227 -0.001684
0.001916 -0.062227 -0.001684
-6.932538 -51.848515 4.879397
0.001916 -0.062227 -0.001684
-7.140340 -53.194546 7.539531
-7.077044 -52.587719 8.712725
0.001916 -0.062227 -0.001684
0.001901 -0.061977 -0.001677
0.001901 -0.061977 -0.001677
-0.058244 -0.501153 -0.237296
-0.066168 -0.557821 -0.252884
-0.096814 -0.780164 -0.344707
-0.106612 -0.849374 -0.355439
-0.117555 -0.926721 -0.366178
-0.128540 -1.005041 -0.373299
-0.719345 -5.263458 -1.912231
-0.777174 -5.673712 -1.915270
-0.847955 -6.168201 -1.924583
-0.926377 -6.715065 -1.926992
-1.017751 -7.361001 -1.930026
-1.134178 -8.174257 -1.941500
-1.276232 -9.177426 -1.956974
-1.460405 -10.465121 -1.979638
-1.651256 -12.176046 -2.008834
-1.976611 -14.542075 -2.053780
-2.451251 -17.970203 -2.109988
-3.206269 -23.422590 -2.198614
-4.637147 -33.799675 -2.378790
0.001901 -0.061977 -0.001677
-9.951018 -72.172951 -1.682687
0.001901 -0.061977 -0.001677
0.001901 -0.061977 -0.001677
0.001901 -0.061977 -0.001677
0.001901 -0.061977 -0.001677
-7.202927 -51.742970 4.873120
-8.115138 -58.141026 6.863656
0.001901 -0.061977 -0.001677
-7.347903 -52.456589 8.697522
0.001901 -0.061977 -0.001677
0.001889 -0.061731 -0.001670
0.001889 -0.061731 -0.001670
0.001889 -0.061731 -0.001670
-0.075005 -0.599649 -0.274409
-0.101210 -0.781127 -0.345555
-0.111908 -0.853904 -0.357871
-0.122643 -0.927617 -0.366941
-0.133434 -1.000336 -0.371837
-0.748978 -5.257106 -1.911536
-0.809457 -5.668896 -1.915258
-0.882792 -6.161071 -1.923975
-0.964370 -6.707471 -1.926428
-1.059734 -7.354771 -1.930012
-1.181128 -8.169275 -1.941947
-1.329679 -9.165572 -1.956127
-1.520339 -10.444363 -1.977400
-1.717692 -12.158571 -2.007521
-2.056511 -14.506668 -2.050423
-2.550258 -17.950089 -2.109271
-3.335681 -23.398170 -2.198030
-4.824068 -33.722805 -2.375271
0.001889 -0.061731 -0.001670
0.001889 -0.061731 -0.001670
0.001889 -0.061731 -0.001670
0.001889 -0.061731 -0.001670
0.001889 -0.061731 -0.001670
0.001889 -0.061731 -0.001670
-7.504855 -51.669559 4.870386
-7.682802 -52.830933 6.241174
-7.708750 -52.882362 7.507321
-7.651492 -52.364983 8.689793
0.001889 -0.061731 -0.001670
0.001878 -0.061485 -0.001662
0.001878 -0.061485 -0.001662
0.001878 -0.061485 -0.001662
-0.089791 -0.676726 -0.313876
-0.105745 -0.782042 -0.346403
-0.117017 -0.856607 -0.359489
-0.127244 -0.922973 -0.365392
-0.140107 -1.006638 -0.374738
-0.779146 -5.254320 -1.912207
-0.842681 -5.663743 -1.915246
-0.918650 -6.153587 -1.923366
-1.002291 -6.699648 -1.925864
-1.102358 -7.344274 -1.928986
-1.226276 -8.152459 -1.939628
-1.381142 -9.151709 -1.954865
-1.576787 -10.413813 -1.973313
-1.789666 -12.149879 -2.007826
-2.138419 -14.486506 -2.049291
-2.655072 -17.926538 -2.108320
-3.472784 -23.369860 -2.197259
-5.011466 -33.652813 -2.372309
0.001878 -0.061485 -0.001662
0.001878 -0.061485 -0.001662
0.001878 -0.061485 -0.001662
0.001878 -0.061485 -0.001662
0.001878 -0.061485 -0.001662
0.001878 -0.061485 -0.001662
-7.792672 -51.566185 4.864857
0.001878 -0.061485 -0.001662
0.001878 -0.061485 -0.001662
-7.943346 -52.261292 8.680111
0.001878 -0.061485 -0.001662
0.001866 -0.061240 -0.001655
0.001866 -0.061240 -0.001655
0.001866 -0.061240 -0.001655
-0.097734 -0.704214 -0.328223
-0.109348 -0.777595 -0.344684
-0.121024 -0.852041 -0.357855
-0.131928 -0.920148 -0.364613
-0.145567 -1.005569 -0.374730
-0.810182 -5.256927 -1.914931
-0.874888 -5.658537 -1.915234
-0.953088 -6.144170 -1.922163
-1.039879 -6.689722 -1.924749
-1.144250 -7.337561 -1.928972
-1.272825 -8.145028 -1.939614
-1.433121 -9.141430 -1.954435
-1.634472 -10.392665 -1.971077
-1.856471 -12.121567 -2.004892
-2.219253 -14.460005 -2.047325
-2.752967 -17.879313 -2.104590
-3.603151 -23.325621 -2.195005
-5.166070 -33.374741 -2.354726
0.001866 -0.061240 -0.001655
0.001866 -0.061240 -0.001655
0.001866 -0.061240 -0.001655
0.001866 -0.061240 -0.001655
0.001866 -0.061240 -0.001655
0.001866 -0.061240 -0.001655
-8.076482 -51.441559 4.857469
0.001866 -0.061240 -0.001655
0.001866 -0.061240 -0.001655
-8.234890 -52.159885 8.671078
0.001866 -0.061240 -0.001655
0.001880 -0.060978 -0.001649
0.001880 -0.060978 -0.001649
0.001880 -0.060978 -0.001649
-0.103688 -0.717488 -0.335393
-0.114047 -0.780263 -0.346387
-0.125737 -0.851065 -0.357847
-0.137755 -0.924582 -0.366917
-0.150988 -1.004447 -0.374722
-0.840949 -5.251765 -1.914919
-0.907396 -5.655034 -1.915862
-0.987762 -6.136444 -1.921555
-1.078526 -6.679385 -1.923634
-1.185775 -7.328686 -1.928452
-1.319772 -8.131318 -1.938217
-1.485957 -9.126719 -1.953173
-1.694101 -10.372849 -1.969210
-1.924565 -12.102626 -2.003579
-2.301111 -14.424828 -2.044245
-2.857924 -17.878601 -2.106421
-3.735357 -23.294426 -2.194050
-5.399646 -33.567833 -2.370564
0.001880 -0.060978 -0.001649
0.001880 -0.060978 -0.001649
0.001880 -0.060978 -0.001649
0.001880 -0.060978 -0.001649
0.001880 -0.060978 -0.001649
0.001880 -0.060978 -0.001649
-8.353609 -51.225464 4.841709
-9.393783 -57.534321 6.816217
-8.588994 -52.498753 7.473216
-8.532690 -52.043671 8.660099
0.001880 -0.060978 -0.001649
0.001868 -0.060732 -0.001641
0.001868 -0.060732 -0.001641
0.001868 -0.060732 -0.001641
-0.112608 -0.746589 -0.350637
-0.116385 -0.768627 -0.341247
-0.130566 -0.851858 -0.358653
-0.141966 -0.918031 -0.364597
-0.156102 -1.001461 -0.373987
-0.870817 -5.246595 -1.914908
-0.939245 -5.647591 -1.915210
-1.021427 -6.122871 -1.919161
-1.117557 -6.678506 -1.925274
-1.226604 -7.315768 -1.926920
-1.366508 -8.125253 -1.938664
-1.536191 -9.116111 -1.952743
-1.750602 -10.357163 -1.968084
-1.994312 -12.081029 -2.001941
-2.380482 -14.391572 -2.041445
-2.963495 -17.861097 -2.106398
-3.871031 -23.259832 -2.192909
-5.569954 -33.402145 -2.361058
0.001868 -0.060732 -0.001641
0.001868 -0.060732 -0.001641
0.001868 -0.060732 -0.001641
0.001868 -0.060732 -0.001641
0.001868 -0.060732 -0.001641
0.001868 -0.060732 -0.001641
-8.615353 -51.038414 4.828549
0.001868 -0.060732 -0.001641
-8.807680 -51.960068 7.403617
-8.816263 -51.958035 8.653983
0.001868 -0.060732 -0.001641
0.001856 -0.060486 -0.001634
0.001856 -0.060486 -0.001634
0.001856 -0.060486 -0.001634
-0.109730 -0.706930 -0.330892
-0.119255 -0.760575 -0.337817
-0.133434 -0.841862 -0.354579
-0.147376 -0.920601 -0.366131
-0.162167 -1.003966 -0.375434
-0.899410 -5.239545 -1.914213
-0.970722 -5.638103 -1.913918
-1.056639 -6.118533 -1.919744
-1.153129 -6.664334 -1.923058
-1.266980 -7.300707 -1.924882
-1.410450 -8.111486 -1.937268
-1.588584 -9.108781 -1.953144
-1.808440 -10.338919 -1.966589
-2.057312 -12.046111 -1.998037
-2.457016 -14.358281 -2.038646
-3.063088 -17.845991 -2.106608
-3.999038 -23.229778 -2.192141
-5.743624 -33.299526 -2.356012
0.001856 -0.060486 -0.001634
0.001856 -0.060486 -0.001634
0.001856 -0.060486 -0.001634
0.001856 -0.060486 -0.001634
0.001856 -0.060486 -0.001634
0.001856 -0.060486 -0.001634
-8.908824 -50.989708 4.828784
0.001856 -0.060486 -0.001634
-9.090201 -51.870842 7.398092
-9.106498 -51.859554 8.646246
0.001856 -0.060486 -0.001634
0.001845 -0.060241 -0.001627
0.001845 -0.060241 -0.001627
0.001845 -0.060241 -0.001627
-0.108125 -0.676122 -0.315632
-0.119452 -0.738255 -0.327545
-0.134840 -0.822810 -0.346439
-0.151993 -0.917655 -0.365353
-0.167932 -1.004596 -0.376153
-0.931094 -5.239413 -1.916252
-1.003123 -5.634030 -1.914547
-1.091477 -6.112097 -1.919732
-1.192613 -6.659028 -1.923595
-1.309311 -7.296853 -1.925882
-1.457451 -8.098896 -1.936332
-1.640447 -9.089330 -1.951051
-1.869681 -10.329690 -1.966943
-2.123130 -12.016337 -1.995104
-2.540002 -14.333470 -2.037235
-3.163261 -17.816086 -2.105197
-4.128402 -23.184563 -2.190074
-5.918382 -33.140900 -2.347203
0.001845 -0.060241 -0.001627
0.001845 -0.060241 -0.001627
0.001845 -0.060241 -0.001627
0.001845 -0.060241 -0.001627
0.001845 -0.060241 -0.001627
0.001845 -0.060241 -0.001627
-9.215516 -50.963169 4.831440
0.001845 -0.060241 -0.001627
-9.389736 -51.774872 7.392294
-9.407732 -51.773331 8.641105
0.001845 -0.060241 -0.001627
0.001832 -0.059993 -0.001620
0.001832 -0.059993 -0.001620
0.001832 -0.059993 -0.001620
-0.112431 -0.678726 -0.317419
-0.120399 -0.721297 -0.319838
-0.135258 -0.800215 -0.336672
-0.156745 -0.914667 -0.364574
-0.173360 -1.003349 -0.376145
-0.959842 -5.228169 -1.914190
-1.035530 -5.629776 -1.915175
-1.125928 -6.103584 -1.919124
-1.229845 -6.648015 -1.922481
-1.349859 -7.283239 -1.924350
-1.503317 -8.088211 -1.935858
-1.689721 -9.074019 -1.949790
-1.925510 -10.311131 -1.965447
-2.194661 -12.007157 -1.995735
-2.620976 -14.312510 -2.036383
-3.261972 -17.761604 -2.101004
-4.261764 -23.139837 -2.188192
-6.089017 -33.000118 -2.339649
0.001832 -0.059993 -0.001620
0.001832 -0.059993 -0.001620
0.001832 -0.059993 -0.001620
0.001832 -0.059993 -0.001620
0.001832 -0.059993 -0.001620
0.001832 -0.059993 -0.001620
-9.494195 -50.883297 4.828881
-10.691831 -57.184753 6.802482
-9.676500 -51.663280 7.384264
-9.689493 -51.684849 8.635310
0.001832 -0.059993 -0.001620
0.001820 -0.059748 -0.001613
0.001820 -0.059748 -0.001613
-0.083332 -0.507341 -0.243800
-0.118228 -0.690123 -0.323692
-0.122512 -0.711456 -0.315554
-0.134361 -0.772236 -0.324466
-0.161659 -0.913489 -0.364567
-0.178103 -0.998427 -0.374683
-0.990279 -5.226002 -1.915546
-1.068524 -5.623281 -1.915163
-1.161730 -6.096544 -1.919112
-1.268080 -6.642453 -1.923020
-1.392284 -7.272954 -1.923831
-1.549774 -8.073170 -1.934461
-1.742836 -9.053683 -1.947697
-1.986218 -10.299267 -1.965432
-2.259804 -11.986714 -1.994423
-2.696659 -14.263870 -2.031636
-3.356594 -17.721415 -2.098434
-4.385617 -23.090029 -2.185756
-6.278774 -32.966240 -2.339755
0.001820 -0.059748 -0.001613
0.001820 -0.059748 -0.001613
0.001820 -0.059748 -0.001613
0.001820 -0.059748 -0.001613
0.001820 -0.059748 -0.001613
0.001820 -0.059748 -0.001613
-9.784344 -50.769169 4.823535
-10.055892 -52.080494 6.201589
-9.976941 -51.577530 7.380414
-9.986721 -51.581699 8.627897
0.001820 -0.059748 -0.001613
0.001834 -0.059486 -0.001606
0.001834 -0.059486 -0.001606
0.001834 -0.059486 -0.001606
-0.120703 -0.682117 -0.320095
-0.126036 -0.708689 -0.314690
-0.135401 -0.755030 -0.317140
-0.166744 -0.912270 -0.364559
-0.184759 -1.002580 -0.376857
-1.018683 -5.208715 -1.911432
-1.100886 -5.618644 -1.915792
-1.197190 -6.093251 -1.920291
-1.307096 -6.634575 -1.923007
-1.435258 -7.272147 -1.925843
-1.595469 -8.061956 -1.933987
-1.792200 -9.039718 -1.946853
-2.044329 -10.283564 -1.964677
-2.332174 -11.970518 -1.994081
-2.776615 -14.226001 -2.028558
-3.458919 -17.673042 -2.095169
-4.520684 -23.035233 -2.183131
-6.465610 -32.887077 -2.336797
0.001834 -0.059486 -0.001606
0.001834 -0.059486 -0.001606
0.001834 -0.059486 -0.001606
0.001834 -0.059486 -0.001606
0.001834 -0.059486 -0.001606
0.001834 -0.059486 -0.001606
-10.061539 -50.639515 4.816699
0.001834 -0.059486 -0.001606
-10.271611 -51.511253 7.379346
-10.278697 -51.501831 8.624374
0.001834 -0.059486 -0.001606
0.001822 -0.059240 -0.001599
0.001822 -0.059240 -0.001599
-0.090581 -0.516215 -0.249418
-0.123097 -0.675907 -0.317396
-0.130367 -0.711252 -0.316394
-0.138921 -0.752214 -0.316319
-0.171873 -0.912875 -0.365322
-0.189272 -0.997621 -0.375394
-1.047781 -5.204543 -1.912105
-1.132646 -5.615874 -1.917060
-1.230067 -6.082480 -1.919089
-1.343361 -6.625034 -1.922444
-1.473924 -7.256193 -1.923806
-1.638927 -8.046964 -1.932591
-1.841478 -9.025490 -1.946008
-2.099351 -10.262118 -1.962812
-2.398569 -11.957058 -1.994065
-2.850900 -14.186744 -2.025204
-3.551621 -17.625967 -2.091905
-4.638869 -22.960594 -2.178470
-6.632370 -32.770077 -2.331057
0.001822 -0.059240 -0.001599
0.001822 -0.059240 -0.001599
0.001822 -0.059240 -0.001599
0.001822 -0.059240 -0.001599
0.001822 -0.059240 -0.001599
0.001822 -0.059240 -0.001599
-10.326369 -50.498459 4.808742
0.001822 -0.059240 -0.001599
0.001822 -0.059240 -0.001599
-10.555165 -51.393169 8.615982
0.001822 -0.059240 -0.001599
0.001808 -0.058991 -0.001592
0.001808 -0.058991 -0.001592
-0.101855 -0.556916 -0.271939
-0.125923 -0.671429 -0.315594
-0.134252 -0.710212 -0.316386
-0.140802 -0.740394 -0.311431
-0.176776 -0.911601 -0.365314
-0.194837 -0.996218 -0.375387
-1.076707 -5.190616 -1.909359
-1.164000 -5.601381 -1.914489
-1.266135 -6.076684 -1.919672
-1.381867 -6.614819 -1.921881
-1.516954 -7.248959 -1.924299
-1.685830 -8.034936 -1.932117
-1.895770 -9.011923 -1.945578
-2.161158 -10.246931 -1.962427
-2.464175 -11.929279 -1.991781
-2.934584 -14.169333 -2.025186
-3.645721 -17.571915 -2.087946
-4.761196 -22.888439 -2.174179
-6.813501 -32.669399 -2.326707
0.001808 -0.058991 -0.001592
0.001808 -0.058991 -0.001592
0.001808 -0.058991 -0.001592
0.001808 -0.058991 -0.001592
0.001808 -0.058991 -0.001592
0.001808 -0.058991 -0.001592
-10.622413 -50.379681 4.803582
0.001808 -0.058991 -0.001592
0.001808 -0.058991 -0.001592
-10.861666 -51.296646 8.610839
0.001808 -0.058991 -0.001592
0.001797 -0.058746 -0.001584
0.001797 -0.058746 -0.001584
-0.113348 -0.595773 -0.293522
-0.131812 -0.680898 -0.320970
-0.137622 -0.707402 -0.315523
-0.145866 -0.744664 -0.313864
-0.181438 -0.908472 -0.364536
-0.200220 -0.994815 -0.375379
-1.107008 -5.187755 -1.910715
-1.195888 -5.594349 -1.914477
-1.299525 -6.063447 -1.917875
-1.419568 -6.606505 -1.921869
-1.558703 -7.241745 -1.924793
-1.730870 -8.021050 -1.931183
-1.944837 -8.997117 -1.944734
-2.216709 -10.228705 -1.961302
-2.533249 -11.908413 -1.990793
-3.011147 -14.130652 -2.022110
-3.743218 -17.520605 -2.084450
-4.892664 -22.842035 -2.172484
-6.992602 -32.590397 -2.323891
0.001797 -0.058746 -0.001584
-13.197880 -61.299690 -1.447603
0.001797 -0.058746 -0.001584
0.001797 -0.058746 -0.001584
0.001797 -0.058746 -0.001584
0.001797 -0.058746 -0.001584
-10.897889 -50.296021 4.801390
0.001797 -0.058746 -0.001584
0.001797 -0.058746 -0.001584
-11.143556 -51.217651 8.607962
0.001797 -0.058746 -0.001584
0.001784 -0.058498 -0.001577
0.001784 -0.058498 -0.001577
-0.113690 -0.582802 -0.286943
-0.137207 -0.688620 -0.325448
-0.140966 -0.704576 -0.314660
-0.150223 -0.745346 -0.314669
-0.188993 -0.919813 -0.369922
-0.206430 -0.997037 -0.376825
-1.136087 -5.179205 -1.910021
-1.227720 -5.587121 -1.914466
-1.334471 -6.057481 -1.918458
-1.457197 -6.597963 -1.921857
-1.600426 -7.234291 -1.925287
-1.774939 -8.003098 -1.929326
-1.996936 -8.981359 -1.943888
-2.276951 -10.215129 -1.961287
-2.599332 -11.893854 -1.990777
-3.094188 -14.122517 -2.023483
-3.836286 -17.479792 -2.082114
-5.014962 -22.792746 -2.170420
-7.173158 -32.520138 -2.321772
0.001784 -0.058498 -0.001577
0.001784 -0.058498 -0.001577
0.001784 -0.058498 -0.001577
0.001784 -0.058498 -0.001577
0.001784 -0.058498 -0.001577
0.001784 -0.058498 -0.001577
-11.188547 -50.199192 4.798460
0.001784 -0.058498 -0.001577
0.001784 -0.058498 -0.001577
-11.444871 -51.142719 8.606709
0.001784 -0.058498 -0.001577
0.001798 -0.058236 -0.001570
0.001798 -0.058236 -0.001570
-0.128109 -0.631807 -0.314158
-0.139382 -0.680575 -0.321852
-0.145605 -0.706998 -0.316363
-0.155397 -0.749559 -0.317101
-0.193669 -0.916604 -0.369144
-0.210752 -0.990087 -0.374636
-1.164285 -5.166835 -1.907959
-1.257916 -5.568393 -1.910616
-1.371292 -6.054794 -1.920233
-1.493517 -6.583597 -1.920192
-1.641213 -7.216884 -1.923249
-1.820640 -7.992514 -1.929313
-2.048247 -8.969472 -1.943875
-2.334455 -10.197768 -1.960533
-2.666820 -11.866425 -1.988818
-3.171096 -14.086830 -2.020963
-3.934664 -17.435186 -2.079545
-5.138604 -22.713808 -2.165758
-7.330626 -32.349674 -2.312551
0.001798 -0.058236 -0.001570
0.001798 -0.058236 -0.001570
0.001798 -0.058236 -0.001570
0.001798 -0.058236 -0.001570
0.001798 -0.058236 -0.001570
0.001798 -0.058236 -0.001570
-11.470585 -50.106560 4.795898
0.001798 -0.058236 -0.001570
0.001798 -0.058236 -0.001570
-11.730601 -51.041145 8.600912
0.001798 -0.058236 -0.001570
0.001786 -0.057991 -0.001563
0.001786 -0.057991 -0.001563
-0.135421 -0.648007 -0.323538
-0.144983 -0.688201 -0.326330
-0.147581 -0.698870 -0.312934
-0.159796 -0.750175 -0.317907
-0.197789 -0.911636 -0.367595
-0.217221 -0.994078 -0.376810
-1.193238 -5.157973 -1.907264
-1.290377 -5.568419 -1.913165
-1.403836 -6.043068 -1.919032
-1.530601 -6.572773 -1.919630
-1.682445 -7.213006 -1.924756
-1.865804 -7.979752 -1.928840
-2.095217 -8.946218 -1.941369
-2.392341 -10.190073 -1.961630
-2.733815 -11.846785 -1.988154
-3.249514 -14.058454 -2.019555
-4.031870 -17.400396 -2.078136
-5.260282 -22.646776 -2.162210
-7.500426 -32.238712 -2.307648
0.001786 -0.057991 -0.001563
0.001786 -0.057991 -0.001563
0.001786 -0.057991 -0.001563
0.001786 -0.057991 -0.001563
0.001786 -0.057991 -0.001563
0.001786 -0.057991 -0.001563
-11.744589 -50.020210 4.793891
0.001786 -0.057991 -0.001563
0.001786 -0.057991 -0.001563
-12.009389 -50.951603 8.597058
0.001786 -0.057991 -0.001563
0.001774 -0.057745 -0.001556
0.001774 -0.057745 -0.001556
-0.141583 -0.659009 -0.330101
-0.146007 -0.676690 -0.320940
-0.151681 -0.699502 -0.313782
-0.162501 -0.743654 -0.315460
-0.199533 -0.897689 -0.362193
-0.222610 -0.992554 -0.376802
-1.222559 -5.150766 -1.907254
-1.321161 -5.556953 -1.911874
-1.437366 -6.030932 -1.917829
-1.567605 -6.561734 -1.919067
-1.722690 -7.199200 -1.923732
-1.911342 -7.968628 -1.928828
-2.147423 -8.931496 -1.940939
-2.451435 -10.171638 -1.960875
-2.798160 -11.825332 -1.987168
-3.328625 -14.033490 -2.018705
-4.128543 -17.377377 -2.078118
-5.379276 -22.587774 -2.159406
-7.624626 -31.940580 -2.289379
-7.592840 -31.784161 -1.518384
-7.644886 -31.953218 -0.758534
0.001774 -0.057745 -0.001556
0.001774 -0.057745 -0.001556
0.001774 -0.057745 -0.001556
0.001774 -0.057745 -0.001556
-12.037258 -49.935902 4.792632
0.001774 -0.057745 -0.001556
0.001774 -0.057745 -0.001556
-12.307606 -50.865833 8.594831
0.001774 -0.057745 -0.001556
0.001763 -0.057499 -0.001549
0.001763 -0.057499 -0.001549
-0.145560 -0.659608 -0.331032
-0.152660 -0.687709 -0.327212
-0.156784 -0.703602 -0.316341
-0.169494 -0.754864 -0.321145
-0.208494 -0.912372 -0.369120
-0.229925 -0.998188 -0.379704
-1.251841 -5.143391 -1.907243
-1.350580 -5.535907 -1.907383
-1.472750 -6.022051 -1.917818
-1.603147 -6.544883 -1.916852
-1.764048 -7.184841 -1.922707
-1.956359 -7.955358 -1.928354
-2.197960 -8.916835 -1.940511
-2.510058 -10.159021 -1.961231
-2.866472 -11.802539 -1.986180
-3.408505 -14.011933 -2.018410
-4.231606 -17.354277 -2.078330
-5.510334 -22.545553 -2.158456
-7.760376 -31.702158 -2.275427
-7.793154 -31.788786 -1.520769
0.001763 -0.057499 -0.001549
0.001763 -0.057499 -0.001549
0.001763 -0.057499 -0.001549
0.001763 -0.057499 -0.001549
0.001763 -0.057499 -0.001549
-12.320172 -49.850098 4.791184
0.001763 -0.057499 -0.001549
0.001763 -0.057499 -0.001549
-12.590677 -50.757542 8.588707
0.001763 -0.057499 -0.001549
0.001751 -0.057254 -0.001542
0.001751 -0.057254 -0.001542
-0.149899 -0.661936 -0.332902
-0.157151 -0.690023 -0.328999
-0.162722 -0.711205 -0.320610
-0.173951 -0.755388 -0.321950
-0.211598 -0.903734 -0.366031
-0.235353 -0.996601 -0.379696
-1.279691 -5.130376 -1.905181
-1.383010 -5.531466 -1.908652
-1.507022 -6.013211 -1.917807
-1.640434 -6.535288 -1.916841
-1.807899 -7.185582 -1.925732
-2.002232 -7.945593 -1.928803
-2.248890 -8.903786 -1.940498
-2.568612 -10.146059 -1.961587
-2.934458 -11.787501 -1.986490
-3.487764 -13.987993 -2.017837
-4.328639 -17.319763 -2.077152
-5.636710 -22.501642 -2.157320
-7.641198 -30.459013 -2.189212
0.001751 -0.057254 -0.001542
0.001751 -0.057254 -0.001542
0.001751 -0.057254 -0.001542
0.001751 -0.057254 -0.001542
0.001751 -0.057254 -0.001542
0.001751 -0.057254 -0.001542
-12.603509 -49.766571 4.790108
-12.784087 -50.406315 6.080627
0.001751 -0.057254 -0.001542
-12.879215 -50.672523 8.586800
0.001751 -0.057254 -0.001542
0.001765 -0.056992 -0.001535
0.001765 -0.056992 -0.001535
-0.154236 -0.664211 -0.334773
-0.157695 -0.676743 -0.322711
-0.163772 -0.699490 -0.315470
-0.175698 -0.745276 -0.317877
-0.217857 -0.907604 -0.368335
-0.239827 -0.991365 -0.378233
-1.307929 -5.119040 -1.903803
-1.413039 -5.517647 -1.906722
-1.539843 -5.998651 -1.916009
-1.677698 -6.525502 -1.916829
-1.842536 -7.150453 -1.919140
-2.046124 -7.928047 -1.927408
-2.299252 -8.888550 -1.940070
-2.627122 -10.132769 -1.961944
-3.000929 -11.766356 -1.985827
-3.567843 -13.967437 -2.017821
-4.425407 -17.284702 -2.075976
-5.762269 -22.455091 -2.156000
-8.009007 -31.163942 -2.243208
-7.826965 -30.413912 -1.459128
0.001765 -0.056992 -0.001535
0.001765 -0.056992 -0.001535
0.001765 -0.056992 -0.001535
0.001765 -0.056992 -0.001535
0.001765 -0.056992 -0.001535
-12.887270 -49.685265 4.789403
-13.103525 -50.447014 6.094622
0.001765 -0.056992 -0.001535
-13.167205 -50.585865 8.584892
0.001765 -0.056992 -0.001535
0.001753 -0.056746 -0.001528
0.001753 -0.056746 -0.001528
-0.158200 -0.664773 -0.335703
-0.163077 -0.682476 -0.326293
-0.168390 -0.701772 -0.317174
-0.178261 -0.738695 -0.315430
-0.224176 -0.911436 -0.370639
-0.247094 -0.996905 -0.381135
-1.337022 -5.111169 -1.903793
-1.444435 -5.509172 -1.906711
-1.572531 -5.983903 -1.914212
-1.711920 -6.504336 -1.913512
-1.883310 -7.139476 -1.919129
-2.091379 -7.915891 -1.927396
-2.350541 -8.876819 -1.940472
-2.684535 -10.115333 -1.961560
-3.068231 -11.748634 -1.985812
-3.643792 -13.931106 -2.015581
-4.523936 -17.256779 -2.075726
-5.888986 -22.413607 -2.155237
-8.012851 -30.453453 -2.195285
-7.996365 -30.348806 -1.458173
-9.048743 -34.287052 -0.818589
-10.031950 -37.979836 0.003983
-10.031985 -37.927410 0.913565
0.001753 -0.056746 -0.001528
0.001753 -0.056746 -0.001528
-13.166922 -49.588867 4.787395
0.001753 -0.056746 -0.001528
-14.981912 -56.299904 8.186994
-13.453611 -50.493763 8.582335
0.001753 -0.056746 -0.001528
0.001741 -0.056500 -0.001521
0.001741 -0.056500 -0.001521
-0.161702 -0.663596 -0.335696
-0.168551 -0.688177 -0.329873
-0.173521 -0.705772 -0.319733
-0.193745 -0.779696 -0.334939
-0.228612 -0.908093 -0.369861
-0.251556 -0.991628 -0.379672
-1.364010 -5.092015 -1.899680
-1.478274 -5.509666 -1.909900
-1.605588 -5.970805 -1.913011
-1.751109 -6.497521 -1.914603
-1.923012 -7.124535 -1.918105
-2.136379 -7.897458 -1.926001
-2.401731 -8.858685 -1.939629
-2.742023 -10.091392 -1.960067
-3.134428 -11.726727 -1.985150
-3.730084 -13.924308 -2.017789
-4.620213 -17.220613 -2.074550
-6.015948 -22.373333 -2.154659
-8.520551 -31.618662 -2.282974
-8.245016 -30.577847 -1.471430
-9.109232 -33.730431 -0.806518
0.001741 -0.056500 -0.001521
-8.213941 -30.359995 0.731870
0.001741 -0.056500 -0.001521
0.001741 -0.056500 -0.001521
-13.458206 -49.502010 4.786690
0.001741 -0.056500 -0.001521
-15.318164 -56.221310 8.188710
-13.749749 -50.403347 8.580752
0.001741 -0.056500 -0.001521
0.001730 -0.056255 -0.001514
0.001730 -0.056255 -0.001514
-0.166701 -0.667468 -0.338505
-0.176108 -0.700698 -0.337043
-0.187014 -0.739330 -0.336833
-0.209726 -0.820542 -0.354449
-0.230221 -0.894018 -0.364459
-0.256602 -0.988067 -0.378938
-1.395348 -5.089021 -1.901721
-1.510072 -5.498728 -1.909250
-1.642168 -5.966454 -1.914786
-1.790297 -6.490479 -1.915693
-1.964357 -7.110890 -1.917587
-2.182307 -7.882532 -1.925528
-2.451760 -8.836502 -1.937954
-2.801995 -10.076605 -1.960423
-3.201991 -11.701986 -1.984163
-3.810655 -13.895977 -2.016938
-4.725058 -17.204172 -2.075922
-6.145998 -22.329348 -2.153896
-8.691540 -31.509657 -2.278768
-7.997617 -28.980034 -1.396724
-8.143191 -29.467144 -0.705723
-8.360670 -30.212246 0.002923
-8.391811 -30.304735 0.731757
0.001730 -0.056255 -0.001514
0.001730 -0.056255 -0.001514
-13.750524 -49.419189 4.786544
-13.875952 -49.837025 6.049385
-14.150765 -50.755623 7.403858
0.001730 -0.056255 -0.001514
0.001730 -0.056255 -0.001514
0.001715 -0.056004 -0.001506
-0.129580 -0.522631 -0.273788
-0.171083 -0.669671 -0.340374
-0.178241 -0.694274 -0.334344
-0.196721 -0.758891 -0.347090
-0.215500 -0.824381 -0.356881
-0.234373 -0.890665 -0.363681
-0.260787 -0.982772 -0.377475
-1.422366 -5.077272 -1.900344
-1.538853 -5.484484 -1.907320
-1.675100 -5.956932 -1.914776
-1.825648 -6.478287 -1.915131
-2.003689 -7.099565 -1.917576
-2.225389 -7.868095 -1.925056
-2.501243 -8.824311 -1.938357
-2.856226 -10.054886 -1.959300
-3.265290 -11.677974 -1.983178
-3.888323 -13.876143 -2.017202
-4.817935 -17.167717 -2.074747
-6.266375 -22.281046 -2.152578
-8.235699 -29.225473 -2.116682
0.001715 -0.056004 -0.001506
-8.025690 -28.426332 -0.681847
-8.107338 -28.677429 0.002726
0.001715 -0.056004 -0.001506
0.001715 -0.056004 -0.001506
0.001715 -0.056004 -0.001506
-14.023496 -49.333797 4.785833
0.001715 -0.056004 -0.001506
0.001715 -0.056004 -0.001506
0.001715 -0.056004 -0.001506
-2.439337 -8.599530 1.673908
0.001729 -0.055742 -0.001499
-0.142019 -0.555127 -0.293369
-0.173255 -0.663296 -0.337551
-0.185979 -0.706681 -0.341514
-0.201894 -0.760928 -0.348794
-0.224473 -0.838659 -0.364192
-0.242407 -0.899645 -0.368297
-0.268867 -0.989895 -0.381104
-1.452300 -5.072374 -1.901701
-1.570997 -5.475006 -1.907310
-1.709532 -5.944817 -1.914169
-1.859857 -6.458176 -1.912366
-2.044334 -7.083600 -1.916552
-2.269765 -7.853048 -1.924584
-2.551653 -8.809523 -1.938345
-2.910393 -10.026711 -1.957067
-3.327594 -11.635406 -1.979276
-3.969420 -13.859008 -2.018021
-4.919820 -17.140507 -2.074961
-6.395796 -22.235605 -2.151815
-9.000324 -31.245689 -2.266885
0.001729 -0.055742 -0.001499
-8.189271 -28.362644 -0.681453
0.001729 -0.055742 -0.001499
-8.821128 -30.487957 0.738672
0.001729 -0.055742 -0.001499
0.001729 -0.055742 -0.001499
-14.306738 -49.252037 4.785868
0.001729 -0.055742 -0.001499
0.001729 -0.055742 -0.001499
-2.512249 -8.671952 1.474436
0.001729 -0.055742 -0.001499
0.001717 -0.055496 -0.001492
-0.145866 -0.557378 -0.295321
-0.177238 -0.663716 -0.338482
-0.190752 -0.708779 -0.343300
-0.205323 -0.757800 -0.347931
-0.226392 -0.828332 -0.360119
-0.246211 -0.894435 -0.366748
-0.273551 -0.986334 -0.380369
-1.480598 -5.061872 -1.901007
-1.600680 -5.464092 -1.906659
-1.740192 -5.927613 -1.911777
-1.896667 -6.447116 -1.912355
-2.082394 -7.068113 -1.915529
-2.312912 -7.834002 -1.923190
-2.598209 -8.787394 -1.936671
-2.962605 -9.998763 -1.954835
-3.391357 -11.606335 -1.977643
-4.048765 -13.835686 -2.018006
-5.017470 -17.109760 -2.074713
-6.514845 -22.169538 -2.149013
-9.179053 -31.191235 -2.266721
-8.312872 -28.218046 -1.366652
-8.337407 -28.283659 -0.680647
-8.689681 -29.439022 0.002901
-9.001741 -30.455626 0.739164
0.001717 -0.055496 -0.001492
0.001717 -0.055496 -0.001492
-14.579817 -49.167377 4.785528
0.001717 -0.055496 -0.001492
-2.551519 -8.633435 1.257642
-2.519148 -8.519466 1.450757
0.001717 -0.055496 -0.001492
0.001705 -0.055251 -0.001485
-0.154198 -0.574681 -0.306087
-0.178625 -0.655709 -0.334720
-0.195424 -0.710867 -0.345087
-0.210913 -0.761533 -0.350490
-0.231364 -0.828505 -0.360924
-0.252497 -0.898092 -0.369052
-0.277278 -0.979127 -0.378180
-1.508844 -5.051222 -1.900314
-1.630676 -5.450911 -1.905369
-1.774499 -5.919074 -1.912362
-1.932313 -6.432176 -1.911242
-2.122141 -7.053908 -1.915012
-2.356505 -7.816595 -1.922257
-2.649922 -8.771582 -1.936659
-3.020367 -9.977024 -1.954082
-3.453490 -11.579431 -1.976333
-4.127967 -13.811908 -2.017992
-5.111969 -17.079359 -2.074465
-6.636381 -22.126875 -2.148438
-9.335018 -31.061251 -2.261128
-8.469841 -28.170980 -1.366631
-8.500237 -28.236883 -0.680670
-9.169728 -30.418337 0.003079
-9.176372 -30.421892 0.739606
0.001705 -0.055251 -0.001485
0.001705 -0.055251 -0.001485
-14.868360 -49.072216 4.784821
-15.092200 -49.779858 6.083016
-2.629041 -8.711202 1.271306
-2.614662 -8.653276 1.476407
-2.540646 -8.404970 1.644297
0.001693 -0.055005 -0.001478
-0.158802 -0.578494 -0.309018
-0.185278 -0.664499 -0.340345
-0.196680 -0.700889 -0.340594
-0.216182 -0.763477 -0.352193
-0.235290 -0.825165 -0.360104
-0.256947 -0.894557 -0.368274
-0.286057 -0.987897 -0.382536
-1.536450 -5.038607 -1.898936
-1.662624 -5.440889 -1.905359
-1.808103 -5.904551 -1.911161
-1.972948 -6.433552 -1.915089
-2.164736 -7.044645 -1.916013
-2.399378 -7.797069 -1.920863
-2.699453 -8.754074 -1.936232
-3.073875 -9.947953 -1.951850
-3.518264 -11.547175 -1.974376
-4.204135 -13.778205 -2.016587
-5.209868 -17.039003 -2.073290
-6.767675 -22.088795 -2.148603
-9.491529 -30.936211 -2.255952
0.001693 -0.055005 -0.001478
-8.666553 -28.183844 -0.680601
0.001693 -0.055005 -0.001478
-9.360348 -30.380093 0.739958
0.001693 -0.055005 -0.001478
0.001693 -0.055005 -0.001478
-15.150125 -48.985619 4.784854
-15.378423 -49.662689 6.079797
-15.564990 -50.234509 7.390102
-2.585656 -8.385290 1.432932
-2.595355 -8.406395 1.647644
0.001682 -0.054759 -0.001471
-0.162346 -0.578980 -0.309990
-0.188801 -0.663174 -0.340337
-0.200947 -0.701204 -0.341484
-0.219717 -0.760238 -0.351330
-0.240824 -0.827031 -0.361722
-0.262342 -0.894574 -0.369037
-0.290866 -0.984198 -0.381801
-1.565647 -5.031214 -1.899611
-1.691317 -5.423757 -1.902789
-1.840578 -5.890154 -1.909960
-2.007865 -6.416334 -1.913426
-2.201996 -7.022596 -1.913471
-2.443896 -7.782891 -1.920851
-2.747690 -8.732554 -1.934973
-3.127189 -9.918618 -1.949617
-3.584919 -11.528378 -1.974687
-4.278880 -13.740306 -2.014626
-5.305103 -17.000902 -2.072347
-6.890756 -22.037849 -2.147471
-9.657073 -30.842760 -2.253145
0.001682 -0.054759 -0.001471
-8.833018 -28.148516 -0.680948
-9.415811 -29.984074 0.003076
-9.539465 -30.340744 0.740355
0.001682 -0.054759 -0.001471
0.001682 -0.054759 -0.001471
-15.436174 -48.912586 4.786376
-15.734278 -49.796631 6.107276
-17.502394 -55.353302 8.158887
-2.762317 -8.776368 1.503041
-2.670714 -8.477246 1.664703
0.001695 -0.054496 -0.001464
-0.172771 -0.601026 -0.323695
-0.191234 -0.658458 -0.338452
-0.204677 -0.699783 -0.341476
-0.223774 -0.758702 -0.351322
-0.244283 -0.821848 -0.360088
-0.267172 -0.892790 -0.369029
-0.299070 -0.991126 -0.385429
-1.595130 -5.021595 -1.899601
-1.722745 -5.415476 -1.903420
-1.873537 -5.877396 -1.909354
-2.041420 -6.391261 -1.909558
-2.242055 -7.009562 -1.913460
-2.489059 -7.766156 -1.920379
-2.797877 -8.712133 -1.934130
-3.183167 -9.892163 -1.948124
-3.648457 -11.499780 -1.973378
-4.355099 -13.699349 -2.012387
-5.401304 -16.966068 -2.071868
-7.015265 -21.991884 -2.146897
-9.830876 -30.758123 -2.251171
-8.972093 -28.060150 -1.368607
-9.000611 -28.116022 -0.681387
-9.149632 -28.546934 0.002889
-9.723332 -30.315563 0.741125
-17.720842 -55.136333 2.705352
0.001695 -0.054496 -0.001464
-15.724878 -48.818062 4.786224
-15.910975 -49.366634 6.065674
-17.830477 -55.250210 8.159204
0.001695 -0.054496 -0.001464
-2.776012 -8.637247 1.699550
0.001683 -0.054250 -0.001457
-0.174399 -0.594763 -0.320749
-0.194811 -0.657050 -0.338445
-0.212931 -0.711890 -0.348646
-0.226711 -0.753710 -0.349604
-0.249827 -0.823642 -0.361708
-0.269846 -0.883918 -0.365940
-0.303882 -0.987364 -0.384694
-1.623103 -5.010298 -1.898907
-1.751779 -5.399814 -1.901490
-1.906995 -5.866256 -1.909345
-2.076645 -6.375505 -1.908446
-2.281435 -6.994457 -1.912943
-2.531560 -7.745909 -1.918986
-2.846727 -8.697985 -1.934535
-3.237385 -9.872132 -1.947743
-3.713789 -11.470187 -1.972069
-4.439671 -13.692654 -2.015153
-5.506372 -16.948606 -2.073705
-7.140254 -21.934532 -2.145394
-10.003646 -30.689438 -2.250313
-9.147863 -28.036600 -1.370071
-9.169983 -28.088234 -0.681966
-9.897341 -30.276377 0.003184
-9.903765 -30.260935 0.741242
-18.041769 -55.046494 2.706041
0.001683 -0.054250 -0.001457
-15.998541 -48.735016 4.786812
-16.168941 -49.196651 6.056169
-18.146481 -55.142693 8.158681
-16.322174 -49.576931 8.573276
0.001683 -0.054250 -0.001457
0.001671 -0.054004 -0.001450
-0.178534 -0.596844 -0.322700
-0.198718 -0.657363 -0.339377
-0.212643 -0.698553 -0.342359
-0.231862 -0.755555 -0.351308
-0.255288 -0.825453 -0.363326
-0.276810 -0.889143 -0.369015
-0.311609 -0.992409 -0.387596
-1.650126 -4.999125 -1.898214
-1.785537 -5.398391 -1.904680
-1.938576 -5.849497 -1.907548
-2.111262 -6.361739 -1.907885
-2.321321 -6.980958 -1.912933
-2.575042 -7.733252 -1.919436
-2.894544 -8.675649 -1.933277
-3.293204 -9.851236 -1.947361
-3.775552 -11.443417 -1.971085
-4.511298 -13.654249 -2.013194
-5.598662 -16.911724 -2.072995
-7.252747 -21.865746 -2.142595
-10.163040 -30.598825 -2.247786
0.001671 -0.054004 -0.001450
-9.339327 -28.059412 -0.682545
-10.077810 -30.256487 0.003210
-10.084147 -30.240988 0.742150
-18.359741 -54.947224 2.706356
0.001671 -0.054004 -0.001450
-16.278948 -48.643791 4.787028
-16.452667 -49.106342 6.056665
-18.453497 -55.040340 8.158712
-3.325436 -9.955686 1.716292
0.001671 -0.054004 -0.001450
0.001659 -0.053759 -0.001443
-0.186682 -0.610412 -0.331508
-0.202215 -0.655965 -0.339369
-0.216941 -0.698762 -0.343249
-0.235332 -0.752248 -0.350445
-0.260444 -0.825392 -0.364132
-0.281020 -0.885529 -0.368237
-0.315213 -0.985054 -0.385406
-1.680009 -4.990772 -1.898889
-1.813789 -5.380588 -1.902111
-1.971272 -5.836186 -1.906943
-2.148617 -6.348858 -1.907874
-2.361135 -6.967231 -1.912923
-2.620532 -7.717607 -1.919425
-2.944965 -8.656233 -1.932850
-3.349290 -9.825700 -1.946239
-3.839765 -11.417524 -1.970424
-4.591836 -13.627014 -2.013180
-5.701274 -16.895908 -2.075065
-7.371737 -21.804562 -2.140722
-10.293245 -30.388531 -2.236765
-9.497119 -28.027128 -1.374767
-9.511225 -28.037148 -0.683309
-10.118110 -29.788887 0.003170
-10.264753 -30.203049 0.742686
-18.676537 -54.844234 2.706576
0.001659 -0.053759 -0.001443
-16.570536 -48.557487 4.788177
-16.789198 -49.170380 6.076466
-18.784882 -54.946598 8.161256
-16.910378 -49.414116 8.578856
-3.339285 -9.799451 1.941211
0.001648 -0.053513 -0.001435
-0.191107 -0.612323 -0.333460
-0.206344 -0.656157 -0.340301
-0.221357 -0.698900 -0.344138
-0.241243 -0.755704 -0.353004
-0.263096 -0.818445 -0.361685
-0.287784 -0.888834 -0.370540
-0.320715 -0.982898 -0.385399
-1.706545 -4.975446 -1.896828
-1.846587 -5.373071 -1.903381
-2.005521 -5.824147 -1.906933
-2.184161 -6.334318 -1.907314
-2.401433 -6.951028 -1.912406
-2.663280 -7.698459 -1.918493
-2.989916 -8.625974 -1.929930
-3.402862 -9.798592 -1.944747
-3.907690 -11.396168 -1.970735
-4.670496 -13.601994 -2.013444
-5.801006 -16.861565 -2.075049
-7.495315 -21.745163 -2.139220
-10.472157 -30.341766 -2.237719
-9.653610 -27.943655 -1.373446
-9.690692 -28.019705 -0.684256
-10.281800 -29.709146 0.003188
-10.451797 -30.165968 0.743315
-19.005554 -54.745510 2.707265
0.001648 -0.053513 -0.001435
-16.853245 -48.472385 4.789323
0.001648 -0.053513 -0.001435
-17.331347 -49.763851 7.405341
-17.193420 -49.313889 8.578562
-3.039103 -8.755072 1.736654
0.001636 -0.053267 -0.001428
-0.195485 -0.614251 -0.335411
-0.210417 -0.656378 -0.341232
-0.224459 -0.695659 -0.343234
-0.244084 -0.750638 -0.351285
-0.269308 -0.821823 -0.364117
-0.291962 -0.885157 -0.369763
-0.331669 -0.996603 -0.391936
-1.736087 -4.968836 -1.898186
-1.876535 -5.360322 -1.902731
-2.038695 -5.812260 -1.906923
-2.220905 -6.323205 -1.907855
-2.439790 -6.933200 -1.911383
-2.705269 -7.677256 -1.917100
-3.037198 -8.602831 -1.928673
-3.458871 -9.778599 -1.944736
-3.969601 -11.363927 -1.969104
-4.745090 -13.565309 -2.012041
-5.893664 -16.816423 -2.073644
-7.609401 -21.671375 -2.136235
-10.128524 -28.811075 -2.128968
-9.840473 -27.962767 -1.377141
-9.866712 -28.006594 -0.685297
-10.334330 -29.315456 0.003156
-10.613523 -30.073038 0.742542
-19.321873 -54.640656 2.707577
0.001636 -0.053267 -0.001428
-17.132183 -48.376255 4.789538
-17.315229 -48.839363 6.060246
-17.628967 -49.696648 7.410385
-17.487764 -49.245510 8.584107
0.001636 -0.053267 -0.001428
0.001647 -0.053001 -0.001421
-0.195775 -0.604641 -0.330507
-0.212081 -0.649892 -0.338408
-0.228774 -0.695783 -0.344123
-0.247491 -0.747259 -0.350422
-0.273113 -0.818277 -0.363297
-0.296755 -0.883204 -0.369755
-0.335822 -0.990903 -0.390474
-1.764979 -4.960275 -1.898860
-1.906385 -5.347386 -1.902082
-2.070501 -5.796584 -1.905723
-2.254319 -6.302824 -1.905641
-2.480636 -6.922423 -1.912386
-2.747767 -7.657649 -1.916168
-3.086998 -8.586795 -1.929078
-3.514763 -9.758279 -1.944725
-4.032620 -11.335073 -1.968120
-4.822064 -13.535651 -2.011750
-5.984626 -16.767006 -2.071777
-7.712797 -21.568871 -2.130469
-10.497252 -29.319221 -2.170992
0.001647 -0.053001 -0.001421
-10.051044 -28.014973 -0.686893
-10.145765 -28.263483 0.003019
-10.715608 -29.815586 0.737703
-19.643715 -54.550900 2.708728
0.001647 -0.053001 -0.001421
-17.420036 -48.304726 4.792356
-17.461229 -48.366920 6.013986
-19.748981 -54.667469 8.169430
-17.773165 -49.151249 8.585433
-3.108236 -8.634013 1.719629
0.001635 -0.052755 -0.001414
-0.199571 -0.604902 -0.331479
-0.216143 -0.650075 -0.339339
-0.232466 -0.694195 -0.344116
-0.253964 -0.752354 -0.353837
-0.278160 -0.818161 -0.364102
-0.305330 -0.891621 -0.374371
-0.342511 -0.992203 -0.391921
-1.792546 -4.948024 -1.898167
-1.939435 -5.343198 -1.904633
-2.102843 -5.782523 -1.905118
-2.290253 -6.289505 -1.905631
-2.522800 -6.915053 -1.914400
-2.790811 -7.639639 -1.915697
-3.134708 -8.564979 -1.928236
-3.569179 -9.733953 -1.943973
-4.094760 -11.304013 -1.966812
-4.898204 -13.503718 -2.011181
-6.074571 -16.715258 -2.069678
-7.815980 -21.467781 -2.124888
0.001635 -0.052755 -0.001414
0.001635 -0.052755 -0.001414
-18.332382 -50.142666 -1.231884
-19.911083 -54.427292 0.007185
-19.933937 -54.431885 1.351886
-19.967922 -54.466736 2.710253
0.001635 -0.052755 -0.001414
-17.701458 -48.214664 4.793500
-17.733412 -48.250504 6.012153
-20.146992 -54.781277 8.203732
-18.061472 -49.064587 8.588382
-3.224904 -8.798273 1.756329
0.001623 -0.052509 -0.001407
-0.205169 -0.610021 -0.335389
-0.219572 -0.648557 -0.339332
-0.236781 -0.694265 -0.345006
-0.259264 -0.754022 -0.355540
-0.283964 -0.819660 -0.365721
-0.309520 -0.887868 -0.373593
-0.351176 -0.998692 -0.395550
-1.822841 -4.940574 -1.899526
-1.969177 -5.329921 -1.903983
-2.133111 -5.762928 -1.902726
-2.324482 -6.268356 -1.903417
-2.562232 -6.900166 -1.914391
-2.835054 -7.620885 -1.915225
-3.183032 -8.540485 -1.926979
-3.625130 -9.708695 -1.943222
-4.154629 -11.267068 -1.964532
-4.972337 -13.459336 -2.008943
0.001623 -0.052509 -0.001407
-7.932107 -21.403538 -2.123017
-9.857569 -26.557440 -1.974658
-15.457065 -41.589298 -2.061627
-18.752880 -50.392120 -1.240620
-10.351573 -27.812733 0.003006
-20.259020 -54.349770 1.352756
0.001623 -0.052509 -0.001407
0.001623 -0.052509 -0.001407
-17.992891 -48.125408 4.795204
-18.004141 -48.130692 6.010086
-20.468973 -54.655087 8.202929
-18.362780 -48.985977 8.593603
-3.135604 -8.407644 1.681478
0.001612 -0.052264 -0.001400
-0.209079 -0.610159 -0.336361
-0.223108 -0.646987 -0.339325
-0.241216 -0.694259 -0.345896
-0.262145 -0.748835 -0.353822
-0.287737 -0.816050 -0.364901
-0.315132 -0.887489 -0.374356
-0.359407 -1.003288 -0.398451
-1.848928 -4.924476 -1.897466
-2.001761 -5.321434 -1.905254
-2.168966 -5.755283 -1.904503
-2.363642 -6.263617 -1.906163
-2.601412 -6.880993 -1.913368
-2.879231 -7.606005 -1.915676
-3.234627 -8.529103 -1.928630
-3.676415 -9.676412 -1.940991
-4.216152 -11.229061 -1.962253
-5.044483 -13.417281 -2.006984
-6.255427 -16.607349 -2.065248
-8.028212 -21.275795 -2.115025
-10.082651 -26.692236 -1.988979
-15.298764 -40.429943 -2.008574
0.001612 -0.052264 -0.001400
-16.802832 -44.330696 0.005671
0.001612 -0.052264 -0.001400
0.001612 -0.052264 -0.001400
0.001612 -0.052264 -0.001400
-18.276268 -48.039471 4.797091
-18.300133 -48.052567 6.013836
-20.580877 -54.006943 8.123265
-18.651730 -48.899544 8.597199
-3.166138 -8.339088 1.671483
0.001600 -0.052018 -0.001393
-0.212296 -0.608691 -0.336354
-0.228443 -0.650389 -0.342133
-0.242990 -0.687603 -0.343197
-0.266035 -0.747106 -0.353814
-0.292145 -0.814133 -0.364893
-0.321249 -0.888837 -0.375890
-0.361374 -0.992331 -0.394808
-1.878961 -4.918761 -1.899508
-2.031138 -5.309937 -1.905245
-2.200044 -5.741048 -1.903899
-2.397944 -6.246072 -1.905051
-2.641570 -6.871534 -1.914877
-2.924048 -7.592687 -1.916588
-3.280444 -8.507020 -1.927789
-3.726482 -9.646334 -1.939131
-4.276845 -11.195153 -1.960622
-5.117035 -13.376697 -2.005304
-6.343428 -16.552288 -2.062918
-8.110129 -21.124939 -2.104622
-10.220671 -26.594433 -1.986039
-15.440950 -40.107990 -1.996943
-21.037609 -54.597496 -1.349969
-30.001284 -77.756897 0.011073
0.001600 -0.052018 -0.001393
0.001600 -0.052018 -0.001393
0.001600 -0.052018 -0.001393
-18.550144 -47.953224 4.798789
-18.576941 -47.973549 6.016883
-20.966888 -54.083099 8.152829
-18.925362 -48.798153 8.597873
0.001600 -0.052018 -0.001393
0.001614 -0.051756 -0.001386
-0.214137 -0.603993 -0.334388
-0.231781 -0.648844 -0.342126
-0.249796 -0.694304 -0.347675
-0.269369 -0.743616 -0.352952
-0.299177 -0.818973 -0.368139
-0.325267 -0.885071 -0.375112
-0.370866 -1.000380 -0.399163
-1.905573 -4.904129 -1.898131
-2.061360 -5.297911 -1.905236
-2.234144 -5.731601 -1.905081
-2.432830 -6.230125 -1.904491
-2.682166 -6.859559 -1.915880
-2.968816 -7.579107 -1.917500
-3.328347 -8.481711 -1.926532
-3.778961 -9.612859 -1.936899
-4.333917 -11.157996 -1.958343
-5.184248 -13.322808 -2.001677
-6.444075 -16.538607 -2.065685
-7.863219 -20.148186 -2.011495
-10.269140 -26.269299 -1.966114
-15.301088 -39.094662 -1.950674
-25.537012 -65.144478 -1.614311
-26.948719 -68.673264 0.009674
0.001614 -0.051756 -0.001386
0.001614 -0.051756 -0.001386
0.001614 -0.051756 -0.001386
-18.845425 -47.871807 4.801793
-18.863258 -47.893345 6.020397
-21.443163 -54.381336 8.216386
-11.162816 -28.308029 4.994877
-11.174335 -28.323191 5.731057
0.001602 -0.051510 -0.001379
-0.219343 -0.607316 -0.337319
-0.234659 -0.645555 -0.341180
-0.254280 -0.694221 -0.348565
-0.274137 -0.743427 -0.353800
-0.302253 -0.813595 -0.366505
-0.330880 -0.884577 -0.375875
-0.378551 -1.003090 -0.401338
-1.934158 -4.894573 -1.898806
-2.092431 -5.285349 -1.905227
-2.265651 -5.712687 -1.903285
-2.465471 -6.208629 -1.902278
-2.720315 -6.837900 -1.914352
-3.012063 -7.561641 -1.917490
-3.378254 -8.465803 -1.927353
-3.831708 -9.585237 -1.935779
-4.396016 -11.122678 -1.956712
-5.259025 -13.288813 -2.001109
-6.513772 -16.429716 -2.056869
-7.628576 -19.212923 -1.922447
-10.297198 -25.901846 -1.942988
-15.679513 -39.372318 -1.969132
0.001602 -0.051510 -0.001379
-30.838446 -77.268631 0.011122
0.001602 -0.051510 -0.001379
-20.851131 -52.158482 2.624405
-21.014837 -52.541817 3.960931
-11.272797 -28.182262 2.830631
-11.302059 -28.227226 3.553459
-21.764952 -54.280701 8.220036
-19.522892 -48.646511 8.610906
0.001602 -0.051510 -0.001379
0.001590 -0.051265 -0.001372
-0.218622 -0.596088 -0.331435
-0.238080 -0.643937 -0.341173
-0.255284 -0.685855 -0.344969
-0.277451 -0.739911 -0.352937
-0.307320 -0.813277 -0.367311
-0.334975 -0.880688 -0.375097
-0.388955 -1.012736 -0.406420
-1.962677 -4.884838 -1.899481
-2.121784 -5.271206 -1.904578
-2.298913 -5.701077 -1.903871
-2.503758 -6.201212 -1.904473
-2.760054 -6.823679 -1.914848
-3.054501 -7.542141 -1.917019
-3.423654 -8.438731 -1.925680
-3.882025 -9.551861 -1.933548
-4.452268 -11.078664 -1.953462
-5.327678 -13.239725 -1.998317
-6.589276 -16.345684 -2.051064
0.001590 -0.051265 -0.001372
-10.320668 -25.533123 -1.919723
-15.716291 -38.814659 -1.945709
-20.526436 -50.627522 -1.260413
-11.376717 -28.071140 0.003185
-11.384740 -28.063286 0.705220
-11.410611 -28.099318 1.415326
-20.127960 -49.500179 3.740050
-19.410908 -47.691864 4.805934
-19.450029 -47.740967 6.029517
-22.091557 -54.191025 8.225634
-19.802122 -48.533123 8.610929
0.001590 -0.051265 -0.001372
-0.167624 -0.463215 -0.265526
