# This PCD file was generated using the MATLAB® pcwrite function
# from Computer Vision Toolbox®.
# .PCD v.7 - Point Cloud Data file format
VERSION .7
FIELDS x y z
SIZE 4 4 4
TYPE F F F
COUNT 1 1 1
WIDTH 1685
HEIGHT 1
VIEWPOINT 0 0 0 1 0 0 0
POINTS 1685
DATA ascii
0.313797 8.125494 -1.570368
0.307802 9.054676 -1.521696
0.348569 10.191863 -1.461346
0.400441 11.700223 -1.389896
0.430754 12.475370 -1.182625
0.563892 16.277851 -1.150984
0.605139 17.396090 -0.818808
0.613227 17.440065 -0.407622
0.632917 17.818203 0.002230
0.007601 -0.196949 -0.004462
0.007601 -0.196949 -0.004462
0.475898 12.936285 0.919375
0.007601 -0.196949 -0.004462
0.007601 -0.196949 -0.004462
1.267109 34.213814 4.847862
1.209824 32.316647 5.353306
1.253452 33.315506 6.326777
0.028514 0.356945 -0.332754
0.028071 0.340052 -0.306001
0.029060 0.362787 -0.301897
0.030082 0.383862 -0.295897
0.031607 0.419381 -0.296013
0.033245 0.455182 -0.294629
0.033674 0.459881 -0.278639
0.181190 4.154296 -1.702986
0.195335 4.464778 -1.700546
0.209908 4.801973 -1.692854
0.226911 5.171951 -1.678943
0.246708 5.603082 -1.666647
0.267487 6.076944 -1.645779
0.293645 6.646297 -1.624649
0.323195 7.317257 -1.600156
0.359700 8.112110 -1.568203
0.362285 9.045069 -1.520463
0.407985 10.182041 -1.460303
0.471149 11.703871 -1.390670
0.507552 12.516654 -1.186782
0.658634 16.274620 -1.151094
0.710810 17.428410 -0.820593
0.713355 17.404558 -0.407009
0.735471 17.788582 0.002099
0.007601 -0.196701 -0.004457
1.680917 40.573940 1.913316
1.539778 36.798233 2.598216
0.552882 12.906558 1.223877
0.557433 12.897895 1.533021
1.534408 35.844608 5.078691
1.432761 33.287663 5.514267
1.447179 33.331627 6.331000
0.031898 0.363939 -0.336831
0.031212 0.343659 -0.307958
0.032324 0.366428 -0.303773
0.033320 0.383975 -0.295896
0.034981 0.415863 -0.294303
0.036783 0.453441 -0.293816
0.037409 0.461808 -0.279409
0.206110 4.151594 -1.702285
0.221393 4.465764 -1.701256
0.238486 4.797187 -1.691605
0.258305 5.182277 -1.682546
0.279488 5.611496 -1.669435
0.303460 6.073644 -1.645313
0.331877 6.646769 -1.625151
0.366400 7.315555 -1.600204
0.407262 8.106242 -1.567516
0.414435 9.056994 -1.522786
0.466834 10.201662 -1.463423
0.538046 11.713255 -1.392134
0.581942 12.591504 -1.194082
0.752807 16.322788 -1.154810
0.804715 17.328651 -0.816270
0.812828 17.362505 -0.406259
0.834285 17.752522 0.001969
0.007600 -0.196454 -0.004452
1.723414 36.462917 1.720113
1.728368 36.412727 2.571465
0.628617 12.911420 1.224536
0.633399 12.908663 1.534566
1.612258 33.268158 4.716243
1.588340 32.514389 5.387960
1.601266 32.528084 6.180515
0.035202 0.365753 -0.337850
0.034318 0.343759 -0.307957
0.035739 0.370051 -0.305649
0.036825 0.387629 -0.297688
0.038381 0.414118 -0.293446
0.040443 0.449849 -0.292190
0.041455 0.467391 -0.281719
0.231295 4.154333 -1.703764
0.248715 4.459016 -1.699235
0.267271 4.797891 -1.692274
0.288619 5.169533 -1.679008
0.314192 5.615774 -1.671123
0.339610 6.074005 -1.645857
0.372098 6.639130 -1.623814
0.410589 7.307669 -1.599008
0.456998 8.113788 -1.569420
0.467426 9.050783 -1.522199
0.528509 10.200954 -1.463770
0.605923 11.698339 -1.390825
0.658376 12.645890 -1.199534
0.007600 -0.196206 -0.004448
0.007600 -0.196206 -0.004448
0.007600 -0.196206 -0.004448
0.007600 -0.196206 -0.004448
0.007600 -0.196206 -0.004448
0.697900 12.935149 0.613375
0.007600 -0.196206 -0.004448
0.706708 12.915723 1.225193
0.708964 12.909069 1.534945
1.834828 33.709217 4.779627
2.071533 37.836990 6.266984
1.838405 33.417435 6.350203
0.038140 0.358947 -0.333770
0.037508 0.343834 -0.307956
0.039178 0.371877 -0.306586
0.040088 0.384122 -0.295894
0.042003 0.414175 -0.293446
0.043937 0.446240 -0.290564
0.045595 0.471110 -0.283259
0.256843 4.149444 -1.702337
0.275486 4.457789 -1.699263
0.296635 4.792714 -1.691026
0.320180 5.164196 -1.677851
0.347156 5.606470 -1.668957
0.376422 6.066372 -1.644380
0.411300 6.635220 -1.623397
0.454170 7.313261 -1.600716
0.503933 8.097558 -1.566885
0.522205 9.048130 -1.522261
0.588522 10.201983 -1.464393
0.677274 11.710680 -1.392756
0.734458 12.642048 -1.199621
0.945382 16.309437 -1.154757
1.005757 17.256800 -0.813643
1.013306 17.274540 -0.404715
1.040103 17.678238 0.001702
0.007599 -0.195958 -0.004443
0.007599 -0.195958 -0.004443
2.165300 36.553967 2.582451
0.782569 12.919686 1.225852
0.787069 12.912862 1.535787
1.960099 32.530071 4.614492
2.077709 34.284893 5.682852
2.065779 33.873177 6.438256
0.041833 0.367584 -0.338867
0.041580 0.359570 -0.316767
0.042113 0.366639 -0.303770
0.043404 0.384161 -0.295893
0.045499 0.414205 -0.293445
0.048073 0.451723 -0.293002
0.049320 0.469286 -0.282489
0.282295 4.155610 -1.705270
0.303526 4.463859 -1.702025
0.325078 4.787425 -1.689777
0.350526 5.154930 -1.675504
0.380661 5.591159 -1.665139
0.412656 6.068234 -1.645431
0.451630 6.630995 -1.622981
0.498660 7.310722 -1.600765
0.554217 8.112351 -1.570267
0.575593 9.049191 -1.522968
0.650117 10.198592 -1.464463
0.740551 11.623582 -1.383121
0.807655 12.627954 -1.198781
1.047178 16.367559 -1.159314
1.109225 17.300848 -0.816073
1.112112 17.242764 -0.404238
1.144718 17.652090 0.001572
0.007572 -0.195726 -0.004437
2.607460 40.246117 1.899047
0.007572 -0.195726 -0.004437
0.860770 12.923059 1.226508
0.863234 12.920318 1.537097
2.182124 32.947033 4.674806
2.128819 31.950682 5.299551
2.162395 32.360893 6.154238
0.045060 0.365903 -0.337847
0.045438 0.368295 -0.321661
0.045913 0.373715 -0.307523
0.047084 0.387754 -0.297686
0.049003 0.414222 -0.293445
0.051168 0.442608 -0.288937
0.054269 0.484003 -0.288651
0.307435 4.156047 -1.706022
0.330188 4.460441 -1.701370
0.353335 4.780082 -1.687889
0.381264 5.153091 -1.675536
0.415126 5.606405 -1.670131
0.448539 6.064106 -1.644964
0.491010 6.630500 -1.623484
0.540237 7.304200 -1.599981
0.599430 8.093732 -1.567362
0.630487 9.047865 -1.523353
0.710014 10.196939 -1.464809
0.801567 11.486485 -1.367704
0.886740 12.668919 -1.203126
1.144440 16.391386 -1.161508
1.205326 17.184631 -0.811106
1.210314 17.206444 -0.403669
1.245268 17.615574 0.001441
1.858429 26.296583 0.620866
1.861613 26.266417 1.241349
2.586136 36.411369 2.573808
0.934479 12.926297 1.227169
0.938925 12.919394 1.537476
2.388074 33.149574 4.704988
2.311715 31.989809 5.307783
2.342698 32.252205 6.135837
0.048302 0.367639 -0.338865
0.049197 0.377007 -0.326556
0.049203 0.375493 -0.308460
0.050060 0.384196 -0.295892
0.052526 0.416026 -0.294299
0.055668 0.455357 -0.294627
0.058600 0.491339 -0.291731
0.331011 4.145261 -1.702413
0.355993 4.456926 -1.700713
0.381336 4.782076 -1.689197
0.411235 5.153072 -1.676163
0.447313 5.602353 -1.669615
0.483294 6.059863 -1.644497
0.529201 6.629872 -1.623987
0.582174 7.303288 -1.600443
0.645773 8.092489 -1.567783
0.681889 9.042520 -1.523088
0.768533 10.200998 -1.465987
0.857362 11.355314 -1.352975
0.946283 12.499222 -1.187843
1.236047 16.373102 -1.160784
1.300166 17.150038 -0.809925
1.305085 17.169794 -0.403097
1.342027 17.574736 0.001313
2.270977 29.795155 0.703524
2.007186 26.230019 1.239953
2.803542 36.571732 2.585895
0.007571 -0.195231 -0.004428
0.007571 -0.195231 -0.004428
2.607448 33.570473 4.766139
2.490715 31.970833 5.306592
0.007571 -0.195231 -0.004428
0.051661 0.369355 -0.339884
0.052349 0.375271 -0.325576
0.053189 0.384307 -0.313151
0.053398 0.384196 -0.295891
0.056429 0.419601 -0.296009
0.059949 0.460770 -0.297065
0.063264 0.500471 -0.295582
0.357154 4.149070 -1.704620
0.383541 4.455013 -1.700742
0.410970 4.781907 -1.689868
0.443379 5.156535 -1.677983
0.480869 5.590304 -1.666898
0.520974 6.064885 -1.646561
0.568678 6.615265 -1.621268
0.628071 7.301841 -1.600909
0.696815 8.094566 -1.568950
0.734828 9.036758 -1.522825
0.830574 10.202465 -1.466890
0.915270 11.243529 -1.340560
1.014183 12.430325 -1.182003
1.335943 16.387646 -1.162427
1.399570 17.138577 -0.809858
1.405388 17.130161 -0.402485
2.074879 25.309368 0.003636
0.007568 -0.194980 -0.004423
2.161615 26.192081 1.238547
3.299234 39.943043 2.824431
0.007568 -0.194980 -0.004423
0.007568 -0.194980 -0.004423
2.827606 33.797512 4.800212
2.692934 32.028130 5.318377
2.953143 35.065525 6.673592
0.055143 0.371042 -0.340903
0.057054 0.390883 -0.334387
0.057350 0.393061 -0.317842
0.058183 0.400186 -0.303962
0.060532 0.424951 -0.298574
0.063712 0.460702 -0.297065
0.068024 0.507735 -0.298664
0.383193 4.150864 -1.706100
0.409782 4.447391 -1.698719
0.440461 4.779669 -1.689899
0.475065 5.154084 -1.678016
0.514628 5.593465 -1.668586
0.557365 6.054250 -1.644577
0.608507 6.619914 -1.623153
0.671157 7.298376 -1.600957
0.744280 8.088733 -1.568633
0.789524 9.032525 -1.522887
0.890169 10.195814 -1.466680
0.007567 -0.194732 -0.004418
1.093568 12.477945 -1.187089
1.436907 16.445559 -1.167123
1.730975 19.781557 -0.933256
1.506464 17.103884 -0.402193
1.734207 19.686417 0.001727
2.448648 27.791235 0.656444
2.319691 26.199013 1.239299
0.007567 -0.194732 -0.004418
3.235850 36.416542 3.435863
0.007567 -0.194732 -0.004418
2.982102 33.319397 4.734702
3.005607 33.441475 5.554317
3.304330 36.637222 6.974514
0.059174 0.379578 -0.346000
0.060394 0.390819 -0.334386
0.061832 0.405318 -0.324410
0.061754 0.401905 -0.304858
0.064088 0.424878 -0.298573
0.069819 0.486094 -0.308446
0.073065 0.518644 -0.303285
0.408185 4.148875 -1.706126
0.436636 4.447103 -1.699431
0.469034 4.777316 -1.689929
0.505619 5.149631 -1.677454
0.547543 5.586860 -1.667521
0.593634 6.055064 -1.645628
0.647872 6.618522 -1.623658
0.714238 7.294671 -1.601005
0.792461 8.090467 -1.569796
0.842742 9.030074 -1.523271
0.950454 10.196725 -1.467582
0.007540 -0.194499 -0.004413
1.155551 12.352748 -1.176063
1.533140 16.443274 -1.167652
1.591768 17.012194 -0.805005
2.342526 25.063141 -0.585681
1.846306 19.652506 0.001584
2.606756 27.747107 0.655546
2.549108 27.016994 1.278311
3.630914 38.516544 2.726076
3.726581 39.379417 3.715925
3.799521 39.994495 4.728493
3.389369 35.571388 5.055528
3.201050 33.445568 5.557657
3.255422 33.882835 6.455755
0.062942 0.384639 -0.349058
0.063922 0.392486 -0.335365
0.066122 0.414030 -0.329102
0.066053 0.410731 -0.309342
0.068152 0.430175 -0.301138
0.073368 0.482327 -0.306820
0.077155 0.518496 -0.303285
0.432231 4.137451 -1.702517
0.462950 4.441054 -1.698092
0.497259 4.771055 -1.688680
0.536534 5.148818 -1.678082
0.580589 5.581979 -1.667006
0.628600 6.042199 -1.643138
0.686826 6.613013 -1.623240
0.757286 7.290718 -1.601053
0.839700 8.082145 -1.569111
0.895756 9.025340 -1.523331
1.009986 10.189383 -1.467373
0.007540 -0.194252 -0.004408
1.226509 12.334270 -1.175035
1.632080 16.468214 -1.170127
1.687578 16.971222 -0.803640
0.007540 -0.194252 -0.004408
1.957863 19.615973 0.001441
2.763080 27.688169 0.654319
2.708118 27.028027 1.279343
3.870451 38.666061 2.737855
3.784467 37.657543 3.555748
3.572510 35.398674 4.189325
3.572470 35.326988 5.023483
3.420374 33.684135 5.599975
3.859648 37.901665 7.221379
0.066453 0.386275 -0.350077
0.068176 0.401070 -0.340260
0.070882 0.426231 -0.335670
0.071142 0.426619 -0.317412
0.072670 0.439056 -0.305413
0.078356 0.493075 -0.311697
0.088090 0.584421 -0.331017
0.457499 4.138872 -1.703997
0.489961 4.442317 -1.699486
0.525589 4.766498 -1.688071
0.566251 5.136424 -1.675139
0.613001 5.571179 -1.664840
0.664856 6.042606 -1.644189
0.725540 6.605352 -1.622362
0.800520 7.288457 -1.601516
0.887252 8.077440 -1.569164
0.948761 9.020315 -1.523391
1.070695 10.193538 -1.468830
1.190252 11.319163 -1.352435
1.299355 12.335215 -1.175860
0.007539 -0.194004 -0.004403
1.304355 12.313456 -0.587182
1.313802 12.358900 -0.293795
0.007539 -0.194004 -0.004403
1.324088 12.387814 0.292929
1.329134 12.390863 0.589335
0.007539 -0.194004 -0.004403
3.973681 37.366161 3.530140
3.523649 32.985714 3.907075
3.955284 36.988045 5.261425
3.599276 33.515099 5.575055
3.508437 32.546230 6.209029
0.068685 0.375907 -0.343958
0.071047 0.395762 -0.337322
0.076129 0.441892 -0.344115
0.076451 0.442489 -0.325484
0.077469 0.449695 -0.310543
0.082640 0.494715 -0.312511
0.097550 0.630044 -0.350275
0.482000 4.132740 -1.702569
0.517622 4.441479 -1.700199
0.554936 4.771204 -1.690660
0.597506 5.139041 -1.676957
0.647559 5.571541 -1.665978
0.700280 6.035110 -1.643216
0.766034 6.603150 -1.622867
0.845280 7.287757 -1.602397
0.937128 8.080133 -1.570698
1.002572 9.022830 -1.524746
1.132439 10.189259 -1.469179
1.262003 11.363750 -1.358528
1.372907 12.341681 -1.177240
1.383857 12.398571 -0.886613
1.383855 12.375532 -0.590507
1.387496 12.365335 -0.294200
1.391658 12.360164 -0.000868
0.007539 -0.193758 -0.004398
0.007539 -0.193758 -0.004398
0.007539 -0.193758 -0.004398
0.007539 -0.193758 -0.004398
0.007539 -0.193758 -0.004398
0.007539 -0.193758 -0.004398
1.409527 12.262964 2.058656
1.401807 12.172274 2.343816
0.072233 0.377477 -0.344977
0.075896 0.407737 -0.344175
0.080302 0.445233 -0.345992
0.082445 0.461846 -0.335350
0.083026 0.465697 -0.318240
0.088663 0.512660 -0.320640
0.248295 1.894895 -0.881813
0.507945 4.139434 -1.706229
0.544481 4.440569 -1.700910
0.582812 4.762559 -1.688771
0.628615 5.139596 -1.678181
0.680474 5.566089 -1.665463
0.736300 6.033174 -1.643762
0.805101 6.598907 -1.622911
0.886983 7.283205 -1.602444
0.982778 8.071147 -1.570011
1.057157 9.017006 -1.524808
1.194384 10.202538 -1.472026
1.336109 11.405691 -1.364392
1.447363 12.335571 -1.177512
1.930865 16.513405 -1.175750
1.991269 16.981737 -0.805939
1.994230 16.977388 -0.400992
2.297941 19.537983 0.001019
1.473215 12.391939 0.293228
1.473108 12.369378 0.588885
1.474165 12.337893 0.881313
1.475284 12.325687 1.175039
0.007539 -0.193510 -0.004394
1.481453 12.297726 1.766787
0.007539 -0.193510 -0.004394
0.007539 -0.193510 -0.004394
0.075629 0.379067 -0.345996
0.079440 0.409315 -0.345154
0.084694 0.452073 -0.349746
0.087142 0.470528 -0.339834
0.087888 0.474468 -0.322515
0.093162 0.516055 -0.322266
0.260802 1.901080 -0.884903
0.532396 4.133019 -1.704801
0.570431 4.432038 -1.698887
0.611995 4.765049 -1.690721
0.659032 5.134274 -1.677619
0.713563 5.562347 -1.665499
0.771866 6.027200 -1.643295
0.844635 6.598313 -1.623875
0.931983 7.283919 -1.603739
1.031734 8.065459 -1.570066
1.109212 9.017127 -1.525838
1.255782 10.209531 -1.474039
1.407896 11.457516 -1.371410
1.532475 12.454124 -1.189450
2.029286 16.522099 -1.177253
1.562694 12.642974 -0.603923
1.559812 12.579352 -0.299691
0.007512 -0.193278 -0.004388
3.384817 27.463606 0.649886
0.007512 -0.193278 -0.004388
0.007512 -0.193278 -0.004388
4.522168 36.436375 3.448676
0.007512 -0.193278 -0.004388
4.017326 32.187527 4.589963
0.007512 -0.193278 -0.004388
1.562645 12.306117 2.372203
0.080921 0.394255 -0.355173
0.082355 0.403930 -0.342215
0.087626 0.444835 -0.345991
0.092861 0.484478 -0.347009
0.094088 0.492150 -0.331067
0.097928 0.521234 -0.324705
0.272755 1.896129 -0.883374
0.557777 4.128215 -1.704101
0.594645 4.410318 -1.692080
0.640144 4.752207 -1.687553
0.689594 5.122966 -1.675272
0.743963 5.537458 -1.659477
0.807947 6.017029 -1.641817
0.883161 6.589750 -1.622997
0.975199 7.280643 -1.604202
1.079709 8.063562 -1.570860
1.164015 9.012635 -1.526224
1.316822 10.212244 -1.475497
1.484861 11.512320 -1.378896
1.624878 12.583393 -1.202506
2.129904 16.546064 -1.179869
0.007511 -0.193030 -0.004383
1.632697 12.548358 -0.299275
0.007511 -0.193030 -0.004383
3.331352 25.747683 0.609558
3.379808 26.048088 1.236241
4.590009 35.408970 2.514973
4.599423 35.377197 3.350989
4.556744 34.943192 4.148037
4.223094 32.315430 4.611210
4.226905 32.249737 5.379263
4.274480 32.519802 6.219979
0.083619 0.388946 -0.352113
0.086251 0.407200 -0.344174
0.092443 0.453364 -0.350684
0.098630 0.498403 -0.354185
0.099317 0.502652 -0.336198
0.104188 0.537249 -0.332023
0.284995 1.896635 -0.884154
0.580880 4.117927 -1.701218
0.622086 4.414544 -1.694842
0.667965 4.750720 -1.688222
0.718975 5.117428 -1.674708
0.776634 5.531449 -1.658962
0.842827 6.014627 -1.642362
0.922152 6.584839 -1.623041
1.016599 7.273431 -1.603834
1.125999 8.059641 -1.571282
1.217699 9.011931 -1.527256
1.377154 10.208706 -1.476122
1.561250 11.572795 -1.387076
0.007511 -0.192783 -0.004379
0.007511 -0.192783 -0.004379
1.695057 12.493705 -0.597982
0.007511 -0.192783 -0.004379
1.691443 12.411227 -0.001183
2.384690 17.549742 0.415726
0.007511 -0.192783 -0.004379
5.535690 40.888985 2.904659
4.587345 33.790298 3.203397
4.650983 34.165569 4.058870
4.357856 31.906269 4.556331
4.376464 31.995243 5.340724
4.425581 32.266003 6.176003
0.085696 0.380234 -0.347013
0.089114 0.403538 -0.342214
0.096274 0.454871 -0.351622
0.103940 0.508753 -0.359566
0.104065 0.507735 -0.338764
0.118379 0.609321 -0.364544
0.298911 1.911746 -0.891097
0.605915 4.116640 -1.701971
0.649352 4.416755 -1.696921
0.697412 4.754573 -1.690812
0.750562 5.121047 -1.677123
0.809539 5.527167 -1.658998
0.877955 6.006111 -1.641389
0.960834 6.577774 -1.622624
1.060526 7.265608 -1.603468
1.175137 8.055039 -1.571707
1.269814 9.011147 -1.528286
1.438820 10.214616 -1.478136
1.635235 11.625193 -1.394328
1.758595 12.485821 -1.195264
0.007510 -0.192535 -0.004374
1.765235 12.480384 -0.597880
0.007510 -0.192535 -0.004374
0.007510 -0.192535 -0.004374
1.777806 12.482912 0.295894
2.979988 21.032787 1.000343
2.992473 21.064117 1.501868
4.814731 33.948177 3.220663
4.925886 34.687347 4.123577
4.538806 31.855509 4.552482
4.637189 32.463406 5.422648
4.725453 33.038124 6.327796
0.089333 0.381710 -0.348032
0.092891 0.405016 -0.343193
0.100348 0.456322 -0.352560
0.109854 0.520789 -0.365845
0.110765 0.525279 -0.347316
0.263034 1.578278 -0.800334
0.311623 1.912041 -0.891878
0.631156 4.111403 -1.701270
0.675285 4.403801 -1.693532
0.726712 4.750636 -1.690843
0.780644 5.107335 -1.674180
0.843410 5.522547 -1.659035
0.914117 5.997261 -1.640417
1.000920 6.572236 -1.622668
1.105267 7.263341 -1.604349
1.223999 8.048222 -1.571763
1.324861 9.007634 -1.528996
1.503548 10.227749 -1.481264
1.715967 11.690289 -1.403206
1.851023 12.595694 -1.206656
2.425828 16.538830 -1.182440
1.839139 12.462074 -0.597597
1.833864 12.392504 -0.296591
0.007483 -0.192302 -0.004368
1.849413 12.448702 0.295244
3.108318 21.032854 1.001034
3.109409 20.985113 1.497378
3.112880 20.953623 1.994686
3.116961 20.952066 2.499994
4.867852 32.772736 4.686639
4.792266 32.176037 5.379227
4.886326 32.766861 6.281212
0.092628 0.381478 -0.348031
0.096045 0.403029 -0.342213
0.103814 0.454280 -0.351621
0.113408 0.516895 -0.364051
0.121319 0.567836 -0.367842
0.273202 1.577023 -0.800341
0.324268 1.914155 -0.893429
0.658657 4.126402 -1.708566
0.701991 4.401988 -1.694243
0.755122 4.746657 -1.690873
0.811382 5.104924 -1.674808
0.876531 5.519778 -1.659621
0.950568 5.997924 -1.641975
1.040101 6.568578 -1.623172
1.148118 7.257145 -1.604397
1.271944 8.045206 -1.572557
1.377468 8.998204 -1.528733
1.566373 10.238806 -1.484113
1.790722 11.723723 -1.408379
1.951994 12.768265 -1.223977
0.007480 -0.192051 -0.004363
0.007480 -0.192051 -0.004363
1.910086 12.407741 -0.297274
1.909629 12.372799 -0.001443
1.932862 12.509315 0.296846
6.306384 41.256054 1.960356
3.240776 21.030304 1.501710
5.310455 34.528038 3.280519
4.994081 32.413174 3.860534
4.893783 31.677633 4.534464
4.987611 32.208729 5.389066
4.994178 32.208252 6.179765
0.095743 0.379498 -0.347011
0.098760 0.397563 -0.339274
0.107373 0.452198 -0.350682
0.117880 0.518266 -0.364948
0.694397 4.215099 -2.114279
0.285046 1.586531 -0.805227
0.337027 1.914306 -0.894210
0.683658 4.119022 -1.707139
0.728982 4.401870 -1.695639
0.784053 4.740492 -1.690265
0.843643 5.105962 -1.676628
0.911459 5.528211 -1.663513
0.986599 5.988626 -1.641003
1.078342 6.558913 -1.622294
1.190936 7.250699 -1.604446
1.319612 8.039977 -1.572981
1.432491 8.994054 -1.529443
1.629669 10.251431 -1.487239
1.862511 11.721034 -1.409387
2.027820 12.750844 -1.223511
0.007480 -0.191804 -0.004359
1.996044 12.499524 -0.600552
1.994338 12.457726 -0.298787
0.007480 -0.191804 -0.004359
0.007480 -0.191804 -0.004359
6.582429 41.411636 1.969231
6.350080 39.889736 2.842338
0.007480 -0.191804 -0.004359
0.007480 -0.191804 -0.004359
5.517934 34.418751 4.928998
5.404042 33.621960 5.629099
5.175839 32.114380 6.167298
0.099578 0.382627 -0.349050
0.101326 0.392114 -0.336336
0.111912 0.457086 -0.353498
0.122528 0.521393 -0.366742
0.714236 4.177396 -2.098055
0.292923 1.570713 -0.798730
0.350297 1.919893 -0.897301
0.710225 4.126328 -1.711528
0.754467 4.392305 -1.693616
0.813319 4.741790 -1.692214
0.874702 5.105064 -1.677852
0.943721 5.519363 -1.662448
1.022436 5.985039 -1.641549
1.117771 6.556717 -1.623259
1.234020 7.245928 -1.604909
1.367559 8.036405 -1.573774
1.485905 8.989831 -1.530152
1.693179 10.263680 -1.490366
1.936376 11.743745 -1.413403
2.107649 12.772674 -1.226750
2.070421 12.526948 -0.902536
2.799982 16.984177 -0.812073
2.080232 12.527244 -0.300758
2.066873 12.429522 -0.001595
0.007479 -0.191556 -0.004354
6.847764 41.533085 1.976520
5.845630 35.375916 2.523829
0.007479 -0.191556 -0.004354
3.478827 20.858217 2.495129
5.342634 32.120106 4.605382
5.360296 32.151817 5.388937
5.351900 32.026237 6.155950
0.102289 0.378925 -0.347009
0.105803 0.398676 -0.340252
0.114740 0.451480 -0.350681
0.127790 0.528008 -0.370331
0.742326 4.191318 -2.106635
0.303049 1.569285 -0.798738
0.362439 1.918133 -0.897312
0.733485 4.113262 -1.707918
0.780795 4.388160 -1.693643
0.841666 4.737306 -1.692245
0.905149 5.100225 -1.677885
0.976858 5.516010 -1.663035
1.058593 5.983153 -1.642600
1.156887 6.552372 -1.623763
1.278736 7.250550 -1.607450
1.414175 8.024800 -1.573089
1.538021 8.977515 -1.529565
1.759134 10.289198 -1.495439
2.004337 11.728777 -1.413021
0.007478 -0.191308 -0.004349
2.011228 11.728096 -0.846985
2.012754 11.709938 -0.564645
2.018487 11.716871 -0.282213
2.021719 11.721596 -0.001827
2.027624 11.729404 0.278881
2.031076 11.722795 0.561730
6.009296 35.102062 2.506507
0.007478 -0.191308 -0.004349
3.634258 21.039835 2.518953
5.406512 31.376631 4.503410
5.560221 32.202469 5.402345
5.500515 31.782190 6.114946
0.104687 0.373527 -0.343949
0.110392 0.405226 -0.344169
0.118436 0.451098 -0.350681
0.129192 0.511705 -0.362258
0.767518 4.187253 -2.106661
0.315027 1.576736 -0.802811
0.372964 1.907198 -0.893469
0.758851 4.112911 -1.709398
0.807915 4.383733 -1.693672
0.869012 4.727063 -1.690356
0.935880 5.097085 -1.678513
1.009995 5.506615 -1.661970
1.094080 5.977240 -1.642640
1.197814 6.551414 -1.625190
1.321782 7.237339 -1.606254
1.463525 8.020432 -1.573884
1.593087 8.982417 -1.531893
1.819168 10.267159 -1.493843
2.075549 11.732982 -1.414954
2.084373 11.757327 -1.133309
2.083869 11.728044 -0.847902
2.080800 11.696470 -0.564632
2.083838 11.687626 -0.281879
2.088475 11.688024 -0.001915
0.007451 -0.191076 -0.004344
0.007451 -0.191076 -0.004344
0.007451 -0.191076 -0.004344
0.007451 -0.191076 -0.004344
0.007451 -0.191076 -0.004344
0.007451 -0.191076 -0.004344
2.111249 11.659883 1.975599
2.111814 11.649334 2.263940
0.108637 0.376577 -0.345988
0.110848 0.387681 -0.334375
1.894889 10.358229 -5.699743
0.134915 0.520005 -0.366743
0.794080 4.186460 -2.108399
0.324861 1.573382 -0.802006
0.383411 1.894330 -0.888857
0.784003 4.106784 -1.708698
0.835214 4.384838 -1.695751
0.898124 4.722101 -1.690387
0.966862 5.089850 -1.677952
1.043422 5.504769 -1.663108
1.131642 5.976634 -1.644199
1.235886 6.540875 -1.624313
1.363084 7.222207 -1.604640
1.511761 8.017941 -1.575048
1.650177 8.988626 -1.534546
1.881373 10.268497 -1.495581
2.149682 11.740306 -1.417352
0.007451 -0.190828 -0.004339
0.007451 -0.190828 -0.004339
3.116963 17.033890 -0.817162
0.007451 -0.190828 -0.004339
0.007451 -0.190828 -0.004339
0.007451 -0.190828 -0.004339
2.166134 11.677242 0.560538
2.163050 11.646968 0.839391
2.165520 11.635461 1.119559
0.007451 -0.190828 -0.004339
2.167667 11.608853 1.683912
0.007451 -0.190828 -0.004339
0.007451 -0.190828 -0.004339
0.110633 0.369453 -0.341907
0.115431 0.394179 -0.338292
0.124313 0.441563 -0.345988
0.138015 0.514227 -0.364052
0.818454 4.182228 -2.108424
0.336342 1.578957 -0.805267
0.394058 1.885126 -0.885785
0.806939 4.097134 -1.706542
0.860811 4.376536 -1.694412
0.925163 4.715434 -1.689777
0.996973 5.088395 -1.679175
1.076150 5.498950 -1.663144
1.165994 5.970491 -1.644237
1.274909 6.535832 -1.624816
1.406191 7.224366 -1.606765
1.558985 8.017398 -1.576580
1.703672 8.983153 -1.535255
1.942569 10.263621 -1.496485
2.218606 11.729972 -1.417664
0.007450 -0.190581 -0.004334
3.110320 16.483982 -1.187141
3.211202 16.990427 -0.816075
0.007450 -0.190581 -0.004334
0.007450 -0.190581 -0.004334
0.007450 -0.190581 -0.004334
0.007450 -0.190581 -0.004334
2.249903 11.734628 0.846444
0.007450 -0.190581 -0.004334
0.007450 -0.190581 -0.004334
2.253879 11.693793 1.697768
0.007450 -0.190581 -0.004334
2.243467 11.601691 2.259332
0.114727 0.374188 -0.344966
0.119652 0.398942 -0.341229
0.130480 0.455024 -0.353496
0.141600 0.511975 -0.363155
0.845628 4.188380 -2.113583
0.344780 1.568301 -0.801209
0.407003 1.890421 -0.888877
0.831921 4.094522 -1.707295
0.887773 4.375483 -1.695807
0.953716 4.712170 -1.690447
1.027686 5.084734 -1.679803
1.108488 5.491060 -1.662629
1.201409 5.963966 -1.644276
1.313945 6.530581 -1.625321
1.449731 7.214265 -1.606399
1.607575 8.008286 -1.576636
1.757380 8.987356 -1.537581
2.004514 10.262282 -1.497945
2.287671 11.731358 -1.419365
2.467119 12.643569 -1.221071
3.209915 16.485689 -1.188648
3.310725 16.992151 -0.817118
3.317568 16.993101 -0.407451
4.347169 22.292665 -0.000203
0.007450 -0.190333 -0.004329
8.200308 42.124626 2.013395
2.324530 11.753125 0.848602
2.316609 11.688558 1.126844
2.325051 11.719325 1.416736
6.145445 31.288824 4.508928
6.338326 32.213406 5.426098
6.362816 32.304310 6.240070
0.119043 0.378842 -0.348025
0.123133 0.398508 -0.341228
0.133950 0.452791 -0.352557
0.145753 0.511408 -0.363155
0.874689 4.199521 -2.121309
0.356303 1.573742 -0.804469
0.413929 1.861096 -0.877329
0.856930 4.087969 -1.706594
0.912911 4.365048 -1.693784
0.982360 4.704845 -1.689838
1.058527 5.076944 -1.679242
1.140372 5.481088 -1.661563
1.238989 5.962711 -1.645835
1.353347 6.527012 -1.626286
1.493433 7.211833 -1.607694
1.656638 8.008819 -1.578540
1.814374 8.990602 -1.539911
2.068804 10.272240 -1.501074
2.358259 11.717866 -1.419448
2.537700 12.601651 -1.218565
3.310808 16.492682 -1.190572
3.416382 16.992115 -0.818169
3.424392 16.998917 -0.408172
4.626286 23.020813 -0.000227
8.483094 42.319344 1.009537
0.007449 -0.190085 -0.004324
0.007449 -0.190085 -0.004324
2.381736 11.659702 1.125275
2.389317 11.674473 1.412930
6.539845 32.315380 4.661147
6.553780 32.321831 5.450212
6.416136 31.576674 6.107146
0.124353 0.388553 -0.354143
0.125135 0.391243 -0.337310
0.136582 0.447099 -0.349741
0.149795 0.510852 -0.363156
0.195303 0.733118 -0.449962
0.367875 1.579097 -0.807729
0.426833 1.864394 -0.879651
0.881869 4.085063 -1.707347
0.940948 4.369190 -1.697230
1.011260 4.703108 -1.691149
1.088801 5.071054 -1.679275
1.174131 5.480368 -1.663252
1.273561 5.951967 -1.644862
1.393126 6.525110 -1.627712
1.535571 7.201480 -1.607327
1.703739 7.999421 -1.578594
1.872240 9.005442 -1.544183
2.131693 10.274032 -1.503090
2.429867 11.719959 -1.421381
2.624722 12.653459 -1.224957
3.414668 16.512741 -1.193471
4.084016 19.755859 -0.950297
4.792313 23.176937 -0.554117
4.811885 23.248804 -0.000346
12.138749 58.880840 1.405747
8.774379 42.417961 2.031486
0.007423 -0.189854 -0.004319
0.007423 -0.189854 -0.004319
2.456717 11.656945 1.412384
6.725066 32.269783 4.659803
6.739875 32.280075 5.449334
6.590726 31.501087 6.099509
0.125564 0.378005 -0.348023
0.129889 0.397627 -0.341227
0.141314 0.451770 -0.352557
0.155277 0.517263 -0.366744
0.199874 0.728733 -0.448253
0.382096 1.595051 -0.815869
0.435575 1.847726 -0.873496
0.906816 4.082019 -1.708100
0.966391 4.356458 -1.694524
1.039351 4.697472 -1.691179
1.119037 5.064983 -1.679308
1.206903 5.469825 -1.662187
1.308842 5.944812 -1.644901
1.432467 6.515103 -1.627296
1.580149 7.196356 -1.608207
1.754286 7.999077 -1.580500
1.928302 9.010249 -1.546836
2.194457 10.265368 -1.503719
2.500753 11.717729 -1.422852
2.728812 12.782664 -1.238769
3.520952 16.527634 -1.196095
0.007422 -0.189607 -0.004314
4.902291 23.033846 -0.551560
4.925491 23.100803 -0.000534
12.466697 58.755569 1.404017
9.052798 42.525402 2.038756
0.007422 -0.189607 -0.004314
0.007422 -0.189607 -0.004314
0.007422 -0.189607 -0.004314
6.940837 32.340099 4.675450
6.699740 31.151381 5.266052
6.779036 31.491814 6.104845
0.126392 0.365758 -0.340883
0.131538 0.388611 -0.336329
0.142871 0.440845 -0.346924
3.320035 15.193427 -7.901625
0.202996 0.717203 -0.443122
0.391508 1.587684 -0.813438
0.447257 1.843594 -0.872736
0.931720 4.075033 -1.707400
0.994891 4.358270 -1.697288
1.067075 4.685950 -1.689290
1.150957 5.062265 -1.680533
1.241222 5.466602 -1.663326
1.346411 5.942900 -1.646461
1.472173 6.506783 -1.627340
1.623466 7.185229 -1.607842
1.803201 7.990737 -1.580926
1.986931 9.018237 -1.550139
2.258459 10.262147 -1.505182
2.574614 11.718522 -1.424788
3.035565 13.831269 -1.340317
3.619529 16.504808 -1.196075
0.007422 -0.189359 -0.004309
3.813307 17.351740 -0.418309
5.037927 22.954237 -0.000720
12.806400 58.637974 1.402558
9.342335 42.639179 2.046483
8.880038 40.445236 2.910381
7.207754 32.727531 3.144402
2.634789 11.810440 1.434086
7.043519 31.888596 4.616142
6.896781 31.163498 5.274587
6.990729 31.560827 6.125739
0.133917 0.385494 -0.353121
0.135482 0.391551 -0.338287
0.145623 0.436881 -0.345046
0.164160 0.519496 -0.368539
0.209231 0.721650 -0.445690
0.400609 1.582190 -0.811819
0.457784 1.837754 -0.871204
0.955890 4.071873 -1.708152
1.021045 4.356601 -1.698682
1.094653 4.682053 -1.689959
1.179383 5.052322 -1.679374
1.273145 5.461745 -1.663911
1.379316 5.929919 -1.644981
1.510760 6.504444 -1.628765
1.663688 7.172518 -1.607058
1.850509 7.988507 -1.582458
2.040382 9.016937 -1.551819
2.319257 10.261270 -1.506919
2.641811 11.708127 -1.425331
3.117163 13.829968 -1.341895
3.716466 16.502184 -1.197441
3.910002 17.356701 -0.839913
3.924089 17.389032 -0.419811
5.108943 22.666456 -0.000917
9.624752 42.857601 1.026128
0.007418 -0.189107 -0.004304
9.066342 40.216293 2.897238
7.358914 32.543362 3.130404
7.212299 31.860628 3.841966
7.254074 31.990198 4.636260
7.099728 31.250002 5.295465
7.140846 31.402828 6.102543
0.137333 0.384988 -0.353120
0.138938 0.391037 -0.338287
0.151287 0.444910 -0.349740
0.165955 0.508330 -0.363156
0.212194 0.710093 -0.440559
0.409985 1.576585 -0.810201
0.468535 1.829884 -0.868902
0.981107 4.066408 -1.708179
1.046764 4.349109 -1.698027
1.120968 4.664686 -1.686151
1.210831 5.047372 -1.680003
1.306041 5.456475 -1.664498
1.415967 5.923795 -1.645527
1.549665 6.497821 -1.629270
1.707331 7.168836 -1.608353
1.900151 7.989491 -1.584733
2.100129 9.028055 -1.555770
2.382816 10.263481 -1.509214
2.714911 11.704170 -1.426804
0.007417 -0.188859 -0.004300
3.815931 16.496367 -1.198670
4.180443 18.061897 -0.874779
5.150443 22.265535 -0.535948
5.175044 22.352364 -0.001117
13.464741 58.411388 1.399894
9.801186 42.385422 2.038958
9.926636 42.891552 3.093069
7.729181 33.290539 3.205898
7.402093 31.817644 3.841733
7.502383 32.222267 4.675596
7.330297 31.424295 5.331587
7.433644 31.815935 6.190510
0.138672 0.376092 -0.348020
0.142259 0.390512 -0.338286
0.154117 0.440872 -0.347862
0.171184 0.512875 -0.365848
0.214493 0.696832 -0.434573
0.418852 1.569127 -0.807768
0.477172 1.814855 -0.863518
1.005541 4.060962 -1.708205
1.072822 4.343279 -1.698055
1.148848 4.658434 -1.686181
1.240909 5.040592 -1.680036
1.339804 5.454761 -1.666187
1.451973 5.919588 -1.646579
1.587617 6.487168 -1.628852
1.754122 7.178205 -1.612557
1.950338 7.992094 -1.587378
2.154889 9.023792 -1.557127
2.441974 10.246021 -1.508728
2.785517 11.698309 -1.428044
0.007391 -0.188628 -0.004294
3.915918 16.491907 -1.200039
0.007391 -0.188628 -0.004294
5.207651 21.930246 -0.528859
5.222609 21.974047 -0.001322
10.210679 43.099010 1.034050
10.021070 42.223652 2.033610
9.455720 39.793472 2.873880
7.926189 33.265213 3.207520
8.876567 37.217751 4.496387
7.686830 32.171188 4.674252
7.592328 31.719868 5.388474
7.654943 31.929771 6.220668
0.144304 0.385608 -0.354139
0.145978 0.391660 -0.339264
0.158141 0.441979 -0.348800
0.174780 0.510418 -0.364951
0.222080 0.706402 -0.439707
0.429700 1.568685 -0.808590
0.487397 1.806982 -0.861216
1.030406 4.057201 -1.708958
1.100965 4.342597 -1.700134
1.177131 4.653857 -1.686851
1.271414 5.035509 -1.680665
1.372312 5.443264 -1.665123
1.486167 5.907657 -1.645606
1.628066 6.481705 -1.629819
1.795885 7.160357 -1.610945
2.001094 7.990213 -1.589284
2.054018 8.368500 -1.448651
2.507465 10.247062 -1.511026
2.857987 11.699748 -1.430210
3.365156 13.791773 -1.343857
4.025877 16.515238 -1.203501
4.992471 20.514894 -0.994713
5.276175 21.657249 -0.523243
5.282434 21.647484 -0.001519
10.502696 43.218666 1.038034
10.508430 43.171421 2.081694
9.645441 39.543159 2.859612
8.939564 36.573322 3.529846
8.019922 32.759792 3.965225
8.372945 34.155464 4.967925
7.841150 31.920050 5.429775
7.888013 32.084099 6.258976
0.145635 0.376665 -0.349038
0.147753 0.384301 -0.335346
0.162712 0.444747 -0.350678
0.178500 0.507929 -0.364054
0.226078 0.700091 -0.437142
0.439786 1.566463 -0.808598
0.496999 1.795385 -0.857372
1.054629 4.047674 -1.707530
1.127470 4.338303 -1.700847
1.204422 4.641554 -1.684962
1.301870 5.026299 -1.680103
1.404675 5.435558 -1.665159
1.523192 5.902773 -1.646659
1.667331 6.476284 -1.630784
1.841421 7.163465 -1.613902
2.049999 7.986476 -1.590819
2.078820 8.251049 -1.430890
2.566947 10.230813 -1.510818
2.932645 11.700245 -1.432379
3.456046 13.804743 -1.347111
4.125687 16.507584 -1.204731
5.135171 20.566679 -0.998765
5.331541 21.326975 -0.516287
5.330996 21.306417 -0.001710
14.454554 58.050339 1.395780
0.007390 -0.188133 -0.004285
9.075481 36.277206 2.627635
8.625749 34.413479 3.326645
8.332819 33.184200 4.021954
8.533863 33.961029 4.946508
8.471457 33.657200 5.731625
8.302141 32.927464 6.431777
0.148036 0.372767 -0.346997
0.152304 0.388795 -0.338284
0.165052 0.438949 -0.347861
0.183354 0.510634 -0.365848
0.231033 0.699105 -0.437144
0.448519 1.558870 -0.806166
0.507481 1.789194 -0.855840
1.079607 4.047423 -1.709737
1.152552 4.328376 -1.699507
1.231811 4.636881 -1.685632
1.331396 5.021085 -1.680731
1.436976 5.427654 -1.665194
1.557599 5.896333 -1.647203
1.706092 6.468741 -1.631288
1.881408 7.149566 -1.613118
2.096030 7.977095 -1.591242
2.109485 8.168408 -1.418957
2.628766 10.223850 -1.512002
3.001951 11.687322 -1.432924
3.541311 13.804207 -1.349063
4.228478 16.510937 -1.206797
0.007389 -0.187885 -0.004280
5.376293 21.000643 -0.509365
4.972885 19.377855 -0.002075
10.009903 39.163734 0.942822
10.016931 39.158558 1.893467
0.007389 -0.187885 -0.004280
9.092664 35.439930 3.430006
8.523724 33.156780 4.024047
9.118850 35.431335 5.166884
8.746706 33.948151 5.788818
0.007389 -0.187885 -0.004280
0.150319 0.368893 -0.344957
0.155939 0.389904 -0.339262
0.169857 0.443431 -0.350677
0.187694 0.511620 -0.366746
0.233863 0.689293 -0.432868
0.458557 1.556548 -0.806174
0.516162 1.777671 -0.851996
1.102533 4.036007 -1.707581
1.180376 4.329217 -1.702270
1.261901 4.639156 -1.688862
1.360827 5.011762 -1.680168
1.468759 5.417718 -1.664679
1.590600 5.880059 -1.645217
1.743374 6.455336 -1.630410
1.923865 7.134785 -1.612337
2.142365 7.957199 -1.589817
2.146702 8.120481 -1.412855
2.689079 10.210747 -1.512350
3.069600 11.676435 -1.433699
3.620795 13.790316 -1.349714
4.329437 16.505939 -1.208307
4.771084 18.196646 -0.887964
5.101780 19.442663 -0.473049
5.056642 19.238884 -0.002224
0.007389 -0.187637 -0.004275
11.132020 42.512836 2.057984
0.007389 -0.187637 -0.004275
0.007389 -0.187637 -0.004275
8.769143 33.313164 4.048687
9.107262 34.552883 5.046577
9.078036 34.388546 5.872273
8.423673 31.868156 6.243469
0.154904 0.373260 -0.348015
0.158019 0.384198 -0.336323
0.172681 0.439281 -0.348799
0.191827 0.510780 -0.366746
0.239499 0.689917 -0.433725
0.471357 1.564749 -0.811061
0.530170 1.783787 -0.855859
1.129454 4.036884 -1.710517
1.206803 4.324443 -1.702982
1.289497 4.628205 -1.687613
1.392115 5.005737 -1.680798
1.503437 5.418739 -1.667470
1.628508 5.878275 -1.647283
1.784041 6.454866 -1.632758
1.967949 7.131424 -1.614047
2.169312 7.870993 -1.575437
2.193366 8.098350 -1.411291
2.749339 10.197303 -1.512699
3.144931 11.677531 -1.436100
3.708133 13.786213 -1.351483
4.431010 16.502264 -1.209956
5.542713 20.665079 -1.008314
0.007362 -0.187405 -0.004270
5.124567 19.045483 -0.002377
8.980206 33.486160 0.808113
8.982334 33.443657 1.622261
8.995415 33.465740 2.434767
9.642355 35.834034 3.478030
8.910965 33.049858 4.022869
8.842777 32.769028 4.794259
8.908261 32.963757 5.638442
8.691568 32.108395 6.299918
0.158573 0.374309 -0.349035
0.161296 0.383565 -0.336322
0.178577 0.447087 -0.353493
0.195820 0.509941 -0.366746
0.244059 0.687063 -0.432871
0.481434 1.562297 -0.811069
0.540535 1.777431 -0.854328
1.152728 4.026989 -1.709088
1.231747 4.314081 -1.701642
1.318169 4.624651 -1.688923
1.422459 4.999767 -1.681426
1.535665 5.410284 -1.667507
1.664382 5.872820 -1.648335
1.820681 6.439152 -1.631419
2.011040 7.124040 -1.614927
2.193755 7.779048 -1.559945
2.256414 8.143042 -1.421069
2.812614 10.194970 -1.514717
3.213107 11.659521 -1.436181
3.794153 13.786072 -1.353622
4.536304 16.511438 -1.212581
5.353557 19.495621 -0.953597
5.079772 18.460091 -0.451223
5.183612 18.826870 -0.002529
12.028424 43.905125 1.060802
11.666166 42.513527 2.063806
9.989719 36.344849 2.647269
9.825181 35.689941 3.469219
9.895288 35.893143 4.373899
9.238035 33.468559 4.903481
9.030830 32.664913 5.596032
9.358821 33.809189 6.642004
0.160425 0.368698 -0.345974
0.165509 0.386280 -0.338281
0.177508 0.429307 -0.344104
0.200772 0.512534 -0.368540
0.250530 0.691158 -0.435439
0.489025 1.550969 -0.807010
0.553282 1.779895 -0.856649
1.177930 4.024153 -1.710568
1.258100 4.309005 -1.702354
1.345817 4.617265 -1.688954
1.452766 4.993613 -1.682055
1.569373 5.407190 -1.669196
1.697653 5.857842 -1.646855
1.859788 6.432590 -1.632384
2.055169 7.120169 -1.616638
2.219869 7.696558 -1.546302
2.318964 8.183455 -1.430198
2.875437 10.190356 -1.516457
3.291245 11.677498 -1.440667
3.878705 13.779653 -1.355204
4.638659 16.508419 -1.214369
0.007361 -0.186910 -0.004260
5.336445 18.968292 -0.464261
5.211858 18.506084 -0.002687
12.340878 44.047375 1.065609
11.690732 41.655178 2.025142
0.007361 -0.186910 -0.004260
10.016867 35.581375 3.463942
9.848535 34.929306 4.263455
9.379572 33.230225 4.876225
9.249521 32.719158 5.613963
9.305159 32.869698 6.468386
0.167798 0.382948 -0.355153
0.168314 0.383920 -0.337300
0.182977 0.435367 -0.347859
0.203322 0.506489 -0.365849
0.254584 0.686509 -0.433729
0.501517 1.557211 -0.811085
1.133905 3.783206 -1.727559
1.200595 4.012208 -1.708412
1.284968 4.305592 -1.703750
1.373915 4.611533 -1.689623
1.482516 4.985438 -1.682087
1.600961 5.396488 -1.668680
1.732361 5.848243 -1.646894
1.897294 6.420194 -1.631966
2.095529 7.102858 -1.615440
2.244587 7.612152 -1.532289
2.372442 8.189261 -1.433496
2.937219 10.181549 -1.517640
3.364806 11.677754 -1.443066
3.963303 13.772721 -1.356786
4.738943 16.497099 -1.215601
5.946912 20.726690 -1.016475
5.389634 18.737556 -0.459583
12.617040 44.115757 -0.000845
12.654812 44.185555 1.070368
10.301489 35.878052 1.747514
0.007360 -0.186662 -0.004255
10.364240 36.019344 3.511842
10.327703 35.840599 4.381053
9.630548 33.381657 4.906064
9.381991 32.468472 5.579991
9.396286 32.472183 6.400729
0.168229 0.372349 -0.349033
0.171589 0.383229 -0.337300
0.187502 0.437969 -0.349736
0.207819 0.507323 -0.366747
0.260598 0.688785 -0.435442
0.511025 1.552825 -0.810279
1.155163 3.771574 -1.725270
1.226803 4.012672 -1.711347
1.310753 4.298392 -1.703777
1.400432 4.600196 -1.688373
1.513299 4.980772 -1.683311
1.633575 5.389309 -1.669267
1.767035 5.838458 -1.646933
1.935797 6.411318 -1.632471
2.137412 7.090967 -1.615488
2.266708 7.522050 -1.517163
2.425487 8.192821 -1.436468
2.999529 10.174271 -1.519102
3.436838 11.671843 -1.444770
4.047390 13.763364 -1.358182
4.837584 16.479431 -1.216415
6.084365 20.751915 -1.019506
0.007333 -0.186429 -0.004250
12.933059 44.253998 -0.001149
11.659583 39.819908 0.965952
10.521599 35.862625 1.749402
10.542476 35.907497 2.627495
10.648847 36.221317 3.537052
10.634037 36.120262 4.422168
9.819539 33.312721 4.903874
9.504100 32.190830 5.541482
9.703053 32.823372 6.480138
0.173957 0.379883 -0.354132
0.177411 0.390850 -0.342197
0.191698 0.438836 -0.350675
0.212426 0.508086 -0.367644
0.266289 0.689252 -0.436299
0.521291 1.550042 -0.810287
1.172285 3.743704 -1.716046
1.253244 4.010966 -1.713556
1.338924 4.296244 -1.705858
1.428768 4.592098 -1.688405
1.543883 4.971996 -1.683345
1.666048 5.377978 -1.668753
1.804902 5.835574 -1.648999
1.972061 6.390687 -1.630210
2.183268 7.087812 -1.617616
2.295993 7.454172 -1.506481
2.478994 8.191831 -1.438795
3.064807 10.169903 -1.521122
3.514933 11.678226 -1.448100
4.136173 13.760412 -1.360324
4.942470 16.471794 -1.218068
5.591790 18.637642 -0.918703
9.712158 32.481625 -0.793410
13.263970 44.404995 -0.001463
11.874194 39.675686 0.963841
10.769827 35.916733 1.754827
10.580506 35.255863 2.584222
10.896299 36.264736 3.547194
10.777269 35.817150 4.392615
10.908479 36.229309 5.340254
9.849922 32.648476 5.629469
10.001873 33.110107 6.547682
0.175704 0.374208 -0.351071
0.179232 0.385105 -0.339257
0.193748 0.432931 -0.347858
0.212787 0.495154 -0.361363
0.268715 0.679346 -0.432023
0.531284 1.547308 -0.810295
1.198614 3.749544 -1.721465
1.276818 4.002185 -1.712854
1.364127 4.286946 -1.705202
1.458965 4.593138 -1.691635
1.574630 4.966962 -1.684569
1.698565 5.370415 -1.669340
1.841186 5.830923 -1.650557
2.011553 6.385099 -1.631637
2.226207 7.079154 -1.618496
0.007330 -0.185931 -0.004240
2.526567 8.175825 -1.438528
3.126572 10.159956 -1.522306
3.583685 11.660000 -1.448414
4.219201 13.746209 -1.361349
5.050329 16.483480 -1.221113
5.745712 18.756504 -0.926188
9.749545 31.929951 -0.781648
13.590486 44.559822 -0.001772
11.922395 39.012077 0.949085
10.821373 35.342285 1.729571
10.851591 35.416122 2.600164
10.766499 35.089428 3.438375
11.092080 36.108253 4.435584
11.155351 36.289402 5.358092
11.496302 37.354721 6.447870
10.102235 32.755470 6.488919
0.177411 0.368543 -0.348010
0.182508 0.384351 -0.339257
0.197314 0.432100 -0.347858
0.217222 0.495911 -0.362260
0.276863 0.688427 -0.437157
0.538536 1.535772 -0.806236
1.221222 3.742863 -1.721489
1.299776 3.991488 -1.711425
1.390362 4.281091 -1.705913
1.486409 4.584939 -1.691665
1.604781 4.959911 -1.685197
1.731611 5.364495 -1.670478
1.875201 5.818675 -1.650090
2.047549 6.368112 -1.630296
2.269692 7.072114 -1.619791
2.339188 7.285216 -1.478446
2.575161 8.163307 -1.438908
3.191862 10.161022 -1.525159
3.657007 11.656556 -1.450582
4.302763 13.733403 -1.362560
5.150826 16.469694 -1.222345
5.853964 18.721519 -0.926228
5.881187 18.784422 -0.464381
13.918621 44.710453 -0.002083
11.542075 36.991470 0.901268
12.303452 39.393135 1.930377
10.948371 35.006683 2.574500
10.938998 34.930264 3.428642
11.290574 36.011940 4.431373
11.418032 36.395130 5.382889
11.646713 37.079216 6.411600
11.698330 37.195328 7.376877
0.178531 0.361230 -0.343928
0.185253 0.381911 -0.338276
0.201392 0.432928 -0.348796
0.224876 0.506867 -0.368542
0.277532 0.673307 -0.430314
0.544585 1.520731 -0.800550
1.243770 3.736040 -1.721513
1.323190 3.982432 -1.710723
1.416028 4.273300 -1.705941
1.513256 4.574789 -1.691055
1.634352 4.950879 -1.685230
1.762908 5.352885 -1.669962
1.910858 5.811752 -1.651142
2.084609 6.354649 -1.629878
2.316127 7.074127 -1.623165
2.360051 7.202629 -1.464797
2.625512 8.156178 -1.440261
3.256049 10.157881 -1.527456
3.729812 11.650760 -1.452519
4.386927 13.722003 -1.363957
5.255510 16.468615 -1.224554
6.638922 20.831205 -1.031086
10.557437 33.206139 -0.815893
14.247146 44.853069 -0.002398
11.729741 36.842804 0.899001
11.622907 36.457748 1.789856
11.224176 35.175449 2.591277
11.607350 36.336052 3.572244
11.529886 36.045166 4.443196
11.569950 36.146111 5.355619
11.787735 36.782539 6.371766
12.214255 38.071468 7.563276
0.183755 0.367032 -0.348008
0.190086 0.386094 -0.341214
0.203853 0.428675 -0.346918
0.228306 0.504147 -0.367644
0.286340 0.684035 -0.436305
0.551880 1.509058 -0.796490
1.264617 3.723836 -1.719225
1.348272 3.978574 -1.712204
1.443552 4.268674 -1.707337
1.544664 4.578900 -1.695566
1.661504 4.934399 -1.682880
1.795707 5.342629 -1.669999
1.945309 5.800939 -1.651181
2.121526 6.336909 -1.628540
2.360924 7.066141 -1.624463
2.388585 7.142057 -1.455591
2.674619 8.144967 -1.440965
3.324516 10.161306 -1.530868
3.797798 11.629386 -1.452601
4.469262 13.704401 -1.364797
5.360808 16.458345 -1.226208
6.419935 19.737482 -0.979563
10.846805 33.447731 -0.823503
14.590554 45.006062 -0.002724
11.956655 36.818802 0.899804
11.811944 36.324066 1.786329
11.388661 34.970066 2.580827
11.442854 35.092480 3.456751
11.645508 35.693249 4.407849
11.908642 36.457745 5.411588
12.168324 37.209709 6.457432
12.281408 37.531815 7.470040
0.187026 0.366224 -0.348007
0.192389 0.381935 -0.339254
0.209121 0.432775 -0.349734
0.232369 0.503060 -0.367644
0.290206 0.679223 -0.434595
0.564440 1.514811 -0.800565
1.290619 3.725311 -1.723103
1.373928 3.976335 -1.714411
1.469731 4.262363 -1.708050
1.572034 4.570215 -1.695596
1.690309 4.923217 -1.682317
1.828660 5.336133 -1.671137
1.977880 5.784416 -1.649701
2.158993 6.324874 -1.628582
2.392082 7.025265 -1.618273
2.433739 7.141965 -1.458231
2.729449 8.146134 -1.443940
3.389495 10.159231 -1.533444
3.876407 11.633391 -1.455931
4.554581 13.687413 -1.365825
5.463269 16.448370 -1.227859
6.535997 19.693674 -0.979429
0.007302 -0.184957 -0.004220
14.927717 45.157249 -0.003044
12.668131 38.242134 0.936102
11.951049 36.041431 1.775532
11.912761 35.879997 2.652448
11.641293 35.034111 3.457062
11.986393 36.033367 4.457778
12.018312 36.084389 5.366225
12.461122 37.396389 6.501272
0.007302 -0.184957 -0.004220
0.190628 0.367085 -0.349026
0.193325 0.374508 -0.335335
0.212007 0.430211 -0.348795
0.233937 0.495255 -0.364055
0.293429 0.672669 -0.432029
0.569571 1.497956 -0.794065
1.311212 3.714819 -1.721584
1.399603 3.973938 -1.716619
1.494068 4.250540 -1.706709
1.599938 4.563160 -1.696266
1.720274 4.915507 -1.682946
1.861586 5.329437 -1.672275
2.012767 5.775042 -1.650246
2.200125 6.323698 -1.631392
2.410375 6.938951 -1.602106
0.007301 -0.184709 -0.004215
2.793934 8.185362 -1.453397
3.453309 10.152996 -1.535463
3.944124 11.617517 -1.456707
4.640078 13.686638 -1.368334
5.565804 16.437769 -1.229510
7.088625 20.977722 -1.044478
6.910497 20.419798 -0.508333
0.007301 -0.184709 -0.004215
13.007560 38.544594 0.944984
12.236189 36.201530 1.786549
12.144145 35.883041 2.657491
11.962960 35.300724 3.489877
12.070741 35.597084 4.412211
12.169697 35.846100 5.340910
13.025442 38.333683 6.676425
18.046379 53.154640 10.605486
0.192770 0.362964 -0.346985
0.197184 0.375288 -0.336313
0.216201 0.430896 -0.349733
0.239674 0.499215 -0.366747
0.300838 0.678050 -0.435454
0.580399 1.498386 -0.795699
1.334891 3.709008 -1.722379
1.425434 3.969384 -1.718101
1.520167 4.243937 -1.707421
1.631092 4.562830 -1.699498
1.751055 4.907291 -1.683575
1.892661 5.317108 -1.671760
2.050567 5.770613 -1.652312
2.247621 6.340659 -1.638812
2.432225 6.869750 -1.589679
0.007300 -0.184462 -0.004211
2.833960 8.140905 -1.448592
3.515260 10.140749 -1.536647
4.019748 11.611145 -1.458878
4.724755 13.666716 -1.369177
5.667742 16.424648 -1.231022
6.610006 19.165846 -0.957449
6.483672 18.772388 -0.469090
0.007300 -0.184462 -0.004211
7.070124 20.450403 0.502382
12.689919 36.824177 1.820572
12.337784 35.773277 2.654300
12.748807 36.926723 3.656843
12.497609 36.150814 4.489309
12.446298 35.978107 5.370713
13.417068 38.752960 6.762074
0.007300 -0.184462 -0.004211
0.194249 0.357266 -0.343924
0.202690 0.381030 -0.340232
0.220315 0.431600 -0.350672
0.243605 0.498114 -0.366747
0.299869 0.659512 -0.426899
0.595467 1.510847 -0.803028
1.357855 3.703281 -1.723174
1.448053 3.957865 -1.716671
1.546843 4.238950 -1.708817
1.656499 4.548285 -1.697608
1.780944 4.899221 -1.684203
1.925520 5.310036 -1.672898
2.086046 5.762648 -1.653364
2.288304 6.337080 -1.641161
2.448168 6.785755 -1.573925
2.618256 7.262484 -1.490965
2.906315 8.195624 -1.460969
3.577801 10.129987 -1.538110
4.089464 11.593739 -1.459656
4.805611 13.643339 -1.369645
5.769042 16.409016 -1.232395
6.580780 18.723957 -0.937651
6.584685 18.712404 -0.468668
6.583644 18.697306 -0.004131
6.602741 18.729404 0.460913
13.464941 38.361687 1.899875
12.658203 36.027863 2.678178
13.179008 37.473408 3.717885
12.777944 36.283016 4.514368
12.969761 36.807156 5.504617
21.441786 60.910809 10.633266
0.007300 -0.184214 -0.004206
0.197336 0.356413 -0.343923
0.205937 0.380142 -0.340231
0.223256 0.428939 -0.349733
0.247517 0.496984 -0.366748
