# This PCD file was generated using the MATLAB® pcwrite function
# from Computer Vision Toolbox®.
# .PCD v.7 - Point Cloud Data file format
VERSION .7
FIELDS x y z
SIZE 4 4 4
TYPE F F F
COUNT 1 1 1
WIDTH 1629
HEIGHT 1
VIEWPOINT 0 0 0 1 0 0 0
POINTS 1629
DATA ascii
0.247416 -0.715783 -0.343756
0.264373 -0.760175 -0.346686
0.290816 -0.828845 -0.358973
0.315456 -0.893265 -0.365702
0.358450 -1.005351 -0.388888
1.918143 -5.041958 -1.937964
2.068477 -5.436758 -1.942066
2.276674 -5.982498 -1.975911
2.500219 -6.565841 -1.995090
2.757792 -7.241940 -2.011067
3.050711 -8.007230 -2.014649
3.397126 -8.917190 -2.014558
3.814799 -10.014672 -2.007289
4.471386 -11.581109 -2.029693
5.342861 -13.830651 -2.075805
6.747566 -17.464897 -2.180275
7.157218 -18.540272 -1.850051
0.001028 -0.080951 -0.001810
18.379322 -47.564960 -2.379305
26.263796 -68.009041 -1.697039
17.753305 -46.022400 -0.004769
17.976002 -46.648857 1.154097
0.001028 -0.080951 -0.001810
35.457703 -92.089111 6.887227
0.001028 -0.080951 -0.001810
0.001028 -0.080951 -0.001810
0.001028 -0.080951 -0.001810
0.001028 -0.080951 -0.001810
0.001028 -0.080951 -0.001810
0.001031 -0.080702 -0.001805
0.212747 -0.634419 -0.334932
0.223531 -0.662980 -0.333290
0.242584 -0.713565 -0.341958
0.261848 -0.764776 -0.348393
0.287176 -0.831949 -0.359783
0.309585 -0.891319 -0.364156
0.349312 -0.996636 -0.384520
1.887573 -5.047377 -1.935921
2.041920 -5.456816 -1.945277
2.245073 -5.998416 -1.977115
2.461512 -6.576260 -1.994001
2.715749 -7.251525 -2.009563
3.009882 -8.037130 -2.017896
3.347619 -8.939985 -2.015411
3.762453 -10.049065 -2.009907
4.404349 -11.598240 -2.028425
5.262274 -13.857194 -2.075285
6.652613 -17.507576 -2.181017
7.108057 -18.721060 -1.864230
0.001031 -0.080702 -0.001805
18.312481 -48.187405 -2.405468
26.756456 -70.447365 -1.754348
17.502237 -46.159031 -0.004907
17.731609 -46.789261 1.154982
0.001031 -0.080702 -0.001805
0.001031 -0.080702 -0.001805
0.001031 -0.080702 -0.001805
0.001031 -0.080702 -0.001805
0.001031 -0.080702 -0.001805
0.001031 -0.080702 -0.001805
0.001031 -0.080702 -0.001805
0.001009 -0.080471 -0.001799
0.206987 -0.628905 -0.331009
0.220689 -0.665704 -0.334226
0.237570 -0.711397 -0.340159
0.259052 -0.769454 -0.350102
0.280902 -0.828219 -0.357339
0.303498 -0.889425 -0.362612
0.347140 -1.007165 -0.388155
1.858291 -5.056151 -1.935247
2.011340 -5.472123 -1.946570
2.207958 -6.005998 -1.975340
2.415370 -6.566645 -1.986847
2.673874 -7.269055 -2.010087
2.959306 -8.041295 -2.014687
3.297964 -8.962510 -2.016265
3.711883 -10.088715 -2.013637
4.337383 -11.627590 -2.029104
5.181541 -13.883276 -2.074764
6.548493 -17.544596 -2.180835
7.039362 -18.874495 -1.875438
7.080642 -18.995571 -1.415408
0.001009 -0.080471 -0.001799
26.181532 -70.183022 -1.744090
20.535124 -55.095230 -0.005663
17.694773 -47.537758 1.170764
0.001009 -0.080471 -0.001799
34.335007 -92.324043 6.874270
0.001009 -0.080471 -0.001799
0.001009 -0.080471 -0.001799
0.001009 -0.080471 -0.001799
0.001009 -0.080471 -0.001799
0.001009 -0.080471 -0.001799
0.001014 -0.080226 -0.001794
0.203241 -0.628192 -0.330026
0.217923 -0.668375 -0.335161
0.236418 -0.719207 -0.343746
0.253831 -0.767293 -0.348387
0.277240 -0.831282 -0.358150
0.299469 -0.892643 -0.363380
0.338577 -1.000161 -0.384514
1.829008 -5.064730 -1.934573
1.982237 -5.488692 -1.948502
2.171866 -6.012969 -1.973565
2.380655 -6.587401 -1.989067
2.631804 -7.282250 -2.009597
2.916796 -8.067076 -2.017011
3.249491 -8.988434 -2.017950
3.655587 -10.113342 -2.014402
4.267475 -11.642834 -2.027512
5.101354 -13.910748 -2.074522
6.449308 -17.585443 -2.181346
6.995757 -19.090103 -1.892966
7.019232 -19.164940 -1.425095
0.001014 -0.080226 -0.001794
25.785416 -70.352852 -1.744808
25.399853 -69.342102 -0.006856
17.437290 -47.681709 1.171691
0.001014 -0.080226 -0.001794
0.001014 -0.080226 -0.001794
33.132637 -90.785988 9.000731
0.001014 -0.080226 -0.001794
0.001014 -0.080226 -0.001794
0.001014 -0.080226 -0.001794
0.001014 -0.080226 -0.001794
0.001019 -0.079980 -0.001789
0.197093 -0.620918 -0.325122
0.213926 -0.667714 -0.334218
0.232740 -0.720307 -0.343743
0.249891 -0.768484 -0.348384
0.274763 -0.837778 -0.360587
0.294153 -0.892374 -0.362606
0.334536 -1.005353 -0.385967
1.800283 -5.074927 -1.934582
1.949799 -5.496191 -1.947232
2.140924 -6.034097 -1.976557
2.347070 -6.611596 -1.992390
2.583783 -7.278811 -2.004546
2.866179 -8.070657 -2.013801
3.198849 -9.008568 -2.018387
3.596488 -10.130250 -2.013686
4.201550 -11.668799 -2.027866
5.019016 -13.932161 -2.073444
6.353905 -17.636942 -2.183250
6.917432 -19.215921 -1.901570
6.954752 -19.330471 -1.434504
17.784420 -49.366737 -2.449004
24.971283 -69.363632 -1.716889
0.001019 -0.079980 -0.001789
17.421103 -48.497784 1.189185
12.178632 -33.965221 1.674772
33.260788 -92.682426 6.871494
0.001019 -0.079980 -0.001789
0.001019 -0.079980 -0.001789
0.001019 -0.079980 -0.001789
0.001019 -0.079980 -0.001789
0.001019 -0.079980 -0.001789
0.000998 -0.079751 -0.001783
0.193986 -0.621791 -0.325119
0.212330 -0.673669 -0.337032
0.227245 -0.716339 -0.341046
0.245309 -0.767964 -0.347524
0.268565 -0.833931 -0.358143
0.287633 -0.888580 -0.360290
0.324851 -0.994723 -0.380871
1.771527 -5.084941 -1.934592
1.919890 -5.510626 -1.948524
2.105999 -6.044259 -1.975974
2.308816 -6.622924 -1.991852
2.541698 -7.291469 -2.004056
2.818218 -8.081257 -2.012435
3.149363 -9.032114 -2.019656
3.539251 -10.152381 -2.014081
4.137473 -11.699954 -2.029192
4.936587 -13.953089 -2.072366
6.254122 -17.676699 -2.183761
6.869167 -19.429682 -1.918913
6.891929 -19.505285 -1.444612
17.568674 -49.660046 -2.458663
0.000998 -0.079751 -0.001783
19.459341 -55.091831 -0.006115
0.000998 -0.079751 -0.001783
12.000798 -34.083458 1.677095
32.754791 -92.949135 6.876939
0.000998 -0.079751 -0.001783
0.000998 -0.079751 -0.001783
0.000998 -0.079751 -0.001783
0.000998 -0.079751 -0.001783
0.000998 -0.079751 -0.001783
0.001003 -0.079505 -0.001778
0.189133 -0.617714 -0.322176
0.207732 -0.671305 -0.335150
0.224168 -0.719075 -0.341940
0.239566 -0.763991 -0.344954
0.265275 -0.838720 -0.359767
0.287807 -0.903928 -0.366455
0.321411 -1.001610 -0.383051
1.743036 -5.098664 -1.935969
1.887354 -5.517756 -1.947253
2.067895 -6.045203 -1.972410
2.269366 -6.634420 -1.991315
2.500775 -7.307560 -2.004578
2.770124 -8.095715 -2.011993
3.095615 -9.048514 -2.019262
3.481401 -10.178506 -2.015218
4.074466 -11.734487 -2.031168
4.855584 -13.985585 -2.072960
6.145610 -17.691490 -2.181255
0.001003 -0.079505 -0.001778
6.827165 -19.690634 -1.455420
17.518169 -50.435551 -2.492213
0.001003 -0.079505 -0.001778
0.001003 -0.079505 -0.001778
17.346491 -50.088634 1.223054
11.771650 -34.055405 1.672256
0.001003 -0.079505 -0.001778
0.001003 -0.079505 -0.001778
0.001003 -0.079505 -0.001778
0.001003 -0.079505 -0.001778
0.001003 -0.079505 -0.001778
0.001003 -0.079505 -0.001778
0.001008 -0.079260 -0.001772
0.185922 -0.618585 -0.322172
0.204226 -0.672272 -0.335147
0.221525 -0.723527 -0.343732
0.237946 -0.771959 -0.348373
0.259137 -0.834794 -0.357323
0.279927 -0.896641 -0.362597
0.313705 -0.996136 -0.380138
1.712914 -5.104799 -1.934610
1.857853 -5.533659 -1.949185
2.029238 -6.044094 -1.968251
2.233453 -6.652585 -1.992983
2.452938 -7.303250 -1.999527
2.722708 -8.107582 -2.011089
3.044283 -9.061683 -2.018450
3.428177 -10.206815 -2.017093
4.003389 -11.752577 -2.030225
4.775489 -14.013043 -2.072995
6.029527 -17.693525 -2.177125
0.001008 -0.079260 -0.001772
6.760689 -19.865259 -1.465528
17.145857 -50.322689 -2.481720
0.001008 -0.079260 -0.001772
18.924519 -55.634796 -0.006460
11.340019 -33.407768 0.812754
11.455113 -33.766708 1.654677
31.731506 -93.511894 6.890191
0.001008 -0.079260 -0.001772
0.001008 -0.079260 -0.001772
0.001008 -0.079260 -0.001772
0.001008 -0.079260 -0.001772
0.001008 -0.079260 -0.001772
0.000986 -0.079029 -0.001767
0.182363 -0.617706 -0.321188
0.201468 -0.674832 -0.336082
0.213949 -0.712641 -0.337446
0.234533 -0.774780 -0.349226
0.254213 -0.834287 -0.356507
0.273601 -0.892693 -0.360281
0.307221 -0.994154 -0.378680
1.685181 -5.117873 -1.935988
1.825839 -5.542210 -1.948555
1.999712 -6.069909 -1.973030
2.194400 -6.661415 -1.991894
2.411944 -7.318828 -2.000050
2.680158 -8.133939 -2.013874
2.991588 -9.081180 -2.018888
3.368085 -10.226704 -2.017118
3.939472 -11.778215 -2.030901
4.693996 -14.036275 -2.072474
5.919794 -17.692736 -2.172991
0.000986 -0.079029 -0.001767
6.695589 -20.049227 -1.476336
16.852018 -50.377506 -2.479896
0.000986 -0.079029 -0.001767
0.000986 -0.079029 -0.001767
11.377560 -34.139706 0.828995
11.418597 -34.303684 1.677742
0.000986 -0.079029 -0.001767
30.635492 -92.128700 9.040986
0.000986 -0.079029 -0.001767
0.000986 -0.079029 -0.001767
0.000986 -0.079029 -0.001767
0.000986 -0.079029 -0.001767
0.000991 -0.078783 -0.001761
0.176430 -0.610254 -0.316285
0.197390 -0.674085 -0.335139
0.211849 -0.718752 -0.340135
0.229270 -0.772477 -0.347511
0.252139 -0.842435 -0.359758
0.272221 -0.904574 -0.364903
0.300631 -0.992170 -0.377222
1.656143 -5.127243 -1.935997
1.793435 -5.552677 -1.948566
1.965346 -6.085034 -1.974234
2.154087 -6.666379 -1.989702
2.373197 -7.345613 -2.003613
2.639797 -8.167480 -2.018505
2.941571 -9.103565 -2.020156
3.309642 -10.245664 -2.017142
3.871273 -11.804866 -2.031579
4.613629 -14.062792 -2.072509
5.810937 -17.714050 -2.171413
6.579315 -20.070738 -1.967095
6.632945 -20.246370 -1.488121
11.247806 -34.321808 -1.685651
11.241510 -34.344421 -0.842096
10.841913 -33.147118 -0.004732
0.000991 -0.078783 -0.001761
11.053459 -33.874920 1.653374
11.119020 -34.096859 2.497750
0.000991 -0.078783 -0.001761
0.000991 -0.078783 -0.001761
0.000991 -0.078783 -0.001761
0.000991 -0.078783 -0.001761
0.000991 -0.078783 -0.001761
0.000997 -0.078539 -0.001756
0.167992 -0.594427 -0.306483
0.194495 -0.676647 -0.336075
0.207602 -0.718016 -0.339233
0.223598 -0.768380 -0.344940
0.245497 -0.836668 -0.356500
0.267470 -0.905875 -0.364901
0.294231 -0.990087 -0.375764
1.626494 -5.134645 -1.935322
1.763061 -5.566264 -1.949857
1.930744 -6.095997 -1.974246
2.114986 -6.674743 -1.988612
2.330174 -7.355206 -2.002614
2.593823 -8.184127 -2.018984
2.890779 -9.123821 -2.021008
3.252284 -10.268033 -2.017906
3.801937 -11.821052 -2.030634
4.528219 -14.073779 -2.070315
5.708165 -17.743158 -2.170994
6.511901 -20.255821 -1.981652
6.563365 -20.428249 -1.498790
13.421556 -41.746857 -2.047071
0.000997 -0.078539 -0.001756
16.292028 -50.754322 -0.006444
0.000997 -0.078539 -0.001756
10.996142 -34.365742 1.674205
10.949936 -34.243618 2.503789
0.000997 -0.078539 -0.001756
0.000997 -0.078539 -0.001756
0.000997 -0.078539 -0.001756
0.000997 -0.078539 -0.001756
0.000997 -0.078539 -0.001756
0.000974 -0.078308 -0.001750
0.159750 -0.578515 -0.296681
0.191561 -0.679202 -0.337010
0.205537 -0.724065 -0.341922
0.220179 -0.771127 -0.345792
0.241674 -0.839565 -0.357310
0.262707 -0.907152 -0.364898
0.288419 -0.989739 -0.375033
1.595683 -5.138288 -1.933278
1.730322 -5.572449 -1.948586
1.896664 -6.108573 -1.974853
2.074685 -6.679220 -1.986420
2.287091 -7.364559 -2.001616
2.545976 -8.194951 -2.018079
2.838109 -9.138183 -2.020612
3.198889 -10.303205 -2.021264
3.732522 -11.836838 -2.029688
4.447034 -14.097456 -2.070071
5.603435 -17.765991 -2.169877
6.442577 -20.440783 -1.996209
6.493694 -20.615702 -1.509877
13.079971 -41.501163 -2.031408
0.000974 -0.078308 -0.001750
10.500434 -33.395065 -0.004921
0.000974 -0.078308 -0.001750
10.684310 -34.064159 1.656354
10.744871 -34.279148 2.501747
0.000974 -0.078308 -0.001750
0.000974 -0.078308 -0.001750
0.000974 -0.078308 -0.001750
0.000974 -0.078308 -0.001750
0.000974 -0.078308 -0.001750
0.000980 -0.078063 -0.001745
0.155314 -0.574184 -0.293737
0.187049 -0.676677 -0.335128
0.200762 -0.721570 -0.340124
0.217262 -0.775584 -0.347501
0.237836 -0.842435 -0.358121
0.257394 -0.906634 -0.364124
0.283166 -0.991138 -0.375030
1.567088 -5.148936 -1.933971
1.699792 -5.585685 -1.949877
1.861376 -6.117310 -1.974269
2.031598 -6.674248 -1.981470
2.243445 -7.371786 -2.000111
2.495816 -8.198048 -2.015328
2.788254 -9.161580 -2.022297
3.141155 -10.324948 -2.022027
3.667164 -11.865397 -2.031014
4.362805 -14.111194 -2.068434
5.496891 -17.782495 -2.168065
0.000980 -0.078063 -0.001745
6.420899 -20.799213 -1.520686
12.812550 -41.481937 -2.026945
10.645596 -34.523003 -0.842138
10.344043 -33.569313 -0.005021
10.401077 -33.797195 0.814199
10.522171 -34.233631 1.661563
0.000980 -0.078063 -0.001745
0.000980 -0.078063 -0.001745
0.000980 -0.078063 -0.001745
0.000980 -0.078063 -0.001745
0.000980 -0.078063 -0.001745
0.000980 -0.078063 -0.001745
0.000983 -0.077814 -0.001740
0.149395 -0.564815 -0.287854
0.183597 -0.677490 -0.335124
0.198081 -0.725889 -0.341915
0.213759 -0.778304 -0.348353
0.232233 -0.840086 -0.356490
0.254205 -0.913158 -0.366433
0.277379 -0.990710 -0.374300
1.537011 -5.157870 -1.933980
1.667541 -5.593294 -1.949246
1.823857 -6.118513 -1.971301
1.994113 -6.691446 -1.983137
2.200319 -7.380614 -1.999112
2.447641 -8.212439 -2.015346
2.733242 -9.173937 -2.021485
3.079258 -10.339350 -2.021311
3.599881 -11.887923 -2.031366
4.277230 -14.128979 -2.067354
5.388597 -17.792658 -2.165555
0.000983 -0.077814 -0.001740
6.349527 -21.006565 -1.533174
12.530104 -41.409405 -2.019959
0.000983 -0.077814 -0.001740
0.000983 -0.077814 -0.001740
0.000983 -0.077814 -0.001740
0.000983 -0.077814 -0.001740
28.764645 -95.525192 6.959390
0.000983 -0.077814 -0.001740
0.000983 -0.077814 -0.001740
0.000983 -0.077814 -0.001740
0.000983 -0.077814 -0.001740
0.000983 -0.077814 -0.001740
0.000961 -0.077583 -0.001734
0.127569 -0.501951 -0.250616
0.181556 -0.683394 -0.337938
0.195269 -0.730222 -0.343707
0.208581 -0.775839 -0.346638
0.228342 -0.842922 -0.357300
0.247169 -0.907313 -0.363346
0.271945 -0.992097 -0.374297
1.506701 -5.162768 -1.932621
1.633742 -5.599195 -1.947976
1.788004 -6.128972 -1.971313
1.958767 -6.711767 -1.985908
2.155349 -7.387710 -1.997608
2.401350 -8.228000 -2.015824
2.681950 -9.193024 -2.022336
3.017393 -10.347219 -2.019481
3.529248 -11.906910 -2.031070
4.195769 -14.151196 -2.067109
5.276699 -17.801188 -2.162814
0.000961 -0.077583 -0.001734
6.276175 -21.201235 -1.544822
12.272999 -41.442455 -2.018111
0.000961 -0.077583 -0.001734
0.000961 -0.077583 -0.001734
0.000961 -0.077583 -0.001734
0.000961 -0.077583 -0.001734
0.000961 -0.077583 -0.001734
0.000961 -0.077583 -0.001734
0.000961 -0.077583 -0.001734
0.000961 -0.077583 -0.001734
0.000961 -0.077583 -0.001734
0.000961 -0.077583 -0.001734
0.000966 -0.077337 -0.001729
0.000966 -0.077337 -0.001729
0.176087 -0.677401 -0.334177
0.189010 -0.722506 -0.339215
0.203150 -0.771546 -0.344067
0.222399 -0.838716 -0.354856
0.242885 -0.910257 -0.364114
0.266826 -0.993359 -0.374294
1.476888 -5.169298 -1.931945
1.602917 -5.607969 -1.947985
1.753694 -6.136762 -1.970727
1.920009 -6.720839 -1.985369
2.114548 -7.399362 -1.997622
2.354953 -8.243301 -2.016302
2.630519 -9.205708 -2.021939
2.962224 -10.371199 -2.020985
3.461136 -11.926764 -2.031096
4.120835 -14.195764 -2.070206
5.166334 -17.802382 -2.159375
6.141841 -21.178286 -2.054257
6.205254 -21.411072 -1.557589
12.004211 -41.406597 -2.013084
0.000966 -0.077337 -0.001729
0.000966 -0.077337 -0.001729
0.000966 -0.077337 -0.001729
0.000966 -0.077337 -0.001729
0.000966 -0.077337 -0.001729
0.000966 -0.077337 -0.001729
0.000966 -0.077337 -0.001729
0.000966 -0.077337 -0.001729
0.000966 -0.077337 -0.001729
0.000966 -0.077337 -0.001729
0.000971 -0.077093 -0.001723
0.000971 -0.077093 -0.001723
0.173220 -0.679824 -0.335113
0.184405 -0.719877 -0.337416
0.199158 -0.772452 -0.344063
0.217521 -0.837973 -0.354039
0.238736 -0.913127 -0.364882
0.261567 -0.994620 -0.374291
1.447048 -5.175654 -1.931269
1.572102 -5.620495 -1.949276
1.718267 -6.144671 -1.970142
1.881254 -6.729661 -1.984830
2.070799 -7.405572 -1.996116
2.306861 -8.252724 -2.015396
2.577948 -9.226542 -2.023207
2.897965 -10.376969 -2.018785
3.394418 -11.943751 -2.030797
4.035727 -14.205660 -2.068289
5.059743 -17.803932 -2.156166
5.697128 -20.064829 -1.942899
5.651015 -19.930216 -1.447263
11.836337 -41.693653 -2.023925
0.000971 -0.077093 -0.001723
0.000971 -0.077093 -0.001723
27.288458 -96.360298 2.311300
0.000971 -0.077093 -0.001723
0.000971 -0.077093 -0.001723
0.000971 -0.077093 -0.001723
0.000971 -0.077093 -0.001723
0.000971 -0.077093 -0.001723
0.000971 -0.077093 -0.001723
0.000971 -0.077093 -0.001723
0.000949 -0.076861 -0.001718
0.000949 -0.076861 -0.001718
0.170594 -0.683992 -0.336987
0.182034 -0.725873 -0.340105
0.196971 -0.780337 -0.347483
0.214114 -0.842486 -0.355663
0.231304 -0.905387 -0.361024
0.257112 -0.999501 -0.375744
1.417676 -5.183649 -1.931277
1.538193 -5.625814 -1.948004
1.682275 -6.154494 -1.970154
1.841906 -6.736426 -1.983739
2.026297 -7.413732 -1.995118
2.257723 -8.258102 -2.013568
2.525803 -9.242846 -2.023643
2.838665 -10.393218 -2.018807
3.323493 -11.961506 -2.030501
3.947996 -14.205497 -2.064980
4.948700 -17.812315 -2.153656
5.553987 -20.009747 -1.934394
5.547964 -20.002497 -1.450245
11.615139 -41.855217 -2.028517
0.000949 -0.076861 -0.001718
0.000949 -0.076861 -0.001718
26.770735 -96.712776 2.315658
0.000949 -0.076861 -0.001718
0.000949 -0.076861 -0.001718
0.000949 -0.076861 -0.001718
0.000949 -0.076861 -0.001718
0.000949 -0.076861 -0.001718
0.000949 -0.076861 -0.001718
0.000949 -0.076861 -0.001718
0.000955 -0.076617 -0.001712
0.000955 -0.076617 -0.001712
0.165706 -0.679602 -0.334166
0.177345 -0.723218 -0.338306
0.191958 -0.777729 -0.345768
0.210198 -0.845212 -0.356474
0.227509 -0.910014 -0.362563
0.250826 -0.997118 -0.374286
1.389752 -5.196907 -1.933338
1.506719 -5.636159 -1.948654
1.643798 -6.150916 -1.965993
1.801561 -6.739233 -1.981546
1.979003 -7.406343 -1.990065
2.209095 -8.265066 -2.012200
2.476086 -9.268303 -2.026158
2.780808 -10.414813 -2.019941
3.249359 -11.959227 -2.026958
3.863528 -14.216255 -2.063341
4.841892 -17.822987 -2.151609
5.447074 -20.069937 -1.937231
5.479349 -20.203243 -1.462589
11.475245 -42.291233 -2.046553
0.000955 -0.076617 -0.001712
0.000955 -0.076617 -0.001712
0.000955 -0.076617 -0.001712
0.000955 -0.076617 -0.001712
0.000955 -0.076617 -0.001712
0.000955 -0.076617 -0.001712
0.000955 -0.076617 -0.001712
0.000955 -0.076617 -0.001712
0.000955 -0.076617 -0.001712
0.000955 -0.076617 -0.001712
0.000960 -0.076371 -0.001707
0.000960 -0.076371 -0.001707
0.162688 -0.682003 -0.335102
0.175011 -0.729155 -0.340996
0.188385 -0.780320 -0.346620
0.205748 -0.846173 -0.356470
0.225064 -0.919986 -0.366415
0.246462 -1.001910 -0.375738
1.359311 -5.200930 -1.931978
1.475207 -5.646307 -1.949304
1.609793 -6.163713 -1.967195
1.761227 -6.741806 -1.979352
1.941236 -7.434194 -1.994639
2.157988 -8.262330 -2.008526
2.418682 -9.265120 -2.022433
2.723261 -10.438004 -2.021445
3.180414 -11.975576 -2.026660
3.780071 -14.230344 -2.062258
4.729495 -17.811903 -2.147007
5.383203 -20.293119 -1.955880
5.417338 -20.436625 -1.477309
11.348644 -42.794598 -2.067859
0.000960 -0.076371 -0.001707
0.000960 -0.076371 -0.001707
0.000960 -0.076371 -0.001707
0.000960 -0.076371 -0.001707
0.000960 -0.076371 -0.001707
0.000960 -0.076371 -0.001707
0.000960 -0.076371 -0.001707
0.000960 -0.076371 -0.001707
0.000960 -0.076371 -0.001707
0.000960 -0.076371 -0.001707
0.000939 -0.076141 -0.001701
0.000939 -0.076141 -0.001701
0.157410 -0.675849 -0.331341
0.171247 -0.729906 -0.340992
0.184317 -0.781151 -0.346616
0.201314 -0.847096 -0.356467
0.218811 -0.915662 -0.364098
0.240205 -0.999453 -0.374279
1.328847 -5.204785 -1.930617
1.441695 -5.648958 -1.947392
1.576166 -6.178174 -1.968994
1.724297 -6.757157 -1.981019
1.900331 -7.450604 -1.996173
2.109390 -8.268711 -2.007157
2.367709 -9.286218 -2.024115
2.666071 -10.462755 -2.023320
3.108935 -11.981957 -2.024739
3.694087 -14.234356 -2.059783
4.620878 -17.813574 -2.144030
5.243747 -20.234852 -1.947371
0.000939 -0.076141 -0.001701
11.196066 -43.218601 -2.085337
0.000939 -0.076141 -0.001701
0.000939 -0.076141 -0.001701
0.000939 -0.076141 -0.001701
23.365463 -90.588051 4.346856
0.000939 -0.076141 -0.001701
0.000939 -0.076141 -0.001701
0.000939 -0.076141 -0.001701
0.000939 -0.076141 -0.001701
0.000939 -0.076141 -0.001701
0.000939 -0.076141 -0.001701
0.000943 -0.075896 -0.001696
0.000943 -0.075896 -0.001696
0.153942 -0.676506 -0.331337
0.167472 -0.730637 -0.340988
0.179811 -0.780199 -0.345757
0.196742 -0.848025 -0.356463
0.211716 -0.907711 -0.360240
0.234419 -0.998771 -0.373549
1.297960 -5.210497 -1.929941
1.409147 -5.655070 -1.946760
1.537773 -6.173925 -1.964832
1.685123 -6.768877 -1.981583
1.857857 -7.461171 -1.996186
2.062700 -8.288360 -2.009020
2.312142 -9.296033 -2.023303
2.603492 -10.474318 -2.022601
3.040374 -11.999401 -2.024764
3.609137 -14.251903 -2.059259
4.510450 -17.806879 -2.140123
5.137004 -20.301104 -1.950952
5.272341 -20.865452 -1.503958
11.037011 -43.634506 -2.102443
0.000943 -0.075896 -0.001696
0.000943 -0.075896 -0.001696
0.000943 -0.075896 -0.001696
0.000943 -0.075896 -0.001696
21.486900 -85.463875 6.144955
0.000943 -0.075896 -0.001696
0.000943 -0.075896 -0.001696
0.000943 -0.075896 -0.001696
0.000943 -0.075896 -0.001696
0.000943 -0.075896 -0.001696
0.000948 -0.075650 -0.001691
0.000948 -0.075650 -0.001691
0.150370 -0.677163 -0.331333
0.164034 -0.733096 -0.341882
0.174900 -0.777458 -0.344042
0.191414 -0.845351 -0.354833
0.208097 -0.914084 -0.362549
0.228674 -0.998039 -0.372818
1.268393 -5.217628 -1.929949
1.377476 -5.664672 -1.947410
1.505402 -6.193542 -1.968419
1.645232 -6.772597 -1.979940
1.814424 -7.467722 -1.995187
2.014498 -8.296055 -2.008113
2.260673 -9.308535 -2.023320
2.546833 -10.494160 -2.023733
2.969649 -12.016959 -2.024791
3.528464 -14.276034 -2.059847
4.400961 -17.815701 -2.138076
5.152509 -20.877966 -2.003644
5.195313 -21.067553 -1.516445
10.825625 -43.888962 -2.111707
0.000948 -0.075650 -0.001691
0.000948 -0.075650 -0.001691
0.000948 -0.075650 -0.001691
0.000948 -0.075650 -0.001691
0.000948 -0.075650 -0.001691
0.000948 -0.075650 -0.001691
0.000948 -0.075650 -0.001691
0.000948 -0.075650 -0.001691
0.000948 -0.075650 -0.001691
0.000948 -0.075650 -0.001691
0.000954 -0.075405 -0.001686
0.000954 -0.075405 -0.001686
0.145767 -0.672594 -0.328512
0.159919 -0.732029 -0.340981
0.172127 -0.783479 -0.346606
0.187405 -0.847971 -0.355643
0.205149 -0.922157 -0.365631
0.223793 -1.000906 -0.373543
1.238368 -5.222753 -1.929273
1.344861 -5.670408 -1.946778
1.470180 -6.201848 -1.968429
1.604418 -6.772364 -1.977194
1.771420 -7.475902 -1.994694
1.964909 -8.297795 -2.005821
2.213161 -9.351968 -2.029996
2.485506 -10.510723 -2.024126
2.910444 -12.063771 -2.030007
3.448124 -14.301613 -2.060714
4.292593 -17.801107 -2.133470
5.081784 -21.093878 -2.021735
5.123158 -21.298536 -1.531027
10.717366 -44.513577 -2.138993
0.000954 -0.075405 -0.001686
0.000954 -0.075405 -0.001686
9.870008 -41.163528 0.974234
19.868118 -82.920425 3.960820
0.000954 -0.075405 -0.001686
0.000954 -0.075405 -0.001686
0.000954 -0.075405 -0.001686
0.000954 -0.075405 -0.001686
0.000954 -0.075405 -0.001686
0.000954 -0.075405 -0.001686
0.000932 -0.075174 -0.001680
0.000932 -0.075174 -0.001680
0.141403 -0.669767 -0.326630
0.155219 -0.729228 -0.339182
0.167072 -0.780731 -0.344890
0.182392 -0.847047 -0.354825
0.195889 -0.905154 -0.357916
0.217445 -0.998345 -0.372084
1.208256 -5.231583 -1.929965
1.310379 -5.672493 -1.944866
1.432947 -6.206498 -1.967247
1.564256 -6.779632 -1.976655
1.725764 -7.478483 -1.992681
1.917006 -8.312840 -2.006760
2.161663 -9.379922 -2.033343
2.427163 -10.540333 -2.027112
2.835707 -12.065192 -2.027437
3.361455 -14.311916 -2.059352
4.183804 -17.810516 -2.131654
4.998642 -21.299772 -2.038713
5.043393 -21.524437 -1.545193
10.434607 -44.494385 -2.135180
0.000932 -0.075174 -0.001680
0.000932 -0.075174 -0.001680
9.601275 -41.113976 0.971591
0.000932 -0.075174 -0.001680
0.000932 -0.075174 -0.001680
0.000932 -0.075174 -0.001680
0.000932 -0.075174 -0.001680
0.000932 -0.075174 -0.001680
0.000932 -0.075174 -0.001680
0.000932 -0.075174 -0.001680
0.000934 -0.074925 -0.001674
0.000934 -0.074925 -0.001674
0.134030 -0.653104 -0.317234
0.151841 -0.731604 -0.340076
0.163424 -0.783185 -0.345743
0.178505 -0.849573 -0.355636
0.195233 -0.924000 -0.365624
0.213372 -1.004775 -0.374264
1.178212 -5.232492 -1.927919
1.278573 -5.681531 -1.945515
1.396803 -6.210659 -1.966065
1.525141 -6.780490 -1.974460
1.683151 -7.488029 -1.992694
1.872737 -8.330745 -2.008620
2.109289 -9.389674 -2.032944
2.368731 -10.553463 -2.027131
2.769350 -12.092583 -2.029409
3.279777 -14.320535 -2.057989
4.078156 -17.818544 -2.129835
4.915669 -21.498705 -2.055132
4.970465 -21.756176 -1.559915
12.952579 -56.674541 -2.716730
0.000934 -0.074925 -0.001674
9.427325 -41.372780 -0.007046
9.286868 -40.825165 0.963369
0.000934 -0.074925 -0.001674
8.952260 -39.456161 2.817207
0.000934 -0.074925 -0.001674
0.000934 -0.074925 -0.001674
0.000934 -0.074925 -0.001674
0.000934 -0.074925 -0.001674
0.000934 -0.074925 -0.001674
0.000940 -0.074680 -0.001669
0.000940 -0.074680 -0.001669
0.128379 -0.643280 -0.311595
0.148069 -0.732214 -0.340072
0.159343 -0.783865 -0.345739
0.173649 -0.848554 -0.354819
0.188343 -0.915851 -0.361765
0.206394 -0.998469 -0.371350
1.149315 -5.242613 -1.929295
1.246705 -5.690392 -1.946164
1.358598 -6.205290 -1.961903
1.485266 -6.783284 -1.972816
1.638787 -7.489792 -1.990680
1.822285 -8.327825 -2.005406
2.056099 -9.403306 -2.033378
2.309676 -10.572424 -2.028264
2.701888 -12.115771 -2.030731
3.194304 -14.323456 -2.055790
3.977745 -17.849218 -2.130803
4.839652 -21.738218 -2.075459
4.888254 -21.974981 -1.573661
12.578147 -56.529446 -2.706402
0.000940 -0.074680 -0.001669
0.000940 -0.074680 -0.001669
9.087811 -41.037735 0.967059
8.701093 -39.361393 1.869591
0.000940 -0.074680 -0.001669
0.000940 -0.074680 -0.001669
0.000940 -0.074680 -0.001669
0.000940 -0.074680 -0.001669
0.000940 -0.074680 -0.001669
0.000940 -0.074680 -0.001669
0.000918 -0.074449 -0.001663
0.000918 -0.074449 -0.001663
0.118709 -0.614433 -0.295625
0.143497 -0.729328 -0.338273
0.155252 -0.784527 -0.345735
0.169185 -0.849296 -0.354815
0.185062 -0.923886 -0.364846
0.200668 -0.997580 -0.370619
1.119187 -5.247041 -1.928618
1.213171 -5.691668 -1.944251
1.323714 -6.214615 -1.962509
1.446244 -6.789584 -1.972276
1.596910 -7.502629 -1.991706
1.772318 -8.326505 -2.002652
1.992136 -9.366916 -2.022993
2.248003 -10.579525 -2.027172
2.634253 -12.138577 -2.032053
3.111427 -14.337480 -2.055262
3.877122 -17.879314 -2.131770
4.754688 -21.948368 -2.092995
4.806647 -22.207201 -1.588386
12.237520 -56.528370 -2.703079
0.000918 -0.074449 -0.001663
0.000918 -0.074449 -0.001663
8.822934 -40.954231 0.963778
8.769056 -40.775723 1.934438
0.000918 -0.074449 -0.001663
0.000918 -0.074449 -0.001663
0.000918 -0.074449 -0.001663
0.000918 -0.074449 -0.001663
0.000918 -0.074449 -0.001663
0.000918 -0.074449 -0.001663
0.000924 -0.074205 -0.001658
0.000924 -0.074205 -0.001658
0.109715 -0.587235 -0.280594
0.139355 -0.728147 -0.337371
0.150787 -0.783393 -0.344876
0.164955 -0.851830 -0.355625
0.179033 -0.919272 -0.362530
0.195346 -0.998473 -0.370616
1.088500 -5.253333 -1.928626
1.181207 -5.700164 -1.944900
1.289145 -6.225615 -1.963711
1.407196 -6.801553 -1.973390
1.552172 -7.501971 -1.989185
1.722586 -8.332800 -2.001745
1.938618 -9.385968 -2.024676
2.188509 -10.605874 -2.029788
2.567260 -12.164868 -2.034025
3.028891 -14.365103 -2.056686
3.772979 -17.893307 -2.130879
4.665010 -22.146557 -2.109415
0.000924 -0.074205 -0.001658
8.634966 -41.044559 -1.959850
0.000924 -0.074205 -0.001658
8.634963 -41.191467 -0.007293
8.558912 -40.867073 0.960452
8.558948 -40.940617 1.939825
0.000924 -0.074205 -0.001658
8.139458 -39.077637 3.710138
8.142254 -39.127415 4.658041
0.000924 -0.074205 -0.001658
0.000924 -0.074205 -0.001658
0.000924 -0.074205 -0.001658
0.000928 -0.073959 -0.001653
0.000928 -0.073959 -0.001653
0.094941 -0.530543 -0.249597
0.136190 -0.732217 -0.339163
0.147063 -0.785773 -0.345728
0.160465 -0.852526 -0.355622
0.174363 -0.921891 -0.363297
0.189288 -0.995679 -0.369157
1.058293 -5.257425 -1.927948
1.148452 -5.704752 -1.944268
1.253346 -6.230811 -1.963124
1.366951 -6.801744 -1.971195
1.510170 -7.514326 -1.990211
1.675023 -8.342331 -2.001759
1.885873 -9.392548 -2.023860
2.130501 -10.621521 -2.030548
2.495946 -12.181553 -2.034374
2.948632 -14.391736 -2.058109
3.666510 -17.911203 -2.130455
4.570913 -22.353037 -2.126582
4.546604 -22.255478 -1.588066
7.947954 -38.924145 -1.856323
7.950437 -38.973160 -0.928858
7.943383 -39.010147 -0.007076
8.322178 -40.942310 0.960956
8.403400 -41.380478 1.958311
15.556513 -76.686554 5.454179
0.000928 -0.073959 -0.001653
0.000928 -0.073959 -0.001653
0.000928 -0.073959 -0.001653
0.000928 -0.073959 -0.001653
0.000928 -0.073959 -0.001653
0.000906 -0.073728 -0.001647
0.000906 -0.073728 -0.001647
0.088560 -0.511782 -0.239261
0.133580 -0.737969 -0.341852
0.143325 -0.788128 -0.346580
0.155404 -0.849578 -0.353991
0.168555 -0.917171 -0.360981
0.185436 -1.003810 -0.372065
1.030104 -5.266677 -1.929324
1.114190 -5.701726 -1.941073
1.216058 -6.228302 -1.960153
1.331622 -6.820333 -1.974514
1.466597 -7.518840 -1.989210
1.628512 -8.349380 -2.001312
1.836363 -9.424114 -2.028454
2.069792 -10.633348 -2.030568
2.427991 -12.193096 -2.034072
2.872981 -14.429078 -2.061201
3.562658 -17.909708 -2.127935
4.483555 -22.563459 -2.144304
4.537759 -22.857460 -1.629349
11.330840 -57.079170 -2.720106
0.000906 -0.073728 -0.001647
0.000906 -0.073728 -0.001647
8.028542 -40.656353 0.953068
8.103340 -41.112343 1.943262
14.920854 -75.716827 5.378960
0.000906 -0.073728 -0.001647
0.000906 -0.073728 -0.001647
0.000906 -0.073728 -0.001647
0.000906 -0.073728 -0.001647
0.000906 -0.073728 -0.001647
0.000912 -0.073483 -0.001642
0.000912 -0.073483 -0.001642
0.088394 -0.524170 -0.245832
0.130076 -0.740243 -0.342745
0.138166 -0.783378 -0.344008
0.150819 -0.850227 -0.353987
0.164741 -0.923317 -0.363291
0.180429 -1.006446 -0.372790
0.998595 -5.268748 -1.927963
1.081434 -5.705932 -1.940441
1.180269 -6.233070 -1.959566
1.288007 -6.808970 -1.969010
1.423758 -7.526894 -1.989222
1.580879 -8.366285 -2.003172
1.779815 -9.428816 -2.027223
2.009362 -10.656766 -2.032812
2.359724 -12.214367 -2.035394
2.788602 -14.449489 -2.061789
3.462281 -17.941347 -2.129366
4.388136 -22.764584 -2.161098
4.440429 -23.079609 -1.643379
0.000912 -0.073483 -0.001642
17.196146 -89.443466 -2.127445
19.611561 -102.195595 -0.016322
7.735809 -40.393337 0.945733
7.858510 -41.112896 1.941033
0.000912 -0.073483 -0.001642
0.000912 -0.073483 -0.001642
0.000912 -0.073483 -0.001642
0.000912 -0.073483 -0.001642
0.000912 -0.073483 -0.001642
0.000912 -0.073483 -0.001642
0.000917 -0.073237 -0.001637
0.000917 -0.073237 -0.001637
0.000917 -0.073237 -0.001637
0.125125 -0.735488 -0.340049
0.134737 -0.787471 -0.345716
0.147342 -0.856229 -0.356425
0.158685 -0.918589 -0.360974
0.174028 -1.001729 -0.370603
0.968679 -5.274161 -1.927969
1.049367 -5.713666 -1.941089
1.144116 -6.235752 -1.958384
1.251320 -6.827367 -1.972330
1.380492 -7.532813 -1.988727
1.533143 -8.374991 -2.003186
1.726892 -9.434497 -2.026407
1.951347 -10.673366 -2.033942
2.288449 -12.231769 -2.036067
2.706949 -14.470883 -2.062653
3.354101 -17.949598 -2.128011
4.286191 -22.964136 -2.177709
4.351677 -23.337883 -1.660065
0.000917 -0.073237 -0.001637
16.618740 -89.202591 -2.119617
19.056726 -102.483444 -0.016582
7.465332 -40.269157 0.941673
7.608118 -41.080563 1.937320
0.000917 -0.073237 -0.001637
0.000917 -0.073237 -0.001637
0.000917 -0.073237 -0.001637
0.000917 -0.073237 -0.001637
0.000917 -0.073237 -0.001637
0.000917 -0.073237 -0.001637
0.000896 -0.073008 -0.001631
0.000896 -0.073008 -0.001631
0.000896 -0.073008 -0.001631
0.121752 -0.737683 -0.340943
0.130633 -0.787982 -0.345713
0.142179 -0.853221 -0.354794
0.154618 -0.922847 -0.362513
0.169347 -1.006132 -0.372056
0.937390 -5.272007 -1.925239
1.016549 -5.717502 -1.940456
1.107956 -6.238230 -1.957200
1.211779 -6.830409 -1.971237
1.336182 -7.532767 -1.986712
1.485361 -8.383422 -2.003201
1.670335 -9.438544 -2.025176
1.886769 -10.674814 -2.032109
2.222725 -12.255737 -2.038036
2.623358 -14.482075 -2.062124
3.251136 -17.950186 -2.125955
4.195047 -23.189251 -2.196920
4.254034 -23.562521 -1.674373
0.000896 -0.073008 -0.001631
0.000896 -0.073008 -0.001631
0.000896 -0.073008 -0.001631
0.000896 -0.073008 -0.001631
0.000896 -0.073008 -0.001631
0.000896 -0.073008 -0.001631
0.000896 -0.073008 -0.001631
0.000896 -0.073008 -0.001631
0.000896 -0.073008 -0.001631
0.000896 -0.073008 -0.001631
0.000896 -0.073008 -0.001631
0.000900 -0.072762 -0.001626
0.000900 -0.072762 -0.001626
0.000900 -0.072762 -0.001626
0.116265 -0.729343 -0.336451
0.126064 -0.786723 -0.344853
0.137373 -0.851977 -0.353977
0.150219 -0.927132 -0.364052
0.163150 -1.003212 -0.370597
0.907147 -5.275208 -1.924561
0.983085 -5.723169 -1.940465
1.070412 -6.238794 -1.955422
1.172222 -6.833232 -1.970145
1.291274 -7.536494 -1.985711
1.436534 -8.385824 -2.001830
1.616088 -9.445825 -2.024776
1.824070 -10.675563 -2.030275
2.149446 -12.262615 -2.037087
2.540770 -14.498626 -2.062430
3.144768 -17.966938 -2.125761
4.091657 -23.405684 -2.215206
4.157387 -23.806458 -1.690081
0.000900 -0.072762 -0.001626
14.025458 -80.494789 -1.909052
14.018472 -80.542992 -0.013719
0.000900 -0.072762 -0.001626
0.000900 -0.072762 -0.001626
0.000900 -0.072762 -0.001626
0.000900 -0.072762 -0.001626
0.000900 -0.072762 -0.001626
0.000900 -0.072762 -0.001626
0.000900 -0.072762 -0.001626
0.000900 -0.072762 -0.001626
0.000905 -0.072516 -0.001620
0.000905 -0.072516 -0.001620
0.000905 -0.072516 -0.001620
0.111883 -0.726232 -0.334651
0.121967 -0.787182 -0.344850
0.133176 -0.854317 -0.354786
0.144689 -0.924092 -0.362506
0.158732 -1.009393 -0.372777
0.877522 -5.281938 -1.925252
0.949601 -5.722884 -1.938550
1.035869 -6.250247 -1.957219
1.131392 -6.828244 -1.966845
1.247359 -7.537822 -1.984202
1.388664 -8.393711 -2.001843
1.560853 -9.446998 -2.023127
1.763379 -10.687562 -2.030665
2.079285 -12.274527 -2.037109
2.455767 -14.501026 -2.060787
3.041112 -17.980566 -2.125332
4.010571 -23.742723 -2.245027
0.000905 -0.072516 -0.001620
0.000905 -0.072516 -0.001620
0.000905 -0.072516 -0.001620
0.000905 -0.072516 -0.001620
0.000905 -0.072516 -0.001620
0.000905 -0.072516 -0.001620
0.000905 -0.072516 -0.001620
0.000905 -0.072516 -0.001620
0.000905 -0.072516 -0.001620
0.000905 -0.072516 -0.001620
0.000905 -0.072516 -0.001620
0.000905 -0.072516 -0.001620
0.000884 -0.072286 -0.001615
0.000884 -0.072286 -0.001615
0.000884 -0.072286 -0.001615
0.107237 -0.721334 -0.331954
0.117857 -0.787620 -0.344846
0.129271 -0.858427 -0.356411
0.138891 -0.919201 -0.360189
0.153021 -1.008214 -0.372046
0.847536 -5.286649 -1.925259
0.916775 -5.726132 -1.937917
0.998773 -6.246437 -1.954247
1.091890 -6.830595 -1.965752
1.202254 -7.531245 -1.980667
1.340463 -8.399387 -2.001395
1.506283 -9.451703 -2.022311
1.702575 -10.699230 -2.031054
2.008393 -12.282154 -2.036482
2.372075 -14.510760 -2.060257
2.936764 -17.989668 -2.124438
3.901325 -23.930233 -2.260706
3.929383 -24.129858 -1.709892
0.000884 -0.072286 -0.001615
0.000884 -0.072286 -0.001615
16.827297 -103.705154 -0.017632
0.000884 -0.072286 -0.001615
0.000884 -0.072286 -0.001615
0.000884 -0.072286 -0.001615
0.000884 -0.072286 -0.001615
0.000884 -0.072286 -0.001615
0.000884 -0.072286 -0.001615
0.000884 -0.072286 -0.001615
0.000884 -0.072286 -0.001615
0.000887 -0.072037 -0.001609
0.000887 -0.072037 -0.001609
0.000887 -0.072037 -0.001609
0.105187 -0.732272 -0.337337
0.114300 -0.791605 -0.346554
0.124178 -0.855294 -0.354779
0.133716 -0.917918 -0.359414
0.147646 -1.008818 -0.372042
0.817219 -5.289332 -1.924580
0.884228 -5.731060 -1.937924
0.962368 -6.246156 -1.952467
1.052101 -6.830812 -1.964106
1.159898 -7.541615 -1.981691
1.291344 -8.399014 -1.999563
1.451998 -9.458025 -2.021910
1.643227 -10.720238 -2.033296
1.937833 -12.291288 -2.036180
2.286490 -14.508264 -2.058054
2.832399 -17.998165 -2.123544
3.797817 -24.166426 -2.281039
3.863514 -24.612988 -1.742659
0.000887 -0.072037 -0.001609
10.949398 -69.960335 -1.654947
0.000887 -0.072037 -0.001609
0.000887 -0.072037 -0.001609
0.000887 -0.072037 -0.001609
11.019883 -70.915932 5.000662
0.000887 -0.072037 -0.001609
0.000887 -0.072037 -0.001609
0.000887 -0.072037 -0.001609
0.000887 -0.072037 -0.001609
0.000887 -0.072037 -0.001609
0.000892 -0.071791 -0.001604
0.000892 -0.071791 -0.001604
0.000892 -0.071791 -0.001604
0.099239 -0.718480 -0.330151
0.109873 -0.790224 -0.345694
0.119532 -0.855767 -0.354776
0.129673 -0.923900 -0.361724
0.141700 -1.005720 -0.370584
0.786007 -5.291969 -1.923903
0.850523 -5.728312 -1.935369
0.925963 -6.245687 -1.950687
1.011734 -6.834778 -1.963565
1.114922 -7.534510 -1.978155
1.242819 -8.412046 -2.000961
1.395187 -9.458477 -2.020262
1.585264 -10.764535 -2.039986
1.868089 -12.305893 -2.036851
2.200880 -14.521315 -2.058082
2.726557 -17.996229 -2.121488
3.656761 -24.171875 -2.279598
3.758006 -24.899532 -1.761447
0.000892 -0.071791 -0.001604
0.000892 -0.071791 -0.001604
14.405212 -95.844643 -0.016814
0.000892 -0.071791 -0.001604
0.000892 -0.071791 -0.001604
0.000892 -0.071791 -0.001604
0.000892 -0.071791 -0.001604
0.000892 -0.071791 -0.001604
0.000892 -0.071791 -0.001604
0.000892 -0.071791 -0.001604
0.000892 -0.071791 -0.001604
0.000870 -0.071562 -0.001598
0.000870 -0.071562 -0.001598
0.000870 -0.071562 -0.001598
0.094366 -0.711738 -0.326557
0.105866 -0.792406 -0.346546
0.115004 -0.856203 -0.354772
0.124625 -0.924402 -0.361721
0.135611 -1.002616 -0.369125
0.755400 -5.292447 -1.922540
0.816724 -5.731118 -1.934737
0.888544 -6.245142 -1.948908
0.972827 -6.840226 -1.963575
1.070366 -7.538835 -1.977659
1.195098 -8.420732 -2.001435
1.340073 -9.458343 -2.018613
1.524002 -10.775173 -2.040375
1.796961 -12.326267 -2.038496
2.117713 -14.533490 -2.058109
2.613096 -17.962679 -2.115717
3.508121 -24.153460 -2.275926
3.658185 -25.216648 -1.782471
0.000870 -0.071562 -0.001598
0.000870 -0.071562 -0.001598
13.880105 -96.105804 -0.017049
13.859247 -96.206001 2.237941
0.000870 -0.071562 -0.001598
11.414075 -79.551109 5.600281
0.000870 -0.071562 -0.001598
0.000870 -0.071562 -0.001598
0.000870 -0.071562 -0.001598
0.000870 -0.071562 -0.001598
0.000870 -0.071562 -0.001598
0.000875 -0.071316 -0.001593
0.000875 -0.071316 -0.001593
0.000875 -0.071316 -0.001593
0.078523 -0.625298 -0.282566
0.101603 -0.790942 -0.345686
0.110491 -0.856602 -0.354768
0.119442 -0.923040 -0.360946
0.131181 -1.008648 -0.371304
0.726375 -5.303905 -1.925283
0.784865 -5.733466 -1.934102
0.854602 -6.253540 -1.950107
0.932545 -6.835943 -1.960826
1.029235 -7.548265 -1.978683
1.146774 -8.425293 -2.000986
1.286870 -9.459619 -2.017378
1.464272 -10.783257 -2.040392
1.725893 -12.332237 -2.037868
2.035054 -14.549094 -2.058692
2.518670 -18.038155 -2.122952
3.370074 -24.176939 -2.276345
3.548785 -25.489943 -1.800419
0.000875 -0.071316 -0.001593
0.000875 -0.071316 -0.001593
0.000875 -0.071316 -0.001593
0.000875 -0.071316 -0.001593
0.000875 -0.071316 -0.001593
9.513927 -69.139809 4.862405
9.505669 -69.174858 6.494751
0.000875 -0.071316 -0.001593
0.000875 -0.071316 -0.001593
0.000875 -0.071316 -0.001593
0.000875 -0.071316 -0.001593
0.000881 -0.071071 -0.001588
0.000881 -0.071071 -0.001588
0.000881 -0.071071 -0.001588
0.063992 -0.540461 -0.239473
0.096969 -0.787690 -0.343971
0.106210 -0.858788 -0.355578
0.115420 -0.928932 -0.363256
0.125547 -1.007290 -0.370573
0.696019 -5.305881 -1.924605
0.751536 -5.731998 -1.932188
0.818778 -6.256207 -1.949519
0.892843 -6.835237 -1.959180
0.983674 -7.534632 -1.973626
1.098188 -8.427642 -2.000076
1.230708 -9.462940 -2.016562
1.399988 -10.785649 -2.039299
1.658530 -12.349245 -2.039187
1.951716 -14.560321 -2.058718
2.416039 -18.033947 -2.120893
3.230260 -24.155643 -2.272668
3.443234 -25.814220 -1.822004
0.000881 -0.071071 -0.001588
0.000881 -0.071071 -0.001588
12.513998 -94.297844 -0.017133
0.000881 -0.071071 -0.001588
0.000881 -0.071071 -0.001588
0.000881 -0.071071 -0.001588
0.000881 -0.071071 -0.001588
0.000881 -0.071071 -0.001588
0.000881 -0.071071 -0.001588
0.000881 -0.071071 -0.001588
0.000881 -0.071071 -0.001588
0.000859 -0.070840 -0.001582
0.000859 -0.070840 -0.001582
0.000859 -0.070840 -0.001582
0.062351 -0.549445 -0.243958
0.093860 -0.796972 -0.348247
0.101914 -0.860947 -0.356388
0.110554 -0.931192 -0.364023
0.120463 -1.011465 -0.372026
0.666122 -5.311415 -1.925295
0.717483 -5.732347 -1.930914
0.781615 -6.256915 -1.948336
0.854645 -6.845726 -1.960845
0.941094 -7.553522 -1.977185
1.050112 -8.433563 -2.000089
1.176171 -9.465734 -2.015744
1.338078 -10.791327 -2.038946
1.587736 -12.374271 -2.041805
1.867844 -14.567118 -2.058187
2.312291 -18.069387 -2.123483
3.082654 -24.136581 -2.269180
3.326719 -26.080727 -1.839534
8.762355 -68.786705 -3.243509
0.000859 -0.070840 -0.001582
12.298732 -96.943352 -0.017760
0.000859 -0.070840 -0.001582
0.000859 -0.070840 -0.001582
0.000859 -0.070840 -0.001582
0.000859 -0.070840 -0.001582
0.000859 -0.070840 -0.001582
0.000859 -0.070840 -0.001582
0.000859 -0.070840 -0.001582
0.000859 -0.070840 -0.001582
0.000864 -0.070594 -0.001577
0.000864 -0.070594 -0.001577
0.000864 -0.070594 -0.001577
0.059787 -0.551338 -0.244850
0.089232 -0.793669 -0.346531
0.098002 -0.866727 -0.358826
0.104718 -0.924234 -0.360935
0.116159 -1.021147 -0.375661
0.635958 -5.314910 -1.925301
0.685339 -5.739900 -1.932201
0.746452 -6.264859 -1.949535
0.814501 -6.840740 -1.958095
0.895277 -7.535505 -1.971113
1.001040 -8.431495 -1.998255
1.121386 -9.466280 -2.014510
1.276147 -10.796647 -2.038592
1.515007 -12.367279 -2.039230
1.783189 -14.567557 -2.056819
2.207988 -18.076225 -2.122818
2.944417 -24.155636 -2.269413
3.215469 -26.414070 -1.861820
8.305403 -68.330017 -3.219807
11.485166 -94.750565 -2.231879
0.000864 -0.070594 -0.001577
0.000864 -0.070594 -0.001577
0.000864 -0.070594 -0.001577
0.000864 -0.070594 -0.001577
0.000864 -0.070594 -0.001577
0.000864 -0.070594 -0.001577
0.000864 -0.070594 -0.001577
0.000864 -0.070594 -0.001577
0.000864 -0.070594 -0.001577
0.000869 -0.070350 -0.001572
0.000869 -0.070350 -0.001572
0.000869 -0.070350 -0.001572
0.056411 -0.546093 -0.242153
0.084858 -0.792128 -0.345671
0.093857 -0.870653 -0.360450
0.099793 -0.924580 -0.360931
0.106424 -0.984535 -0.361102
0.606425 -5.323829 -1.927359
0.652723 -5.743491 -1.932208
0.709081 -6.253617 -1.944774
0.775970 -6.848885 -1.959207
0.852971 -7.546049 -1.972644
0.952049 -8.429129 -1.996422
1.067102 -9.470377 -2.014108
1.214645 -10.805511 -2.038980
1.446319 -12.393177 -2.042171
1.700013 -14.579281 -2.057123
2.103908 -18.084435 -2.122386
2.806968 -24.181816 -2.270388
3.101176 -26.752932 -1.884526
7.855835 -67.886215 -3.196849
10.963743 -95.017418 -2.236843
0.000869 -0.070350 -0.001572
0.000869 -0.070350 -0.001572
0.000869 -0.070350 -0.001572
0.000869 -0.070350 -0.001572
0.000869 -0.070350 -0.001572
0.000869 -0.070350 -0.001572
0.000869 -0.070350 -0.001572
0.000869 -0.070350 -0.001572
0.000869 -0.070350 -0.001572
0.000847 -0.070119 -0.001566
0.000847 -0.070119 -0.001566
0.049884 -0.510589 -0.237317
0.053859 -0.547944 -0.243046
0.081507 -0.799539 -0.349091
0.088852 -0.867298 -0.358819
0.094883 -0.924889 -0.360928
0.098102 -0.957117 -0.350181
0.097165 -0.949988 -0.323901
0.620480 -5.750672 -1.933495
0.673704 -6.259242 -1.945378
0.736350 -6.847247 -1.957561
0.809947 -7.550583 -1.972654
0.903110 -8.426476 -1.994588
1.012161 -9.468333 -2.012458
1.151188 -10.796439 -2.036032
1.376268 -12.408895 -2.043490
1.616726 -14.590546 -2.057426
1.999812 -18.092039 -2.121954
2.665147 -24.169609 -2.267827
2.979582 -27.059608 -1.904994
5.600080 -50.971012 -2.398411
10.451859 -95.392685 -2.244425
0.000847 -0.070119 -0.001566
0.000847 -0.070119 -0.001566
0.000847 -0.070119 -0.001566
7.273670 -67.078819 4.699984
0.000847 -0.070119 -0.001566
0.000847 -0.070119 -0.001566
0.000847 -0.070119 -0.001566
0.000847 -0.070119 -0.001566
0.000847 -0.070119 -0.001566
0.000853 -0.069874 -0.001560
0.000853 -0.069874 -0.001560
0.000853 -0.069874 -0.001560
0.050917 -0.546224 -0.242144
0.077108 -0.797956 -0.348231
0.084876 -0.874833 -0.362070
0.089201 -0.917830 -0.357840
0.090489 -0.933334 -0.340716
0.090585 -0.937221 -0.319107
0.588571 -5.761432 -1.936064
0.637098 -6.253274 -1.942405
0.696534 -6.855079 -1.958673
0.766686 -7.552952 -1.972157
0.853750 -8.433372 -1.995062
0.956235 -9.471974 -2.012056
1.086384 -10.791101 -2.033825
1.305271 -12.416351 -2.043510
1.531050 -14.603560 -2.058009
1.895904 -18.101015 -2.121754
2.524611 -24.166462 -2.266196
2.850222 -27.370222 -1.925746
3.141746 -30.217522 -1.420354
8.243509 -79.463318 -1.868637
0.000853 -0.069874 -0.001560
8.272217 -80.164543 1.853861
0.000853 -0.069874 -0.001560
0.000853 -0.069874 -0.001560
0.000853 -0.069874 -0.001560
0.000853 -0.069874 -0.001560
0.000853 -0.069874 -0.001560
0.000853 -0.069874 -0.001560
0.000853 -0.069874 -0.001560
0.000858 -0.069628 -0.001555
0.000858 -0.069628 -0.001555
0.044910 -0.512404 -0.238247
0.047742 -0.542711 -0.240344
0.073804 -0.807135 -0.352507
0.080774 -0.880520 -0.364508
0.083629 -0.912587 -0.355523
0.083717 -0.915044 -0.333435
0.083934 -0.920655 -0.312944
0.557274 -5.779568 -1.941195
0.601511 -6.256587 -1.942412
0.656769 -6.851058 -1.956476
0.722897 -7.549277 -1.970140
0.805244 -8.434024 -1.994151
0.903039 -9.469112 -2.010405
1.026377 -10.794787 -2.033470
1.232250 -12.425591 -2.043855
1.447410 -14.611881 -2.058033
1.788224 -18.103771 -2.120857
2.378207 -24.145088 -2.262892
2.719551 -27.653955 -1.944678
2.994853 -30.559433 -1.435656
7.788251 -79.525085 -1.869169
7.761793 -79.549614 -0.015617
0.000858 -0.069628 -0.001555
0.000858 -0.069628 -0.001555
0.000858 -0.069628 -0.001555
0.000858 -0.069628 -0.001555
0.000858 -0.069628 -0.001555
0.000858 -0.069628 -0.001555
0.000858 -0.069628 -0.001555
0.000858 -0.069628 -0.001555
0.000835 -0.069397 -0.001549
0.000835 -0.069397 -0.001549
0.042411 -0.512414 -0.238242
0.044600 -0.537384 -0.237647
0.069344 -0.803693 -0.350791
0.075897 -0.877080 -0.362876
0.077213 -0.894424 -0.347807
0.077102 -0.894854 -0.325425
0.077631 -0.904022 -0.306781
0.080355 -0.935394 -0.295572
0.567168 -6.261495 -1.943015
0.618049 -6.844796 -1.953725
0.680792 -7.549098 -1.969135
0.757883 -8.430376 -1.992316
0.850236 -9.469861 -2.009585
0.966360 -10.798136 -2.033115
1.161650 -12.414338 -2.040953
1.366090 -14.617503 -2.057778
1.685178 -18.087515 -2.117867
2.240764 -24.124012 -2.259769
2.588731 -27.916759 -1.962210
2.856590 -30.919569 -1.451890
0.000835 -0.069397 -0.001549
7.395877 -80.433868 -0.015917
7.318295 -79.905472 1.845486
0.000835 -0.069397 -0.001549
0.000835 -0.069397 -0.001549
0.000835 -0.069397 -0.001549
0.000835 -0.069397 -0.001549
0.000835 -0.069397 -0.001549
0.000835 -0.069397 -0.001549
0.000835 -0.069397 -0.001549
0.000838 -0.069148 -0.001544
0.000838 -0.069148 -0.001544
0.040261 -0.517675 -0.241056
0.042760 -0.548070 -0.243029
0.065341 -0.809246 -0.353355
0.070474 -0.869980 -0.359617
0.072153 -0.892780 -0.347032
0.070934 -0.882068 -0.320326
0.071241 -0.887359 -0.300618
0.073286 -0.914853 -0.288522
0.528384 -6.253179 -1.939446
0.577389 -6.842338 -1.952079
0.634803 -7.549006 -1.968132
0.707480 -8.424777 -1.990020
0.792860 -9.474617 -2.009600
0.899558 -10.787911 -2.030167
1.089503 -12.432543 -2.042921
1.279655 -14.623121 -2.057523
1.576636 -18.077135 -2.115576
2.097107 -24.124718 -2.258696
2.459415 -28.342791 -1.991215
2.703333 -31.278051 -1.468034
0.000838 -0.069148 -0.001544
7.625700 -88.683708 -0.017561
4.645115 -54.272114 1.251689
0.000838 -0.069148 -0.001544
0.000838 -0.069148 -0.001544
0.000838 -0.069148 -0.001544
0.000838 -0.069148 -0.001544
0.000838 -0.069148 -0.001544
0.000838 -0.069148 -0.001544
0.000838 -0.069148 -0.001544
0.000844 -0.068903 -0.001539
0.000844 -0.068903 -0.001539
0.037820 -0.519414 -0.241990
0.039980 -0.548075 -0.243024
0.060925 -0.807567 -0.352495
0.065420 -0.864664 -0.357172
0.066966 -0.887416 -0.344714
0.065516 -0.872928 -0.316684
0.064887 -0.866898 -0.293086
0.067221 -0.899899 -0.283394
0.492802 -6.255864 -1.939453
0.538409 -6.845300 -1.952087
0.591468 -7.548421 -1.967128
0.658774 -8.420706 -1.988185
0.738892 -9.480721 -2.010029
0.836652 -10.776986 -2.027217
1.021742 -12.479669 -2.049756
1.195580 -14.626049 -2.056989
1.472198 -18.075762 -2.114444
1.956595 -24.110331 -2.256319
2.324471 -28.698263 -2.015324
2.329566 -28.889305 -1.355200
0.000844 -0.068903 -0.001539
0.000844 -0.068903 -0.001539
0.000844 -0.068903 -0.001539
0.000844 -0.068903 -0.001539
0.000844 -0.068903 -0.001539
0.000844 -0.068903 -0.001539
0.000844 -0.068903 -0.001539
0.000844 -0.068903 -0.001539
0.000844 -0.068903 -0.001539
0.000844 -0.068903 -0.001539
