# This PCD file was generated using the MATLAB® pcwrite function
# from Computer Vision Toolbox®.
# .PCD v.7 - Point Cloud Data file format
VERSION .7
FIELDS x y z
SIZE 4 4 4
TYPE F F F
COUNT 1 1 1
WIDTH 1588
HEIGHT 1
VIEWPOINT 0 0 0 1 0 0 0
POINTS 1588
DATA ascii
-4.506722 -2.304912 -1.577106
-4.830047 -2.467821 -1.553073
-5.248396 -2.677581 -1.540373
-5.682381 -2.896134 -1.509304
-6.137305 -3.123749 -1.462062
-6.724855 -3.417992 -1.419725
-7.536259 -3.867771 -1.390260
-8.308048 -4.260051 -1.310863
-9.486610 -4.857442 -1.243267
-9.740339 -4.982567 -1.019691
0.000661 -0.019192 -0.000520
-10.445828 -5.335178 -0.546291
0.000661 -0.019192 -0.000520
0.000661 -0.019192 -0.000520
-16.679077 -8.488891 0.435140
-16.643423 -8.463500 0.871182
-16.625935 -8.451002 1.304425
-16.576038 -8.418447 1.734547
-16.577232 -8.411805 2.173760
-16.516809 -8.377616 2.602509
-16.515951 -8.369963 3.041540
0.000661 -0.019192 -0.000520
-2.529935 -1.293347 -1.680557
-2.642648 -1.348956 -1.662817
-2.774462 -1.414678 -1.651894
-2.926883 -1.490062 -1.645197
-3.088359 -1.569861 -1.636294
-3.278490 -1.664609 -1.633707
-3.439091 -1.743710 -1.607454
-3.678900 -1.862352 -1.607220
-3.925014 -1.984800 -1.598120
-4.195037 -2.118194 -1.585399
-4.524897 -2.281265 -1.578890
-4.856097 -2.445779 -1.556928
-5.263604 -2.647113 -1.540371
-5.695351 -2.861426 -1.508380
-6.134069 -3.077694 -1.457071
-6.746035 -3.379887 -1.420094
-7.515966 -3.802826 -1.382480
-8.318163 -4.204844 -1.308637
-9.413114 -4.751700 -1.230054
-9.708228 -4.895836 -1.013379
0.000643 -0.018960 -0.000513
-10.276247 -5.174450 -0.535873
-10.143423 -5.103400 -0.263150
-11.223463 -5.642304 0.000378
-16.618444 -8.337984 0.432295
-16.586317 -8.314687 0.865672
-16.563507 -8.299685 1.295761
-16.517204 -8.269356 1.723386
-16.516802 -8.261972 2.159575
-16.452974 -8.226556 2.584960
-16.436531 -8.211209 3.018179
-12.979719 -6.482706 2.732623
-2.541849 -1.280831 -1.683613
-2.651836 -1.334279 -1.663792
-2.772964 -1.393758 -1.646257
-2.943310 -1.476932 -1.649680
-3.108572 -1.557445 -1.642279
-3.312484 -1.657645 -1.645903
-3.427471 -1.713042 -1.597430
-3.691120 -1.841751 -1.607944
-3.929520 -1.958627 -1.595380
-4.198533 -2.089595 -1.582196
-4.531000 -2.251595 -1.576505
-4.835497 -2.400588 -1.545902
-5.280380 -2.617417 -1.540874
-5.704645 -2.824960 -1.506533
-6.153301 -3.042979 -1.457485
-6.733510 -3.325206 -1.413429
-7.549967 -3.765431 -1.384748
-8.324359 -4.147894 -1.305854
-9.434855 -4.694606 -1.229358
-9.677209 -4.810513 -1.007254
-9.884124 -4.910828 -0.770959
-10.520645 -5.221294 -0.547036
-10.183242 -5.050043 -0.263429
0.000626 -0.018730 -0.000507
-16.558445 -8.188955 0.429496
-16.524450 -8.165034 0.859975
-16.507067 -8.152904 1.287656
-16.460770 -8.122972 1.712598
-16.455204 -8.113117 2.145391
-16.400370 -8.082611 2.569359
-16.391293 -8.071066 3.001307
-13.237219 -6.515947 2.778925
-2.544444 -1.263687 -1.680548
-2.664048 -1.321058 -1.666726
-2.780837 -1.377552 -1.646252
-2.935579 -1.451894 -1.640703
-3.109237 -1.535332 -1.637997
-3.309003 -1.631345 -1.639392
-3.427211 -1.688214 -1.592802
-3.698215 -1.818631 -1.606485
-3.939255 -1.934244 -1.594693
-4.205263 -2.062687 -1.580272
-4.516288 -2.211915 -1.566972
-4.858186 -2.375851 -1.548654
-5.305689 -2.591831 -1.543910
-5.707161 -2.784077 -1.502843
-6.153527 -2.997708 -1.453326
-6.728211 -3.273021 -1.408246
-7.544812 -3.708708 -1.379885
-8.327326 -4.087817 -1.302515
-9.468740 -4.643518 -1.230286
-9.735054 -4.769396 -1.010410
-10.603387 -5.188563 -0.824619
-10.579118 -5.174459 -0.548526
-10.201237 -4.985908 -0.263152
-16.543533 -8.066932 0.000782
-16.508072 -8.046138 0.426976
-16.463226 -8.017246 0.854371
-16.452671 -8.005039 1.279690
-16.404594 -7.974649 1.701809
-16.394251 -7.966118 2.131439
-16.346287 -7.935842 2.553481
-16.337463 -7.924550 2.982811
-16.299866 -7.902865 3.412377
-2.548683 -1.246856 -1.678503
-2.659169 -1.298963 -1.658885
-2.788824 -1.360798 -1.646248
-2.950495 -1.437346 -1.644287
-3.111406 -1.514058 -1.634571
-3.301765 -1.604141 -1.631255
-3.460327 -1.678805 -1.603589
-3.698425 -1.792256 -1.602117
-3.958674 -1.915372 -1.598109
-4.218688 -2.039061 -1.580908
-4.527122 -2.184845 -1.566373
-4.899414 -2.360898 -1.557470
-5.306445 -2.554363 -1.539856
-5.731759 -2.755159 -1.505146
-6.177119 -2.966481 -1.454987
-6.732085 -3.228453 -1.405282
-7.609230 -3.684255 -1.387663
-8.336333 -4.032752 -1.300289
-9.556834 -4.616363 -1.238168
-9.938933 -4.795931 -1.028604
-10.650954 -5.135906 -0.826013
-10.535655 -5.075996 -0.544713
-10.290947 -4.956331 -0.264726
0.000618 -0.018253 -0.000494
-16.441753 -7.893522 0.424038
-16.408051 -7.873879 0.849140
-16.384975 -7.855822 1.270887
-16.348093 -7.834693 1.691391
-16.335741 -7.821804 2.117953
-16.286104 -7.791130 2.537045
-16.272665 -7.781251 2.963020
-16.243837 -7.760560 3.391256
-2.553949 -1.231646 -1.677479
-2.675738 -1.288367 -1.664758
-2.797893 -1.345754 -1.647182
-2.951884 -1.417556 -1.640694
-3.128129 -1.499767 -1.638844
-3.315770 -1.587221 -1.633691
-3.452877 -1.651362 -1.595877
-3.710242 -1.771505 -1.602841
-3.962734 -1.889129 -1.595370
-4.218246 -2.008862 -1.576424
-4.546410 -2.161785 -1.568752
-4.897160 -2.325069 -1.552507
-5.270168 -2.499655 -1.525169
-5.752691 -2.724395 -1.506526
-6.205109 -2.934579 -1.457479
-6.770553 -3.197448 -1.409353
-7.563598 -3.610199 -1.375670
-8.348549 -3.979406 -1.298620
-9.415423 -4.483600 -1.216610
-9.754861 -4.640421 -1.006884
-10.687409 -5.077730 -0.826572
-10.543848 -5.007529 -0.543691
-10.429449 -4.948953 -0.267551
0.000627 -0.018007 -0.000488
-16.384178 -7.753670 0.421425
-16.353577 -7.732263 0.844003
-16.332319 -7.715284 1.263340
-16.289658 -7.688251 1.680603
-16.279709 -7.680115 2.104931
-16.228386 -7.649060 2.521165
-16.216576 -7.636616 2.944524
-16.195595 -7.623329 3.371988
-2.562651 -1.216978 -1.678494
-2.683220 -1.272247 -1.664754
-2.807309 -1.329656 -1.648117
-2.960150 -1.399810 -1.640690
-3.112288 -1.469505 -1.626007
-3.316484 -1.564035 -1.629620
-3.482560 -1.639975 -1.605122
-3.720591 -1.749257 -1.602837
-3.968316 -1.863687 -1.593315
-4.226521 -1.981987 -1.575141
-4.559051 -2.134573 -1.568749
-4.903385 -2.293396 -1.550299
-5.309383 -2.479547 -1.532256
-5.738134 -2.677108 -1.498688
-6.172087 -2.875595 -1.445838
-6.774468 -3.151618 -1.406390
-7.602624 -3.573434 -1.378911
-8.349664 -3.921022 -1.295281
-9.497516 -4.453544 -1.223797
-9.735173 -4.560406 -1.002058
-10.756144 -5.034508 -0.829640
-10.527961 -4.923626 -0.541367
-10.663315 -4.982178 -0.272783
-11.076849 -5.172353 0.000347
-16.331825 -7.610688 0.418905
-16.295738 -7.587013 0.838679
-16.274988 -7.573940 1.255515
-16.235947 -7.548946 1.670558
0.000609 -0.017775 -0.000481
-16.183956 -7.514574 2.507514
-16.156237 -7.494903 2.925705
-16.136908 -7.479138 3.350497
-2.564836 -1.199827 -1.675430
-2.698326 -1.260207 -1.669647
-2.813211 -1.312513 -1.647174
-2.959930 -1.378788 -1.636199
-3.136785 -1.459447 -1.634558
-3.340265 -1.551556 -1.636937
-3.488494 -1.618149 -1.603577
-3.725106 -1.725910 -1.600652
-3.984006 -1.842947 -1.595363
-4.237425 -1.958153 -1.575138
-4.553428 -2.100935 -1.562790
-4.919872 -2.266505 -1.551399
-5.338866 -2.456893 -1.536811
-5.755122 -2.644638 -1.499146
-6.138085 -2.818150 -1.434197
-6.800786 -3.117628 -1.408240
-7.574559 -3.507118 -1.370159
-8.355800 -3.865248 -1.292777
-9.479561 -4.378683 -1.218234
-9.547638 -4.405974 -0.980152
-10.162967 -4.686646 -0.781834
-10.837423 -4.991921 -0.555788
-10.647223 -4.902385 -0.271673
-11.006311 -5.062485 0.000337
-16.277065 -7.471445 0.416385
-16.234154 -7.448385 0.833355
-16.227474 -7.438495 1.248527
-16.183521 -7.414999 1.660884
0.000591 -0.017544 -0.000475
-16.120499 -7.372627 2.491078
-16.107920 -7.363508 2.909480
-16.087072 -7.347238 3.331599
-2.579202 -1.188808 -1.680526
-2.692499 -1.239130 -1.661806
-2.820396 -1.296565 -1.647169
-2.975611 -1.365703 -1.640682
-3.144780 -1.441691 -1.634554
-3.342113 -1.529651 -1.633679
-3.494015 -1.596914 -1.602031
-3.732899 -1.704112 -1.599921
-3.987272 -1.817366 -1.592624
-4.258553 -1.938928 -1.578975
-4.523210 -2.056441 -1.548492
-4.906071 -2.226966 -1.543129
-5.350614 -2.426043 -1.536302
-5.737752 -2.597903 -1.490846
-6.233901 -2.819725 -1.452901
-6.841280 -3.089881 -1.413051
-7.597515 -3.466223 -1.370806
-8.357275 -3.809341 -1.289716
-9.456714 -4.304198 -1.212207
-9.708029 -4.414041 -0.994076
-10.312449 -4.685607 -0.791314
-10.579224 -4.801928 -0.541184
-10.435642 -4.734814 -0.265611
-10.813731 -4.901185 0.000319
-16.216330 -7.334271 0.413772
-16.186102 -7.317248 0.828778
-16.174007 -7.305018 1.241259
-16.119228 -7.276971 1.650095
-16.114752 -7.268208 2.067259
-16.067345 -7.240150 2.476592
-16.047821 -7.228024 2.891309
-16.023697 -7.210482 3.310107
-2.586108 -1.173264 -1.680521
-2.693331 -1.220065 -1.657884
-2.823079 -1.277419 -1.644349
-2.978678 -1.345630 -1.637985
-3.153395 -1.422226 -1.634551
-3.349356 -1.508835 -1.632862
-3.505006 -1.576687 -1.602798
-3.729488 -1.675003 -1.594098
-3.987585 -1.788894 -1.588517
-4.252877 -1.904982 -1.572571
-4.566974 -2.042493 -1.559210
-4.908522 -2.192928 -1.539819
-5.356373 -2.389199 -1.533768
-5.776085 -2.573855 -1.496837
-6.200797 -2.759253 -1.441260
-6.809566 -3.025612 -1.402685
-7.617822 -3.420897 -1.370806
-8.366953 -3.753859 -1.287768
-9.527289 -4.268066 -1.218003
-9.502927 -4.253233 -0.970499
-10.571372 -4.727287 -0.809017
-10.494241 -4.688544 -0.535417
-10.458738 -4.668378 -0.265474
-10.926553 -4.874144 0.000323
-16.169846 -7.198033 0.411485
-16.128096 -7.172771 0.823547
-16.116610 -7.164324 1.233572
-16.072187 -7.137931 1.640794
-16.067873 -7.129328 2.055632
-16.010275 -7.100509 2.461270
-16.003075 -7.090661 2.875410
-15.981003 -7.074254 3.292322
-2.595889 -1.159527 -1.682557
-2.706586 -1.207119 -1.661798
-2.836768 -1.263772 -1.648100
-2.987912 -1.328957 -1.638878
-3.154818 -1.400929 -1.631124
-3.356205 -1.488572 -1.632045
-3.510534 -1.554780 -1.601253
-3.745793 -1.656273 -1.597004
-3.999431 -1.766441 -1.589197
-4.263666 -1.880250 -1.572568
-4.557557 -2.006788 -1.552060
-4.949162 -2.176730 -1.548635
-5.362844 -2.355025 -1.531740
-5.763915 -2.528682 -1.489921
-6.223641 -2.726428 -1.442921
-6.839393 -2.991655 -1.405274
-7.657153 -3.385535 -1.374370
-8.371995 -3.698264 -1.285264
-9.531578 -4.204175 -1.215454
-9.842585 -4.336710 -1.002619
-10.751785 -4.733506 -0.820726
-10.533750 -4.633487 -0.536070
-10.512800 -4.619942 -0.266170
-11.130221 -4.887969 0.000334
-16.117468 -7.063839 0.409105
-16.079275 -7.040472 0.818970
-16.056902 -7.027379 1.225886
-16.017962 -7.003737 1.631120
-16.039324 -7.006406 2.046793
-16.043476 -7.004901 2.460150
-15.947591 -6.956532 2.858212
-15.927618 -6.941247 3.273053
-2.599261 -1.142969 -1.680512
-2.715009 -1.191996 -1.662772
-2.845516 -1.247897 -1.649034
-2.997044 -1.312216 -1.639772
-3.169386 -1.385397 -1.634542
-3.356230 -1.465386 -1.627975
-3.517628 -1.533592 -1.600479
-3.755183 -1.634473 -1.597000
-4.007698 -1.742424 -1.588510
-4.269115 -1.853223 -1.570644
-4.591746 -1.990109 -1.559800
-4.943849 -2.140408 -1.543121
-5.370883 -2.321621 -1.530218
-5.787240 -2.499102 -1.492223
-6.221155 -2.682650 -1.438762
-6.878071 -2.961312 -1.409716
-7.620260 -3.316888 -1.364322
-8.385779 -3.646676 -1.284152
-9.458879 -4.107264 -1.203168
-10.011686 -4.342183 -1.017287
0.000572 -0.016585 -0.000449
-10.560118 -4.572582 -0.536072
-10.540957 -4.559965 -0.266217
0.000572 -0.016585 -0.000449
-16.087933 -6.940744 0.407330
-16.115728 -6.946058 0.818777
-16.128126 -6.948070 1.228254
-16.153053 -6.952118 1.640782
-16.172348 -6.953732 2.058641
-16.176262 -6.952086 2.474346
-15.901992 -6.827942 2.842961
-15.891288 -6.816810 3.257489
-2.612017 -1.130455 -1.684588
-2.718530 -1.174761 -1.660809
-2.837924 -1.225041 -1.640581
-3.001163 -1.293320 -1.637973
-3.167228 -1.362664 -1.629405
-3.361171 -1.444403 -1.626344
-3.521196 -1.510931 -1.598163
-3.752414 -1.607515 -1.591906
-4.002010 -1.712520 -1.582352
-4.267395 -1.823228 -1.566160
-4.594225 -1.959709 -1.556819
-5.000265 -2.130421 -1.556897
-5.378695 -2.288190 -1.528697
-5.817557 -2.472345 -1.496370
-6.223774 -2.641268 -1.435851
-6.847795 -2.901620 -1.400090
-7.622791 -3.265810 -1.361405
-8.393764 -3.592714 -1.282204
-9.445697 -4.036997 -1.198533
-10.003420 -4.270270 -1.013946
0.000554 -0.016354 -0.000442
-10.576953 -4.507630 -0.535608
-10.539291 -4.487308 -0.265525
-10.747294 -4.573339 0.000300
-16.215878 -6.885302 0.409558
-16.252838 -6.894284 0.823716
-16.259609 -6.893820 1.235230
-16.280727 -6.896068 1.649699
-16.307156 -6.900543 2.070721
-16.323530 -6.904115 2.490770
-15.849983 -6.697805 2.826737
-15.821464 -6.679297 3.235258
-2.605697 -1.109849 -1.676424
-2.729980 -1.160891 -1.663743
-2.848096 -1.209829 -1.642454
-3.011753 -1.277176 -1.639764
-3.173236 -1.343479 -1.628546
-3.345726 -1.414940 -1.614953
-3.534860 -1.492555 -1.600472
-3.759782 -1.584949 -1.591175
-3.999560 -1.684173 -1.577561
-4.279474 -1.799147 -1.566797
-4.584182 -1.924212 -1.549669
-4.985699 -2.090303 -1.548627
-5.388123 -2.255504 -1.527682
-5.826190 -2.436364 -1.494986
-6.240571 -2.605938 -1.436265
-6.844322 -2.853679 -1.396017
-7.655893 -3.227772 -1.363997
-8.399583 -3.538014 -1.279979
-9.549305 -4.016144 -1.208734
-9.946914 -4.178615 -1.005779
-10.675128 -4.481153 -0.808884
-10.582364 -4.438027 -0.534586
-10.540859 -4.416373 -0.264925
-10.538905 -4.413406 0.000281
-16.364014 -6.837079 0.412298
-16.388054 -6.840403 0.828561
-16.394678 -6.839818 1.242485
-16.415640 -6.841835 1.659360
-16.449242 -6.849088 2.083731
-16.458010 -6.849376 2.505244
0.000563 -0.016108 -0.000436
0.000563 -0.016108 -0.000436
-2.610387 -1.093965 -1.675399
-2.730064 -1.142267 -1.659821
-2.867996 -1.198583 -1.649960
-3.010716 -1.256201 -1.635273
-3.190876 -1.329108 -1.633675
-3.368916 -1.401684 -1.622270
-3.553545 -1.476174 -1.605092
-3.758416 -1.558820 -1.586807
-3.998666 -1.656625 -1.573454
-4.298432 -1.777861 -1.569995
-4.607470 -1.902650 -1.553835
-4.954854 -2.043882 -1.535397
-5.381212 -2.216183 -1.522110
-5.832827 -2.399642 -1.493140
-6.269851 -2.575677 -1.439590
-6.838687 -2.805118 -1.391574
-7.672440 -3.182707 -1.363673
-8.414205 -3.487138 -1.279144
-9.489493 -3.926850 -1.198303
-9.584002 -3.961897 -0.966791
0.000545 -0.015876 -0.000430
-10.646413 -4.392797 -0.536542
-10.597429 -4.368346 -0.265714
0.000545 -0.015876 -0.000430
-16.504732 -6.784342 0.414852
-16.523151 -6.785173 0.833405
-16.538893 -6.788265 1.250437
-16.565220 -6.792309 1.670508
-16.583878 -6.793200 2.095810
-16.596043 -6.794806 2.520275
0.000545 -0.015876 -0.000430
-15.869784 -6.485271 3.229689
-2.611748 -1.076742 -1.672334
-2.742971 -1.128933 -1.663735
-2.863292 -1.177179 -1.643384
-3.001246 -1.231916 -1.626296
-3.174919 -1.300999 -1.621693
-3.372005 -1.379408 -1.619825
-3.544774 -1.448555 -1.597382
-3.768972 -1.537645 -1.587531
-3.987398 -1.624222 -1.565244
-4.306725 -1.752153 -1.569352
-4.588135 -1.863752 -1.543707
-4.968570 -2.014963 -1.535946
-5.402754 -2.188565 -1.524640
-5.826973 -2.356806 -1.488067
-6.304908 -2.546266 -1.444160
-6.877007 -2.773093 -1.396015
-7.670410 -3.130119 -1.360107
-8.414444 -3.428790 -1.276084
-9.484227 -3.860781 -1.194826
-9.654524 -3.925904 -0.971620
-10.765373 -4.371429 -0.811816
-10.693644 -4.340246 -0.537661
-10.629719 -4.310087 -0.265901
-10.908545 -4.418308 0.000298
-16.636089 -6.726459 0.417172
-16.673019 -6.734608 0.838996
-16.671284 -6.727155 1.257413
-16.708551 -6.735396 1.680912
-16.725803 -6.738959 2.108819
-16.726004 -6.732275 2.533913
-15.912770 -6.399282 2.817637
-15.908553 -6.394379 3.230053
-2.614805 -1.059734 -1.670290
-2.752769 -1.113716 -1.665690
-2.863568 -1.157336 -1.639625
-3.011725 -1.215195 -1.628087
-3.179114 -1.280581 -1.619979
-3.376404 -1.358404 -1.618195
-3.561778 -1.430690 -1.601232
-3.772731 -1.512980 -1.585346
-4.024549 -1.612116 -1.576183
-4.297580 -1.718693 -1.562308
-4.604342 -1.838403 -1.545491
-5.008598 -1.997435 -1.544762
-5.397547 -2.149162 -1.519574
-5.860274 -2.330893 -1.493136
-6.293881 -2.499668 -1.438339
-6.874454 -2.726037 -1.392312
-7.642916 -3.066086 -1.352004
-8.421078 -3.374974 -1.274137
-9.540079 -3.817516 -1.199000
-10.090098 -4.032636 -1.013024
-10.241543 -4.090867 -0.770558
-10.704250 -4.270666 -0.536919
-10.751606 -4.285152 -0.268311
0.000537 -0.015401 -0.000417
-16.790815 -6.673218 0.420051
-16.803564 -6.671502 0.843560
-16.817205 -6.673522 1.265504
-16.841391 -6.676312 1.690386
-16.868834 -6.680374 2.121828
-16.863832 -6.675007 2.548943
-15.952904 -6.308867 2.818279
-15.949752 -6.301205 3.230788
-2.630381 -1.048212 -1.676406
-2.760674 -1.098266 -1.666665
-2.871735 -1.141253 -1.640560
-3.006931 -1.193051 -1.621802
-3.199598 -1.267869 -1.626819
-3.395981 -1.343378 -1.623885
-3.569887 -1.409954 -1.601228
-3.794899 -1.497092 -1.591161
-4.038914 -1.590749 -1.578232
-4.305253 -1.693773 -1.561665
-4.623336 -1.815924 -1.548466
-5.005596 -1.962787 -1.540350
-5.418385 -2.122296 -1.522104
-5.869878 -2.295507 -1.492213
-6.287586 -2.456504 -1.433765
-6.858329 -2.675344 -1.386018
-7.645650 -3.016076 -1.349410
-8.421826 -3.319015 -1.271355
-9.550679 -3.757990 -1.197611
-10.530273 -4.137634 -1.054801
0.000519 -0.015169 -0.000411
-10.801118 -4.237160 -0.540550
-10.818118 -4.241637 -0.269378
-11.062828 -4.332793 0.000301
0.000519 -0.015169 -0.000411
-16.952108 -6.620967 0.849150
-16.959351 -6.616985 1.273317
-16.984066 -6.623210 1.700975
-17.011280 -6.626974 2.135068
-16.977547 -6.607055 2.560353
-15.989604 -6.220281 2.818596
-13.490503 -5.245075 2.726636
-2.624887 -1.028956 -1.669261
-2.756906 -1.078844 -1.660784
-2.866460 -1.120543 -1.633984
-3.008449 -1.174094 -1.619106
-3.206758 -1.249209 -1.626815
-3.403563 -1.323583 -1.623882
-3.579330 -1.390445 -1.601995
-3.796418 -1.472338 -1.588248
-4.056684 -1.570618 -1.581649
-4.302453 -1.663997 -1.557181
-4.628259 -1.787010 -1.546677
-5.005943 -1.929606 -1.537041
-5.397884 -2.078422 -1.512987
-5.888337 -2.263545 -1.493594
-6.274529 -2.408506 -1.427529
-6.868455 -2.632313 -1.384907
-7.667797 -2.975289 -1.350383
-8.425917 -3.264588 -1.269130
-9.545475 -3.694439 -1.194367
-9.923123 -3.836033 -0.991862
-10.881779 -4.200812 -0.815029
-11.212364 -4.325733 -0.559907
-10.748925 -4.143268 -0.267065
-10.902630 -4.197940 0.000286
-11.242045 -4.325915 0.279859
-17.096174 -6.563861 0.854460
-17.099543 -6.558323 1.280989
-17.121498 -6.559886 1.710821
-17.156645 -6.569902 2.148541
-17.078114 -6.533083 2.569813
-16.031633 -6.127291 2.819563
0.000501 -0.014937 -0.000404
-2.640486 -1.016798 -1.675377
-2.753391 -1.058544 -1.654902
-2.866346 -1.100789 -1.630224
-3.036994 -1.164229 -1.630767
-3.202183 -1.225470 -1.620823
-3.405933 -1.301823 -1.621438
-3.582236 -1.367011 -1.599680
-3.794528 -1.445632 -1.583881
-4.044482 -1.539078 -1.573438
-4.310397 -1.637575 -1.556538
-4.622626 -1.753278 -1.541313
-5.002472 -1.895130 -1.532630
-5.424511 -2.051600 -1.517036
-5.895705 -2.227349 -1.492210
-6.299185 -2.376260 -1.430022
-6.894470 -2.596679 -1.387127
-7.687057 -2.930260 -1.350707
-8.435195 -3.212318 -1.267739
-9.542949 -3.628417 -1.191354
-9.953046 -3.779743 -0.992606
-11.066168 -4.198596 -0.827020
-10.761129 -4.078988 -0.536182
-10.724563 -4.060909 -0.265864
-10.688832 -4.045305 0.000269
-11.095257 -4.194143 0.275574
-17.243134 -6.503006 0.859862
-17.256401 -6.504573 1.289917
-17.270720 -6.503090 1.721967
-17.301207 -6.507666 2.161781
-17.141279 -6.444248 2.573704
-16.068386 -6.035445 2.819881
0.000510 -0.014692 -0.000398
-2.643004 -1.000162 -1.673333
-2.767511 -1.045491 -1.659796
-2.889097 -1.090207 -1.639609
-3.030169 -1.141526 -1.623585
-3.210793 -1.207424 -1.621675
-3.408133 -1.280059 -1.618994
-3.598611 -1.349358 -1.603530
-3.809685 -1.426133 -1.586787
-4.051421 -1.514899 -1.572751
-4.292986 -1.602648 -1.546933
-4.637925 -1.728411 -1.543098
-5.007818 -1.864101 -1.530974
-5.412550 -2.011430 -1.510451
-5.904693 -2.191824 -1.491286
-6.332857 -2.347190 -1.434593
-6.912876 -2.558090 -1.387867
-7.690747 -2.880935 -1.348438
-8.440463 -3.158676 -1.265792
-9.550565 -3.568397 -1.189733
-9.834548 -3.670164 -0.978683
-11.230320 -4.186754 -0.837477
-10.567068 -3.936164 -0.525390
-10.828281 -4.028811 -0.267858
0.000492 -0.014460 -0.000391
-11.134110 -4.135571 0.275944
-17.390724 -6.444364 0.865358
-17.402010 -6.445099 1.298008
-17.419861 -6.444801 1.733113
-17.451969 -6.449740 2.175951
-17.217016 -6.359707 2.579544
-16.112009 -5.946100 2.821495
0.000492 -0.014460 -0.000391
-2.650258 -0.985298 -1.674349
-2.770138 -1.028122 -1.657833
-2.900233 -1.075157 -1.642421
-3.036612 -1.123840 -1.623581
-3.217608 -1.188697 -1.621671
-3.408500 -1.257693 -1.615737
-3.602759 -1.327127 -1.601985
-3.831752 -1.409054 -1.592603
-4.068826 -1.494546 -1.576168
-4.337695 -1.590643 -1.559733
-4.602835 -1.685175 -1.528204
-5.009328 -1.831742 -1.528216
-5.423971 -1.980035 -1.510449
-5.900673 -2.151631 -1.487135
-6.371935 -2.319810 -1.440412
-6.918174 -2.514718 -1.386015
-7.686717 -2.828944 -1.344873
-8.354257 -3.071724 -1.250212
-9.561529 -3.509762 -1.188575
-9.924637 -3.638580 -0.985554
-10.195224 -3.735382 -0.758719
-11.188220 -4.093385 -0.555076
-10.884997 -3.978535 -0.268694
-11.484385 -4.194564 0.000309
-11.954391 -4.360924 0.295672
-17.534466 -6.382881 0.870667
-17.547462 -6.384145 1.306098
-17.574480 -6.387023 1.744816
-17.598904 -6.388945 2.189655
-17.286766 -6.272482 2.584548
0.000473 -0.014225 -0.000385
-12.205134 -4.423234 2.445472
-2.647698 -0.966882 -1.669244
-2.772631 -1.010746 -1.655870
-2.896320 -1.054639 -1.636784
-3.058071 -1.111542 -1.631653
-3.217502 -1.167491 -1.618245
-3.415600 -1.237831 -1.615734
-3.591150 -1.299312 -1.593504
-3.827457 -1.382377 -1.587508
-4.084356 -1.473410 -1.578900
-4.352039 -1.567339 -1.561651
-4.597991 -1.653309 -1.523437
-5.023323 -1.803952 -1.529316
-5.440641 -1.950505 -1.511966
-5.911043 -2.116770 -1.486673
-6.390620 -2.284848 -1.441658
-6.943551 -2.478590 -1.388236
-7.684223 -2.777778 -1.341631
-8.457462 -3.054215 -1.263011
-9.583333 -3.455140 -1.188809
-9.787880 -3.524736 -0.969960
-10.331011 -3.717509 -0.767225
-10.925607 -3.926360 -0.540935
-10.534876 -3.782308 -0.259527
-11.214432 -4.023170 0.000288
-12.014957 -4.304627 0.296552
-17.696871 -6.326654 0.876908
-17.709749 -6.327783 1.315445
-17.734674 -6.329701 1.757077
-17.753199 -6.329329 2.204288
0.000482 -0.013979 -0.000379
0.000482 -0.013979 -0.000379
0.000482 -0.013979 -0.000379
-2.658021 -0.953128 -1.672300
-2.773402 -0.992811 -1.652927
-2.893933 -1.034787 -1.632086
-3.060982 -1.092518 -1.629854
-3.225793 -1.149327 -1.619097
-3.412249 -1.214291 -1.610850
-3.591524 -1.275951 -1.590417
-3.830001 -1.358255 -1.585322
-4.074941 -1.443431 -1.572058
-4.357319 -1.540786 -1.560368
-4.648809 -1.641114 -1.537134
-5.017221 -1.769088 -1.524353
-5.433429 -1.912562 -1.506901
-5.917518 -2.080568 -1.485289
-6.396189 -2.245239 -1.439994
-6.957625 -2.438383 -1.388235
-7.699987 -2.733295 -1.341632
-8.454260 -2.998030 -1.259951
-9.601100 -3.399069 -1.188579
-9.883039 -3.494606 -0.977389
-10.476367 -3.701519 -0.776428
-10.721742 -3.783690 -0.529772
-10.778991 -3.799601 -0.264994
-10.992007 -3.872268 0.000271
-11.788490 -4.147227 0.290359
-17.847921 -6.264824 0.882589
-17.796612 -6.243381 1.319206
-17.757553 -6.222761 1.755767
-17.755480 -6.215094 2.200097
-12.712826 -4.451441 1.892847
-12.231540 -4.278664 2.128662
0.000464 -0.013748 -0.000372
-2.661758 -0.937023 -1.671276
-2.767474 -0.972616 -1.646065
-2.903106 -1.019048 -1.633960
-3.067138 -1.074655 -1.629850
-3.235709 -1.131707 -1.620804
-3.426225 -1.196201 -1.614100
-3.602221 -1.256241 -1.591955
-3.816522 -1.328675 -1.576591
-4.079803 -1.417803 -1.570687
-4.348143 -1.509312 -1.553963
-4.656281 -1.613487 -1.536536
-5.023898 -1.737836 -1.523249
-5.446107 -1.881678 -1.507405
-5.902052 -2.035766 -1.478372
-6.400071 -2.203904 -1.437914
-6.960705 -2.393051 -1.386014
-7.672638 -2.673869 -1.334176
-8.464327 -2.945054 -1.258839
-9.618537 -3.342906 -1.188348
-10.098629 -3.505141 -0.996701
0.000473 -0.013502 -0.000366
-10.850911 -3.758886 -0.535078
-10.719299 -3.709280 -0.263006
-11.464736 -3.961808 0.000294
0.000473 -0.013502 -0.000366
0.000473 -0.013502 -0.000366
-17.748316 -6.108420 1.312914
-17.705505 -6.086816 1.747021
-13.117538 -4.510555 1.622085
-12.317324 -4.231429 1.830191
0.000473 -0.013502 -0.000366
-12.234783 -4.196031 2.436570
-2.665542 -0.920433 -1.670252
-2.781358 -0.958762 -1.650959
-2.907339 -1.001014 -1.633017
-3.071676 -1.055644 -1.628949
-3.245694 -1.113427 -1.622512
-3.429521 -1.175068 -1.612469
-3.602536 -1.232270 -1.588869
-3.836604 -1.309971 -1.581680
-4.093152 -1.395878 -1.572737
-4.362312 -1.485093 -1.555881
-4.649410 -1.580145 -1.531172
-5.022795 -1.704989 -1.519940
-5.460742 -1.850361 -1.508416
-5.920981 -2.004039 -1.480215
-6.410697 -2.166189 -1.437498
-6.970550 -2.351491 -1.385273
-7.665849 -2.620491 -1.330287
-8.462276 -2.889703 -1.256058
-9.645645 -3.288177 -1.189278
-9.862659 -3.358016 -0.971451
-10.290093 -3.500976 -0.759565
0.000455 -0.013270 -0.000359
-10.903913 -3.700540 -0.266992
-10.718011 -3.635601 0.000247
0.000455 -0.013270 -0.000359
0.000455 -0.013270 -0.000359
-17.699894 -5.977971 1.306762
-17.683527 -5.965590 1.741436
-12.543323 -4.230565 1.547942
0.000455 -0.013270 -0.000359
0.000455 -0.013270 -0.000359
-12.266817 -4.125716 2.438048
-2.669113 -0.904316 -1.669227
-2.788398 -0.943057 -1.651935
-2.921357 -0.986833 -1.637707
-3.077649 -1.037735 -1.628945
-3.250081 -1.094508 -1.621652
-3.429196 -1.152771 -1.609213
-3.595498 -1.206651 -1.582700
-3.847324 -1.289493 -1.583131
-4.095699 -1.370307 -1.570682
-4.370445 -1.460498 -1.555879
-4.676213 -1.559952 -1.537126
-5.025167 -1.673436 -1.517733
-5.441515 -1.809938 -1.500312
-5.924951 -1.967279 -1.478369
-6.407757 -2.125274 -1.434171
-6.977886 -2.310499 -1.384162
-7.665734 -2.571119 -1.327694
-8.467435 -2.837001 -1.254389
-9.673730 -3.235539 -1.190439
-9.942213 -3.321125 -0.977395
-10.255093 -3.423246 -0.755524
-11.045604 -3.681834 -0.542529
-10.899655 -3.631253 -0.266392
-10.774734 -3.585616 0.000246
-16.391397 -5.441520 0.401455
-16.369446 -5.431087 0.804680
0.000437 -0.013038 -0.000353
-12.889234 -4.271749 1.266852
-12.345942 -4.087474 1.520746
0.000437 -0.013038 -0.000353
-12.290210 -4.061961 2.126379
-12.293283 -4.058224 2.438784
-2.674047 -0.889179 -1.669223
-2.788591 -0.925634 -1.648992
-2.918364 -0.967547 -1.633009
-3.083302 -1.020307 -1.628942
-3.252818 -1.074439 -1.619938
-3.430489 -1.131095 -1.606769
-3.603856 -1.186912 -1.583467
-3.851057 -1.265951 -1.581674
-4.098071 -1.344743 -1.568627
-4.371500 -1.432763 -1.553316
-4.690478 -1.534559 -1.538911
-5.029130 -1.642480 -1.516078
-5.468339 -1.783743 -1.504868
-5.919420 -1.927536 -1.474219
-6.392248 -2.078010 -1.427935
-6.972686 -2.262840 -1.380460
-7.612368 -2.505980 -1.316025
-8.468468 -2.783083 -1.252164
-9.699114 -3.183775 -1.191368
-9.915097 -3.250563 -0.972941
0.000446 -0.012793 -0.000347
-11.071592 -3.621795 -0.542812
-10.792884 -3.526785 -0.263293
0.000446 -0.012793 -0.000347
-11.410799 -3.721366 0.278853
-16.411736 -5.340311 0.805232
0.000446 -0.012793 -0.000347
-12.425466 -4.036768 1.218889
0.000446 -0.012793 -0.000347
-12.327997 -3.998088 1.821268
-12.332783 -3.994889 2.129618
-12.318243 -3.987830 2.439150
-2.671000 -0.870445 -1.664119
-2.792304 -0.908328 -1.648009
-2.930695 -0.952151 -1.636761
-3.085831 -1.000697 -1.627143
-3.255610 -1.053804 -1.618223
-3.436892 -1.111118 -1.606765
-3.617779 -1.167537 -1.586547
-3.842456 -1.237781 -1.575124
-4.100293 -1.319201 -1.566573
-4.370816 -1.403722 -1.550112
-4.695778 -1.505341 -1.537718
-5.031103 -1.610966 -1.513871
-5.467680 -1.747559 -1.501828
-5.950737 -1.899688 -1.479289
-6.411479 -2.043335 -1.429597
-6.931180 -2.205276 -1.369723
-7.617619 -2.457574 -1.314405
-8.469176 -2.729255 -1.249939
-9.723413 -3.127825 -1.192066
-10.070662 -3.235206 -0.986312
-11.234292 -3.605399 -0.824538
-11.037591 -3.538254 -0.540116
-11.120215 -3.560374 -0.270753
-11.188620 -3.580056 0.000260
0.000429 -0.012563 -0.000340
-16.458254 -5.247572 0.805970
-12.704512 -4.051186 0.932567
0.000429 -0.012563 -0.000340
0.000429 -0.012563 -0.000340
-12.358282 -3.929281 1.822377
-12.353612 -3.923063 2.129290
-12.343455 -3.915113 2.439516
-2.690673 -0.859483 -1.673296
-2.800720 -0.893049 -1.649964
-2.931005 -0.933456 -1.633940
-3.084648 -0.980555 -1.623551
-3.261556 -1.034828 -1.618219
-3.448389 -1.092736 -1.609202
-3.620856 -1.145377 -1.585002
-3.860110 -1.218756 -1.579485
-4.111354 -1.296491 -1.567937
-4.380565 -1.378891 -1.550750
-4.700649 -1.476939 -1.536524
-5.042049 -1.582334 -1.514420
-5.486799 -1.718714 -1.504359
-5.959660 -1.864630 -1.478827
-6.411847 -2.002710 -1.427102
-6.973719 -2.174452 -1.375647
-7.657917 -2.421777 -1.318943
-8.471459 -2.676116 -1.247992
-9.754462 -3.075792 -1.193691
-9.914232 -3.122168 -0.969232
-11.254793 -3.540501 -0.824542
-10.992869 -3.454182 -0.536955
-11.025950 -3.460322 -0.267977
-11.361674 -3.563138 0.000265
-16.501705 -5.163148 0.401896
-13.039726 -4.077573 0.637335
0.000411 -0.012331 -0.000333
0.000411 -0.012331 -0.000333
-12.405615 -3.868033 1.519571
-12.391954 -3.861423 1.824044
-12.385313 -3.854627 2.130906
-12.373229 -3.846153 2.440993
-2.687277 -0.841216 -1.668191
-2.812414 -0.878744 -1.653879
-2.939631 -0.917383 -1.635814
-3.091886 -0.963088 -1.624444
-3.265653 -1.015280 -1.617360
-3.459952 -1.073639 -1.611639
-3.630844 -1.125376 -1.586540
-3.854533 -1.192487 -1.574390
-4.108108 -1.268565 -1.563831
-4.382925 -1.351777 -1.548827
-4.701684 -1.447406 -1.534139
-5.066000 -1.556686 -1.518827
-5.487298 -1.684084 -1.501825
-5.916548 -1.812616 -1.465456
-6.457220 -1.974678 -1.434584
-6.997690 -2.136272 -1.377868
-7.677313 -2.379203 -1.319916
-8.468160 -2.619796 -1.245211
-9.785204 -3.023488 -1.195316
-10.088037 -3.112830 -0.984460
-10.350465 -3.189541 -0.756929
-11.081270 -3.411772 -0.540308
-11.043689 -3.396027 -0.267934
-11.916100 -3.658795 0.000289
0.000421 -0.012085 -0.000327
-12.524084 -3.837691 0.611029
0.000421 -0.012085 -0.000327
-12.430861 -3.799741 1.212741
-12.437110 -3.799283 1.520729
-12.418338 -3.788834 1.824596
-12.419205 -3.784369 2.132848
-12.406366 -3.778116 2.443211
-2.677317 -0.820557 -1.659006
-2.812510 -0.860322 -1.650936
-2.946641 -0.900220 -1.636749
-3.100901 -0.945544 -1.626235
-3.274835 -0.997285 -1.619068
-3.466028 -1.053496 -1.611636
-3.632063 -1.102004 -1.584225
-3.875539 -1.174343 -1.580207
-4.104473 -1.241447 -1.559725
-4.385106 -1.324673 -1.546904
-4.702557 -1.417920 -1.531754
-5.063752 -1.523987 -1.515518
-5.489395 -1.650038 -1.499798
-5.911881 -1.773868 -1.461767
-6.479334 -1.941758 -1.437078
-6.977412 -2.087453 -1.371574
-7.702565 -2.336861 -1.321861
-8.471650 -2.567384 -1.243542
-9.802889 -2.965214 -1.195318
-9.738223 -2.942034 -0.948625
0.000403 -0.011854 -0.000321
-11.062945 -3.334310 -0.538451
-11.256413 -3.390279 -0.272616
-11.867903 -3.569286 0.000281
-12.785366 -3.839434 0.310192
0.000403 -0.011854 -0.000321
0.000403 -0.011854 -0.000321
-12.461352 -3.732977 1.213666
-12.462500 -3.728592 1.521189
-12.449353 -3.719939 1.825983
-12.445754 -3.716514 2.133817
-12.435348 -3.708694 2.444688
-2.676856 -0.803919 -1.655942
-2.822230 -0.845875 -1.653870
-2.954956 -0.884542 -1.638623
-3.109490 -0.929010 -1.628026
-3.278554 -0.978259 -1.618209
-3.463007 -1.031322 -1.607566
-3.620398 -1.076293 -1.576514
-3.887315 -1.154041 -1.582386
-4.109462 -1.217768 -1.559038
-4.386935 -1.298373 -1.544981
-4.712166 -1.391974 -1.532348
-5.079487 -1.497643 -1.517721
-5.492892 -1.617540 -1.498277
-5.953371 -1.749903 -1.469603
-6.484366 -1.903711 -1.435830
-6.985106 -2.047169 -1.370833
-7.683226 -2.284106 -1.316351
-8.468696 -2.514818 -1.241039
-9.823009 -2.911381 -1.195785
-9.928216 -2.938677 -0.965526
-10.406863 -3.077820 -0.758468
-11.108155 -3.280229 -0.539757
-11.246301 -3.318748 -0.271925
-11.593974 -3.416592 0.000262
-12.557093 -3.694682 0.304139
0.000385 -0.011622 -0.000314
-12.493477 -3.668932 0.910629
-12.487662 -3.664869 1.214219
-12.490661 -3.661017 1.522113
-12.477468 -3.652447 1.827093
-12.477587 -3.650120 2.135758
-12.465234 -3.641808 2.446536
-2.689638 -0.790662 -1.661038
-2.838712 -0.832778 -1.660724
-2.961620 -0.867776 -1.639558
-3.113006 -0.910373 -1.627125
-3.277288 -0.956571 -1.614783
-3.472347 -1.012168 -1.609189
-3.638891 -1.058789 -1.581906
-3.894040 -1.130754 -1.582383
-4.119948 -1.194907 -1.560403
-4.398108 -1.273146 -1.546259
-4.716585 -1.362725 -1.531155
-5.089808 -1.468695 -1.518270
-5.502307 -1.584714 -1.498276
-5.961421 -1.714868 -1.469141
-6.480416 -1.860714 -1.432504
-7.023535 -2.013052 -1.376016
-7.684821 -2.236357 -1.314407
-8.471539 -2.462525 -1.239371
-9.849092 -2.857367 -1.196946
-9.791823 -2.837116 -0.950673
0.000392 -0.011373 -0.000308
-11.466562 -3.313906 -0.556235
-11.482840 -3.314259 -0.277164
-11.451891 -3.303195 0.000250
0.000392 -0.011373 -0.000308
-12.521026 -3.601057 0.607750
-12.523909 -3.599529 0.911322
-12.512925 -3.591660 1.214585
-12.523528 -3.589967 1.523503
-12.513433 -3.584731 1.829315
-12.512228 -3.579671 2.138023
-12.501632 -3.571932 2.449493
-2.690758 -0.773997 -1.658994
-2.834993 -0.813819 -1.655822
-2.968201 -0.850972 -1.640494
-3.112972 -0.890760 -1.624429
-3.277451 -0.935994 -1.612213
-3.474519 -0.990942 -1.607559
-3.628876 -1.033106 -1.574966
-3.893242 -1.106082 -1.579470
-4.135736 -1.173497 -1.563820
-4.399831 -1.246060 -1.544336
-4.724285 -1.335340 -1.531152
-5.096248 -1.438634 -1.517718
-5.515013 -1.553857 -1.499287
-5.978601 -1.682400 -1.470984
-6.455162 -1.813190 -1.424604
-7.042491 -1.974489 -1.377497
-7.657602 -2.180581 -1.307600
-8.462621 -2.407045 -1.236033
-9.861466 -2.799350 -1.196485
-9.963150 -2.824346 -0.965716
0.000374 -0.011141 -0.000301
-11.370015 -3.215164 -0.550654
-11.570947 -3.267429 -0.278836
-11.655481 -3.289026 0.000255
0.000374 -0.011141 -0.000301
-12.558801 -3.533615 0.608585
-12.552025 -3.529355 0.911875
-12.542896 -3.522077 1.215510
-12.559222 -3.521929 1.525357
-12.539526 -3.514070 1.830146
-12.540145 -3.509524 2.139316
-12.525702 -3.500791 2.450229
-2.691796 -0.757356 -1.656950
-2.832862 -0.795410 -1.651900
-2.966180 -0.831766 -1.636734
-3.121430 -0.873556 -1.626220
-3.268794 -0.913050 -1.605365
-3.476756 -0.969132 -1.605929
-3.643585 -1.014426 -1.578817
-3.895887 -1.082447 -1.578013
-4.133493 -1.146241 -1.560398
-4.406883 -1.220505 -1.544333
-4.737372 -1.309434 -1.532937
-5.099061 -1.406650 -1.516062
-5.510742 -1.518304 -1.495740
-5.988414 -1.646710 -1.470983
-6.448740 -1.770031 -1.420862
-7.069201 -1.936629 -1.380458
-7.666168 -2.135218 -1.306952
-8.451859 -2.349750 -1.232417
-9.860130 -2.737594 -1.194401
-9.973435 -2.765184 -0.965162
-10.953035 -3.031588 -0.794309
-11.284238 -3.120810 -0.545632
-11.597211 -3.202717 -0.279025
-12.133694 -3.345812 0.000272
-12.593721 -3.469886 0.303520
-12.573075 -3.459500 0.608300
-12.586113 -3.458356 0.912848
-12.575023 -3.450610 1.216620
-12.586881 -3.451497 1.526281
-12.577261 -3.444155 1.832646
-12.568278 -3.436992 2.140608
-12.562664 -3.433115 2.453558
-2.699502 -0.742055 -1.658986
-2.830728 -0.776546 -1.647977
-2.969304 -0.813480 -1.635792
-3.116132 -0.852006 -1.620833
-3.291533 -0.898127 -1.613917
-3.480467 -0.948416 -1.605112
-3.626303 -0.986344 -1.568794
-3.894990 -1.057177 -1.575100
-4.141775 -1.122698 -1.561079
-4.410311 -1.193146 -1.543051
-4.739460 -1.279621 -1.531148
-5.097731 -1.374584 -1.513305
-5.512092 -1.483380 -1.493713
-5.965772 -1.603475 -1.463145
-6.464438 -1.734194 -1.422108
-7.064953 -1.891648 -1.377497
-7.690045 -2.092605 -1.308898
-8.478570 -2.304492 -1.234366
-9.849268 -2.671626 -1.191157
-10.097249 -2.734842 -0.975563
-12.095214 -3.271598 -0.875737
-11.607281 -3.135714 -0.560343
-11.716336 -3.160696 -0.281438
-11.609921 -3.129915 0.000243
-12.619797 -3.396515 0.303654
-12.604883 -3.387803 0.608854
-12.617322 -3.388779 0.913680
-12.609999 -3.382110 1.218102
-12.618566 -3.379681 1.527671
-12.602547 -3.373059 1.833476
-12.597336 -3.366961 2.142225
-12.592211 -3.360893 2.455405
-2.690362 -0.722755 -1.650822
-2.826662 -0.757788 -1.643076
-2.973871 -0.796149 -1.635788
-3.115748 -0.832470 -1.618138
-3.289606 -0.877108 -1.610491
-3.471647 -0.924411 -1.598602
-3.658635 -0.972273 -1.580353
-3.908157 -1.036412 -1.578007
-4.146292 -1.098145 -1.560393
-4.417051 -1.167527 -1.543048
-4.746679 -1.252102 -1.531146
-5.111079 -1.346466 -1.514956
-5.512985 -1.449460 -1.491687
-5.961658 -1.565462 -1.459916
-6.481814 -1.698719 -1.423771
-7.030024 -1.838884 -1.368612
-7.659937 -2.037008 -1.301767
-8.482068 -2.252929 -1.232976
-9.826002 -2.604559 -1.186522
-10.124318 -2.679539 -0.976680
0.000348 -0.010432 -0.000282
-11.522685 -3.041737 -0.555413
-11.324268 -2.985316 -0.271620
-11.807589 -3.110084 0.000247
-12.656481 -3.328208 0.304067
-12.637614 -3.318549 0.609502
-12.640397 -3.316924 0.913954
-12.638801 -3.311799 1.219026
-12.651196 -3.310327 1.529292
-12.637006 -3.304274 1.835699
-12.631712 -3.298191 2.144814
-12.618886 -3.290152 2.456881
-2.702755 -0.709189 -1.655918
-2.841034 -0.743888 -1.648950
-2.976635 -0.778353 -1.634846
-3.113502 -0.812514 -1.614545
-3.285778 -0.855678 -1.606210
-3.482181 -0.905568 -1.601039
-3.655185 -0.948690 -1.576496
-3.908569 -1.012284 -1.575822
-4.143378 -1.071710 -1.556970
-4.425472 -1.142336 -1.543686
-4.762996 -1.226906 -1.534122
-5.057226 -1.301127 -1.496765
-5.511819 -1.415114 -1.489153
-5.968606 -1.530424 -1.459455
-6.468674 -1.655390 -1.418782
-7.044240 -1.799152 -1.369352
-7.700138 -2.000091 -1.306630
-8.452639 -2.192977 -1.226856
-9.829219 -2.544788 -1.185134
-10.187696 -2.633432 -0.981326
-10.763938 -2.779806 -0.777031
-11.532175 -2.973183 -0.555045
-11.207582 -2.885628 -0.268427
-12.024776 -3.093048 0.000251
0.000357 -0.010186 -0.000276
-12.669995 -3.249043 0.610149
-12.666952 -3.245913 0.914507
-12.671114 -3.242272 1.220322
-12.677683 -3.239239 1.530217
-12.667271 -3.234239 1.837364
-12.661897 -3.228170 2.146755
-12.650907 -3.220684 2.459469
-2.705068 -0.692974 -1.654894
-2.848617 -0.728163 -1.650905
-2.987857 -0.762708 -1.638597
-3.124991 -0.796092 -1.618131
-3.283585 -0.834772 -1.602785
-3.496123 -0.887502 -1.605103
-3.681995 -0.932791 -1.585742
-3.912470 -0.989102 -1.575092
-4.156735 -1.049461 -1.559703
-4.431915 -1.116628 -1.543684
-4.758795 -1.196480 -1.530546
-5.092548 -1.278751 -1.505031
-5.501028 -1.378477 -1.484087
-5.982944 -1.497253 -1.460837
-6.468528 -1.615560 -1.416703
-7.039153 -1.754590 -1.366390
-7.680833 -1.947806 -1.301444
-8.470822 -2.145545 -1.227692
-9.824380 -2.483133 -1.182818
-10.129242 -2.556115 -0.974272
-10.849359 -2.735112 -0.782054
-11.888155 -2.991627 -0.571339
-11.481897 -2.885484 -0.274594
0.000339 -0.009955 -0.000269
-12.715167 -3.187270 0.304569
-12.703947 -3.179760 0.610890
-12.700859 -3.176639 0.915619
-12.703018 -3.172472 1.221617
-12.711486 -3.169875 1.532071
-12.691394 -3.162535 1.838194
-12.691691 -3.157905 2.148695
-12.680607 -3.150460 2.461686
-2.695583 -0.673871 -1.646730
-2.850993 -0.711105 -1.649922
-2.981860 -0.742747 -1.632960
-3.141622 -0.780853 -1.624408
-3.286521 -0.815203 -1.601926
-3.490619 -0.863927 -1.600219
-3.678288 -0.909172 -1.581885
-3.923489 -0.967680 -1.577271
-4.155509 -1.022785 -1.556965
-4.430837 -1.089083 -1.541121
-4.747007 -1.164348 -1.524588
-5.096243 -1.247403 -1.503927
-5.537020 -1.353424 -1.491683
-5.961386 -1.454199 -1.453460
-6.443729 -1.568693 -1.409219
-7.051271 -1.713063 -1.366761
-7.699533 -1.905256 -1.302742
-8.441015 -2.084671 -1.221572
-9.821087 -2.422088 -1.180734
-10.203678 -2.512285 -0.980032
-10.906032 -2.680511 -0.784986
-11.377279 -2.793811 -0.546025
-12.038217 -2.951093 -0.287481
-11.383787 -2.786987 0.000213
-12.750712 -3.118112 0.304981
-12.735547 -3.109707 0.611537
-12.729081 -3.103429 0.916311
-12.738963 -3.101132 1.223285
-12.741017 -3.099276 1.533459
-12.725249 -3.090759 1.840416
-12.717822 -3.084264 2.149987
-12.713754 -3.080935 2.464643
-2.701165 -0.658056 -1.647746
-2.848327 -0.692335 -1.646000
-2.993031 -0.726474 -1.636712
-3.154832 -0.764065 -1.628892
-3.298143 -0.797733 -1.605345
-3.493722 -0.843186 -1.599402
-3.687147 -0.887975 -1.583424
-3.919876 -0.942705 -1.573632
-4.179570 -1.002985 -1.563802
-4.431441 -1.062030 -1.539199
-4.755437 -1.137233 -1.525181
-5.116376 -1.220936 -1.507784
-5.527719 -1.317313 -1.487123
-5.973384 -1.420546 -1.454381
-6.435192 -1.528452 -1.405477
-7.062584 -1.673930 -1.367131
-7.714466 -1.860276 -1.303391
-8.458583 -2.037233 -1.222408
-9.813970 -2.358527 -1.178186
-10.169929 -2.439976 -0.975392
-10.820312 -2.593410 -0.777739
-11.807511 -2.824797 -0.565857
-11.310000 -2.704095 -0.269736
-11.372333 -2.714751 0.000207
-12.774744 -3.043645 0.305115
-12.764834 -3.038940 0.612091
-12.766090 -3.034538 0.917702
-12.763758 -3.031636 1.224023
-12.772140 -3.028921 1.535080
-12.758191 -3.020925 1.842638
-12.759739 -3.018939 2.154198
-12.742703 -3.010236 2.466860
-2.706416 -0.643135 -1.648762
-2.858902 -0.677799 -1.649914
-2.995251 -0.709124 -1.635770
-3.155517 -0.745410 -1.627094
-3.306155 -0.779338 -1.607052
-3.507214 -0.825520 -1.603467
-3.693810 -0.867588 -1.584191
-3.921530 -0.919053 -1.572174
-4.177711 -0.977715 -1.561064
-4.441124 -1.037146 -1.540477
-4.771137 -1.111769 -1.528158
-5.130556 -1.193879 -1.509987
-5.493667 -1.275695 -1.475981
-5.967891 -1.383916 -1.451153
-6.466694 -1.496434 -1.410466
-7.050984 -1.628214 -1.363059
-7.740057 -1.820593 -1.305985
-8.475547 -1.991142 -1.223244
-9.805630 -2.298549 -1.175638
-10.167797 -2.379361 -0.973910
-11.392236 -2.662680 -0.817761
-11.492235 -2.681744 -0.550036
-11.264934 -2.624744 -0.268304
-11.480791 -2.672758 0.000207
-12.805119 -2.975281 0.305435
-12.797627 -2.968843 0.612832
-12.794437 -2.965755 0.918534
-12.796475 -2.961528 1.225504
-12.802850 -2.958299 1.536702
-12.790244 -2.953049 1.844860
-12.784544 -2.947039 2.155489
-12.776997 -2.940615 2.470188
-2.708341 -0.626937 -1.647738
-2.871195 -0.663037 -1.654809
-2.997530 -0.691266 -1.634827
-3.152734 -0.725428 -1.623501
-3.294656 -0.756467 -1.599349
-3.512000 -0.804486 -1.603463
-3.693277 -0.844865 -1.581876
-3.917643 -0.894206 -1.568534
-4.179718 -0.951880 -1.559694
-4.454362 -1.013014 -1.543035
-4.768093 -1.081979 -1.525178
-5.120618 -1.159431 -1.505025
-5.506543 -1.245120 -1.477499
-5.994943 -1.352555 -1.455762
-6.473486 -1.457422 -1.410050
-7.043185 -1.582305 -1.359728
-7.736878 -1.772737 -1.303717
-8.462045 -1.934934 -1.219629
-9.793451 -2.236152 -1.172627
-10.198767 -2.324587 -0.975585
-10.512706 -2.392004 -0.753624
-11.470396 -2.606981 -0.548272
-11.112092 -2.521763 -0.264322
-11.640723 -2.637023 0.000208
-12.839538 -2.905315 0.305848
-12.830048 -2.898470 0.613572
-12.831209 -2.894029 0.919924
-12.827338 -2.888455 1.226799
-12.837055 -2.888294 1.538787
-12.811323 -2.877826 1.845411
-12.815230 -2.874011 2.157754
-12.805173 -2.869421 2.472404
-2.698533 -0.607662 -1.639573
-2.871613 -0.645017 -1.652846
-3.004978 -0.674020 -1.636702
-3.153448 -0.705730 -1.621703
-3.309628 -0.739032 -1.604479
-3.514860 -0.783023 -1.602647
-3.692780 -0.821544 -1.579561
-3.922812 -0.870731 -1.568532
-4.179747 -0.925658 -1.557639
-4.449141 -0.983934 -1.539192
-4.740812 -1.046127 -1.514453
-5.138621 -1.131292 -1.508330
-5.527008 -1.215118 -1.481043
-6.000886 -1.316344 -1.455301
-6.474311 -1.417133 -1.408386
-7.040869 -1.537801 -1.357506
-7.772257 -1.732180 -1.307932
-8.482987 -1.886661 -1.221022
-9.790972 -2.174415 -1.170774
-10.188971 -2.258718 -0.973359
-12.664002 -2.800610 -0.906592
-12.195807 -2.695172 -0.582162
-11.409939 -2.517894 -0.271047
-12.419912 -2.735445 0.000232
-12.864289 -2.830654 0.306029
-12.864500 -2.825993 0.614405
-12.859788 -2.820266 0.920756
-12.861706 -2.815983 1.228467
-12.863605 -2.814052 1.539943
-12.845539 -2.805419 1.847911
-12.845475 -2.800708 2.160018
0.000304 -0.008770 -0.000238
-2.733774 -0.599260 -1.658952
-2.859781 -0.625441 -1.644026
-3.005191 -0.656264 -1.634820
-3.166020 -0.689766 -1.626186
-3.308345 -0.719178 -1.601909
-3.511990 -0.761640 -1.599390
-3.695453 -0.800309 -1.578787
-3.925745 -0.848212 -1.567802
-4.188469 -0.902874 -1.559005
-4.434124 -0.954513 -1.532148
-4.774529 -1.025391 -1.523387
-5.101539 -1.093173 -1.495651
-5.556370 -1.188861 -1.487119
-6.019534 -1.285052 -1.458066
-6.485895 -1.381574 -1.409218
-7.056996 -1.499904 -1.358987
-7.787517 -1.689807 -1.308906
-8.483662 -1.837003 -1.219632
-9.779590 -2.114514 -1.167995
-10.193570 -2.199944 -0.972620
-10.478968 -2.257477 -0.749309
-11.509316 -2.476502 -0.548746
-11.457008 -2.461105 -0.271839
-11.372928 -2.438958 0.000188
-12.766424 -2.734419 0.303326
-12.893706 -2.756890 0.615052
-12.894773 -2.752410 0.922145
-12.894704 -2.747702 1.230133
-12.898492 -2.746159 1.542261
-12.876440 -2.736784 1.850132
0.000284 -0.008535 -0.000231
-17.129232 -3.628482 3.299070
-2.749029 -0.585291 -1.666089
-2.863412 -0.608256 -1.644022
-3.008971 -0.638200 -1.634817
-3.129781 -0.662355 -1.605544
-3.310756 -0.698966 -1.601050
-3.521640 -0.742313 -1.601827
-3.703695 -0.778907 -1.580326
-3.934315 -0.825459 -1.569254
-4.191700 -0.878145 -1.558318
-4.445242 -0.929146 -1.534066
-4.784211 -0.997613 -1.524576
-5.103932 -1.062798 -1.494548
-5.551890 -1.153326 -1.484079
-6.005813 -1.245852 -1.452994
-6.509039 -1.347174 -1.412543
-7.050066 -1.455897 -1.356026
-7.764529 -1.636518 -1.303395
-8.494038 -1.787941 -1.219634
-9.772464 -2.052227 -1.165679
-10.220035 -2.142117 -0.973923
-10.601100 -2.219744 -0.757121
0.000294 -0.008289 -0.000225
-11.496793 -2.398223 -0.272447
0.000294 -0.008289 -0.000225
-12.320300 -2.562683 0.292348
-12.925430 -2.683442 0.615792
-12.926000 -2.681213 0.923256
-12.916089 -2.674458 1.230685
-12.924222 -2.671445 1.543417
0.000294 -0.008289 -0.000225
0.000294 -0.008289 -0.000225
-17.175407 -3.531803 3.303874
-2.728722 -0.564429 -1.651803
-2.861682 -0.590490 -1.641079
-3.002164 -0.618535 -1.629180
-3.138731 -0.645162 -1.608233
-3.328715 -0.683118 -1.607892
-3.525804 -0.721807 -1.601824
-3.706247 -0.756984 -1.579553
-3.931509 -0.801792 -1.566341
-4.196642 -0.853787 -1.558316
-4.465181 -0.907100 -1.539185
-4.804643 -0.973694 -1.529340
-5.109933 -1.033197 -1.494546
-5.571489 -1.124779 -1.487623
-6.016637 -1.211809 -1.453915
-6.489537 -1.305241 -1.406723
-7.046452 -1.414003 -1.353805
-7.791183 -1.595147 -1.306314
-8.500264 -1.738036 -1.219079
-9.762669 -1.991410 -1.163131
-10.259457 -2.088601 -0.976527
-10.472865 -2.129983 -0.747085
-11.774298 -2.389383 -0.560021
-11.529538 -2.337787 -0.272915
-11.764795 -2.381057 0.000192
0.000276 -0.008058 -0.000218
-12.957789 -2.614630 0.616625
-12.950938 -2.608550 0.923948
-12.952241 -2.606460 1.232723
-12.987569 -2.608839 1.549220
0.000276 -0.008058 -0.000218
0.000276 -0.008058 -0.000218
-17.214096 -3.439581 3.307569
-2.738534 -0.550301 -1.655880
-2.868330 -0.574971 -1.643035
-3.014204 -0.603264 -1.633871
-3.158037 -0.630528 -1.616305
-3.329013 -0.663034 -1.606177
-3.511919 -0.697754 -1.593687
-3.713999 -0.736780 -1.581091
-3.943335 -0.780366 -1.569248
-4.201458 -0.829408 -1.558313
-4.481418 -0.883334 -1.543024
-4.798880 -0.943617 -1.525764
-5.108185 -1.002077 -1.492340
-5.568324 -1.090631 -1.485090
-6.015837 -1.175471 -1.452070
-6.483678 -1.263927 -1.403812
-7.050823 -1.371249 -1.353065
-7.782495 -1.547987 -1.303397
-8.500367 -1.686968 -1.217689
-9.757983 -1.933619 -1.161279
-10.202532 -2.017653 -0.970030
0.000258 -0.007826 -0.000212
-11.446306 -2.256445 -0.543826
-11.442699 -2.251589 -0.270555
-12.316058 -2.418377 0.000205
-12.997988 -2.549493 0.307725
-12.986276 -2.542496 0.617271
-12.981363 -2.536843 0.925059
-12.981126 -2.532098 1.234018
0.000258 -0.007826 -0.000212
0.000258 -0.007826 -0.000212
-17.255747 -3.347689 2.888063
-17.258625 -3.345126 3.312373
-2.746775 -0.534798 -1.658936
-2.871647 -0.557726 -1.643031
-3.014224 -0.584495 -1.631989
-3.161670 -0.611562 -1.616302
-3.350594 -0.646441 -1.614730
-3.517640 -0.677654 -1.594498
-3.720083 -0.714871 -1.581859
-3.942341 -0.755698 -1.567064
-4.196887 -0.803243 -1.554891
-4.484680 -0.856179 -1.542382
-4.811863 -0.916350 -1.528145
-5.138386 -0.977080 -1.499504
-5.563227 -1.055225 -1.482051
-6.024374 -1.140979 -1.452531
-6.479263 -1.224211 -1.401318
-7.068194 -1.332238 -1.354917
-7.781801 -1.499749 -1.301778
-8.500166 -1.635955 -1.216299
-9.755584 -1.872919 -1.159658
-10.576130 -2.025976 -1.004392
-10.833673 -2.073169 -0.771077
-11.604662 -2.215973 -0.550720
0.000267 -0.007580 -0.000205
-12.695186 -2.416612 0.000211
-13.034448 -2.476285 0.308230
-13.020720 -2.468980 0.618198
-13.013352 -2.465241 0.926309
-13.003248 -2.458627 1.234755
-17.321684 -3.266358 2.061574
-17.297800 -3.258741 2.474025
