# This PCD file was generated using the MATLAB® pcwrite function
# from Computer Vision Toolbox®.
# .PCD v.7 - Point Cloud Data file format
VERSION .7
FIELDS x y z
SIZE 4 4 4
TYPE F F F
COUNT 1 1 1
WIDTH 1616
HEIGHT 1
VIEWPOINT 0 0 0 1 0 0 0
POINTS 1616
DATA ascii
5.163366 -4.494176 -1.946547
5.648352 -4.910575 -1.944689
6.234408 -5.411904 -1.943149
6.961663 -6.036083 -1.947159
7.927791 -6.865055 -1.966131
9.379268 -8.036527 -2.021186
10.259020 -8.784317 -1.891650
10.712736 -9.174975 -1.642021
10.746314 -9.209917 -1.317033
30.446657 -25.924538 -2.794620
29.813217 -25.405212 -1.826518
41.035091 -34.956085 -1.253055
41.084179 -35.010307 -0.003063
41.117199 -35.063274 1.249993
41.185478 -35.146275 2.518772
0.002256 -0.099274 -0.002707
0.002256 -0.099274 -0.002707
0.002256 -0.099274 -0.002707
0.002256 -0.099274 -0.002707
0.002256 -0.099274 -0.002707
42.913685 -36.747482 10.629080
0.457041 -0.488325 -0.357729
0.467052 -0.497184 -0.346572
0.475610 -0.504645 -0.334152
2.873258 -2.561012 -1.901604
2.943483 -2.623022 -1.837267
2.957907 -2.636323 -1.737052
3.164553 -2.815629 -1.744070
3.408327 -3.027157 -1.756680
3.657202 -3.242228 -1.757297
3.997643 -3.537421 -1.783868
4.345157 -3.839167 -1.791180
5.149660 -4.533588 -1.950953
5.622035 -4.944007 -1.945191
6.202282 -5.446152 -1.942683
6.924440 -6.073221 -1.946323
7.891702 -6.912874 -1.966867
9.348427 -8.102943 -2.024424
10.226933 -8.858403 -1.894987
10.685973 -9.258187 -1.645961
10.717900 -9.292086 -1.320002
30.474726 -26.251032 -2.810946
29.883869 -25.762188 -1.839844
0.002268 -0.099030 -0.002701
0.002268 -0.099030 -0.002701
40.918400 -35.301590 1.250082
41.008911 -35.404537 2.520352
0.002268 -0.099030 -0.002701
0.002268 -0.099030 -0.002701
0.002268 -0.099030 -0.002701
0.002268 -0.099030 -0.002701
0.002268 -0.099030 -0.002701
42.580193 -36.888126 10.598712
0.448283 -0.485069 -0.352622
0.463439 -0.498470 -0.345586
0.487943 -0.519848 -0.344474
2.856338 -2.574911 -1.899803
2.941209 -2.650323 -1.844962
2.958454 -2.666216 -1.745995
3.158622 -2.842012 -1.749460
3.384416 -3.040342 -1.753038
3.643324 -3.266657 -1.759344
3.967777 -3.551410 -1.779381
4.332196 -3.871382 -1.794749
5.122588 -4.561636 -1.950396
5.599905 -4.981101 -1.947212
6.169929 -5.480223 -1.942217
6.895830 -6.117864 -1.947982
7.853856 -6.959199 -1.967234
9.302240 -8.156332 -2.024420
10.182348 -8.922034 -1.896097
10.747167 -9.418174 -1.663587
10.688890 -9.374228 -1.322971
29.844721 -26.009695 -2.766578
29.673910 -25.879696 -1.836024
0.002253 -0.098800 -0.002694
0.002253 -0.098800 -0.002694
0.002253 -0.098800 -0.002694
43.325462 -37.834915 2.676193
0.002253 -0.098800 -0.002694
0.002253 -0.098800 -0.002694
0.002253 -0.098800 -0.002694
0.002253 -0.098800 -0.002694
0.002253 -0.098800 -0.002694
42.259850 -37.037781 10.571676
0.446047 -0.487395 -0.352616
0.458490 -0.498589 -0.343620
0.490798 -0.527068 -0.348224
2.844736 -2.593406 -1.901593
2.940050 -2.678885 -1.853514
2.951843 -2.690190 -1.750870
3.151096 -2.867202 -1.754080
3.361829 -3.054595 -1.750122
3.622211 -3.284833 -1.757970
3.944999 -3.571424 -1.778095
4.291796 -3.879581 -1.786999
5.098287 -4.592045 -1.950943
5.577525 -5.018107 -1.949234
6.146160 -5.521819 -1.944518
6.868421 -6.163656 -1.950056
7.812767 -7.002723 -1.966859
9.249777 -8.204268 -2.023119
10.159705 -9.005028 -1.901381
10.618710 -9.414088 -1.651985
10.653302 -9.451086 -1.325197
18.679293 -16.504419 -1.741195
29.606134 -26.120945 -1.841057
40.131672 -35.398140 -1.243919
40.134743 -35.413445 -0.003070
40.155048 -35.456352 1.239076
40.235764 -35.552547 2.497709
0.002237 -0.098569 -0.002688
0.002237 -0.098569 -0.002688
0.002237 -0.098569 -0.002688
0.002237 -0.098569 -0.002688
44.766758 -39.657505 9.811648
41.945061 -37.190189 10.546123
0.447668 -0.493124 -0.355670
0.460104 -0.504435 -0.346553
0.490957 -0.531983 -0.350095
2.823663 -2.603540 -1.897101
2.935969 -2.705110 -1.860353
2.950092 -2.719525 -1.759000
3.124064 -2.875230 -1.747908
3.355903 -3.083543 -1.755937
3.615869 -3.317257 -1.764121
3.916475 -3.586244 -1.774248
4.279950 -3.912849 -1.791165
5.077284 -4.627061 -1.953143
5.557776 -5.057599 -1.952268
6.116801 -5.560500 -1.945436
6.842550 -6.213141 -1.952963
7.773166 -7.049973 -1.967225
9.208914 -8.262323 -2.024413
10.117111 -9.074037 -1.903327
10.594662 -9.501142 -1.656621
10.627604 -9.537094 -1.328724
18.571291 -16.605314 -1.740217
29.572386 -26.394142 -1.848326
0.002249 -0.098325 -0.002682
0.002249 -0.098325 -0.002682
0.002249 -0.098325 -0.002682
43.267212 -38.668064 2.699845
0.002249 -0.098325 -0.002682
0.002249 -0.098325 -0.002682
0.002249 -0.098325 -0.002682
0.002249 -0.098325 -0.002682
44.499134 -39.892956 9.804509
41.628437 -37.338902 10.520199
0.441455 -0.492084 -0.352603
0.449890 -0.499921 -0.340669
0.496268 -0.541709 -0.355723
2.811414 -2.622376 -1.898890
2.935688 -2.735010 -1.869760
2.936316 -2.737427 -1.759808
3.095200 -2.882336 -1.740964
3.333129 -3.097565 -1.753022
3.591705 -3.332721 -1.761380
3.894925 -3.607201 -1.773603
4.265022 -3.943552 -1.794138
5.048296 -4.653364 -1.952035
5.530588 -5.090535 -1.952769
6.089603 -5.599261 -1.946814
6.815585 -6.257526 -1.955037
7.737189 -7.095605 -1.967961
9.163283 -8.319157 -2.025057
10.087419 -9.151680 -1.907499
10.563853 -9.586096 -1.660561
10.595162 -9.620973 -1.331693
18.508648 -16.740978 -1.743285
29.515499 -26.658249 -1.854571
0.002234 -0.098094 -0.002676
0.002234 -0.098094 -0.002676
39.697754 -35.884953 1.237769
39.746544 -35.941711 2.492765
0.002234 -0.098094 -0.002676
0.002234 -0.098094 -0.002676
0.002234 -0.098094 -0.002676
0.002234 -0.098094 -0.002676
44.267689 -40.132359 9.802560
41.327545 -37.499691 10.498347
0.431614 -0.487352 -0.346476
0.456660 -0.510389 -0.347520
0.493784 -0.544221 -0.355717
2.795938 -2.636579 -1.897986
2.928971 -2.758384 -1.874889
2.945850 -2.775658 -1.774444
3.083724 -2.903030 -1.743272
3.309447 -3.109592 -1.749379
3.580562 -3.358780 -1.764795
3.889279 -3.641394 -1.780000
4.246303 -3.969615 -1.795324
5.021379 -4.679911 -1.951479
5.506933 -5.124974 -1.954284
6.064584 -5.638138 -1.948654
6.784010 -6.297835 -1.955864
7.699485 -7.139732 -1.968327
9.115815 -8.368568 -2.024729
10.064602 -9.232862 -1.912783
10.591622 -9.718096 -1.673315
10.528627 -9.667613 -1.330017
18.450949 -16.875927 -1.746632
29.349127 -26.806101 -1.853452
0.002219 -0.097864 -0.002669
0.002219 -0.097864 -0.002669
39.447250 -36.059795 1.236189
0.002219 -0.097864 -0.002669
0.002219 -0.097864 -0.002669
0.002219 -0.097864 -0.002669
0.002219 -0.097864 -0.002669
0.002219 -0.097864 -0.002669
43.982494 -40.322479 9.788939
41.035629 -37.653751 10.477240
0.435691 -0.495392 -0.351571
0.451717 -0.510389 -0.345555
0.489884 -0.545615 -0.354772
2.781294 -2.652362 -1.897981
0.002229 -0.097615 -0.002663
2.940689 -2.802708 -1.780947
3.056665 -2.910471 -1.737099
3.294280 -3.131423 -1.750828
3.574976 -3.392433 -1.771630
3.864013 -3.660283 -1.778074
4.213471 -3.985390 -1.791149
5.004018 -4.718467 -1.955333
5.481287 -5.161217 -1.955798
6.040188 -5.681669 -1.951416
6.747487 -6.340188 -1.956276
7.666441 -7.195685 -1.970914
9.073890 -8.425958 -2.026021
10.033613 -9.313537 -1.917233
10.500999 -9.746350 -1.667744
10.492435 -9.745300 -1.332429
29.452431 -27.201599 -2.801744
29.280256 -27.052711 -1.858857
38.997082 -36.023956 -1.234086
39.011143 -36.062267 -0.003081
0.002229 -0.097615 -0.002663
0.002229 -0.097615 -0.002663
0.002229 -0.097615 -0.002663
0.002229 -0.097615 -0.002663
0.002229 -0.097615 -0.002663
0.002229 -0.097615 -0.002663
43.646458 -40.506710 9.768831
40.735889 -37.825272 10.457610
0.430809 -0.495373 -0.349525
0.453092 -0.516370 -0.348488
0.491092 -0.551871 -0.357582
2.764776 -2.667341 -1.897078
0.002214 -0.097385 -0.002657
0.002214 -0.097385 -0.002657
3.039914 -2.928299 -1.737093
3.275393 -3.148811 -1.750095
3.558709 -3.415260 -1.772993
3.847613 -3.686077 -1.779989
4.185447 -4.004104 -1.788761
4.977326 -4.746940 -1.955327
5.457714 -5.197702 -1.957819
6.007964 -5.716074 -1.951411
6.718262 -6.382830 -1.957934
7.622442 -7.234050 -1.969800
9.030161 -8.484712 -2.027315
9.997829 -9.387038 -1.920569
10.375237 -9.744596 -1.656838
10.440901 -9.812493 -1.333168
29.323759 -27.396162 -2.804396
29.220835 -27.319504 -1.865288
0.002214 -0.097385 -0.002657
0.002214 -0.097385 -0.002657
39.123951 -36.610325 1.239337
0.002214 -0.097385 -0.002657
0.002214 -0.097385 -0.002657
0.002214 -0.097385 -0.002657
0.002214 -0.097385 -0.002657
0.002214 -0.097385 -0.002657
43.316650 -40.652180 9.745484
40.440716 -37.986183 10.437611
0.433580 -0.502240 -0.353599
0.448196 -0.516258 -0.346522
0.491137 -0.556763 -0.359455
2.753012 -2.684918 -1.898867
2.916343 -2.840507 -1.897120
0.002199 -0.097155 -0.002650
3.016029 -2.937362 -1.732463
3.255077 -3.164794 -1.748635
3.536817 -3.432853 -1.771619
3.811755 -3.693589 -1.772941
4.179533 -4.043612 -1.795904
4.954682 -4.779209 -1.956976
5.433912 -5.234077 -1.959840
5.984009 -5.758325 -1.954173
6.680881 -6.422293 -1.957930
7.585688 -7.284273 -1.971276
8.990408 -8.541465 -2.028932
9.965878 -9.464491 -1.924741
10.312572 -9.793908 -1.655442
10.486590 -9.964509 -1.345984
29.234480 -27.628445 -2.810954
29.084513 -27.496904 -1.866313
0.002199 -0.097155 -0.002650
41.588612 -39.332821 -0.003121
0.002199 -0.097155 -0.002650
40.315777 -38.172253 2.582829
0.002199 -0.097155 -0.002650
0.002199 -0.097155 -0.002650
0.002199 -0.097155 -0.002650
0.002199 -0.097155 -0.002650
43.041122 -40.875389 9.737698
40.157902 -38.157101 10.420944
0.428677 -0.502180 -0.351553
0.438107 -0.511453 -0.340638
0.488386 -0.559424 -0.359448
2.737603 -2.700950 -1.898862
2.915729 -2.872459 -1.907382
2.917346 -2.875005 -1.795573
3.000476 -2.956211 -1.733228
3.234128 -3.181215 -1.747174
3.522998 -3.458086 -1.774350
3.799933 -3.725044 -1.777417
4.157448 -4.069382 -1.796495
4.933236 -4.812692 -1.959177
5.406166 -5.268618 -1.960849
5.955555 -5.796444 -1.955552
6.648624 -6.464428 -1.959173
7.549901 -7.332975 -1.972753
8.943052 -8.597077 -2.029576
0.002210 -0.096909 -0.002644
10.406002 -9.998411 -1.679795
10.446670 -10.044091 -1.348397
29.051062 -27.772518 -2.808583
28.970743 -27.715445 -1.869483
0.002210 -0.096909 -0.002644
0.002210 -0.096909 -0.002644
38.315197 -36.688820 1.226941
38.333164 -36.731766 2.469555
0.002210 -0.096909 -0.002644
0.002210 -0.096909 -0.002644
0.002210 -0.096909 -0.002644
0.002210 -0.096909 -0.002644
0.002210 -0.096909 -0.002644
39.867760 -38.332989 10.404278
0.421363 -0.499629 -0.347465
0.439500 -0.517335 -0.343571
0.479357 -0.555851 -0.354747
2.721305 -2.715155 -1.897959
2.908012 -2.895956 -1.912511
2.915799 -2.905433 -1.804516
2.986629 -2.975739 -1.734764
3.239641 -3.220962 -1.759536
3.513053 -3.487192 -1.779133
3.771464 -3.738032 -1.773570
4.129730 -4.086955 -1.794106
4.908782 -4.843421 -1.960274
5.381394 -5.302485 -1.962363
5.926858 -5.834423 -1.956931
6.618615 -6.506612 -1.960831
7.509409 -7.374732 -1.972748
8.898273 -8.652235 -2.030545
9.887393 -9.606876 -1.930579
10.397533 -10.104698 -1.687679
10.410771 -10.124505 -1.351180
28.902851 -27.950012 -2.809700
28.825781 -27.895254 -1.870416
37.904003 -36.663605 -1.225832
37.940193 -36.724304 -0.003090
37.968884 -36.777786 1.222577
0.002195 -0.096679 -0.002638
0.002195 -0.096679 -0.002638
0.002195 -0.096679 -0.002638
0.002195 -0.096679 -0.002638
0.002195 -0.096679 -0.002638
0.002195 -0.096679 -0.002638
39.597412 -38.499802 10.389464
0.417862 -0.500530 -0.346439
0.434643 -0.517100 -0.341606
0.477965 -0.559586 -0.355680
2.711761 -2.735042 -1.901543
2.897026 -2.917440 -1.915928
2.916576 -2.938502 -1.815086
2.958105 -2.981033 -1.727821
3.197619 -3.215870 -1.746436
3.485430 -3.499213 -1.775023
3.748454 -3.758751 -1.772925
4.108728 -4.113786 -1.795293
4.886863 -4.876720 -1.962474
5.354574 -5.338109 -1.963878
5.898310 -5.874645 -1.958770
6.582159 -6.549374 -1.961658
7.471739 -7.424375 -1.974225
8.854642 -8.705623 -2.031513
9.849557 -9.679919 -1.933915
10.341535 -10.162295 -1.687674
10.384637 -10.211345 -1.355078
17.733593 -17.383120 -1.734481
28.782618 -28.174784 -1.878057
0.002180 -0.096449 -0.002632
0.002180 -0.096449 -0.002632
0.002180 -0.096449 -0.002632
38.947510 -38.185410 2.537269
0.002180 -0.096449 -0.002632
0.002180 -0.096449 -0.002632
0.002180 -0.096449 -0.002632
0.002180 -0.096449 -0.002632
0.002180 -0.096449 -0.002632
39.317196 -38.682640 10.375758
0.422754 -0.510055 -0.352554
0.433296 -0.520723 -0.342579
0.467642 -0.554734 -0.350040
2.694326 -2.750039 -1.900640
2.877684 -2.931770 -1.914211
2.913972 -2.969610 -1.824028
2.940947 -2.998270 -1.727815
3.189687 -3.244984 -1.752250
3.473217 -3.527488 -1.779122
3.739449 -3.791992 -1.778682
4.084198 -4.135757 -1.794692
4.863917 -4.910757 -1.964674
5.329817 -5.374027 -1.965899
5.869095 -5.912352 -1.960149
6.554388 -6.594007 -1.964148
7.435049 -7.472519 -1.975702
8.800529 -8.757861 -2.031185
9.823608 -9.768463 -1.940036
10.306804 -10.251453 -1.692079
10.353889 -10.305046 -1.359162
17.663490 -17.519897 -1.737688
29.047892 -28.771322 -1.906386
31.100904 -30.809025 -1.017790
28.956184 -28.711016 -0.002989
0.002192 -0.096205 -0.002626
39.643803 -39.314854 2.597347
0.002192 -0.096205 -0.002626
0.002192 -0.096205 -0.002626
0.002192 -0.096205 -0.002626
0.002192 -0.096205 -0.002626
0.002192 -0.096205 -0.002626
39.033215 -38.846996 10.359463
0.419214 -0.510945 -0.351528
0.432142 -0.524122 -0.343553
0.472593 -0.564560 -0.355668
2.688343 -2.773608 -1.906916
2.863879 -2.950581 -1.915917
2.907749 -2.996396 -1.830531
2.928642 -3.018284 -1.730123
3.168875 -3.260402 -1.750790
3.430815 -3.524575 -1.767488
3.720780 -3.815884 -1.779957
4.068978 -4.167044 -1.798261
4.841554 -4.943858 -1.966874
5.302101 -5.407088 -1.966907
5.845169 -5.955408 -1.963372
6.511613 -6.628335 -1.962896
7.393950 -7.519001 -1.976439
8.763269 -8.817700 -2.033775
9.788852 -9.845530 -1.944207
10.278133 -10.336583 -1.696714
10.319343 -10.384891 -1.362130
17.615208 -17.673120 -1.742849
25.390993 -25.442053 -1.675940
30.772352 -30.835974 -1.012822
28.711882 -28.797684 -0.002988
0.002176 -0.095973 -0.002619
29.421066 -29.537767 1.937945
0.002176 -0.095973 -0.002619
0.002176 -0.095973 -0.002619
0.002176 -0.095973 -0.002619
0.002176 -0.095973 -0.002619
0.002176 -0.095973 -0.002619
38.772202 -39.033043 10.349463
0.417949 -0.514397 -0.352542
0.423440 -0.520245 -0.338648
0.459852 -0.557074 -0.348150
2.671167 -2.787974 -1.906013
2.844356 -2.964691 -1.914200
2.901300 -3.023210 -1.837033
2.906074 -3.030094 -1.727034
3.163151 -3.292130 -1.758059
3.411015 -3.544015 -1.767482
3.689358 -3.828178 -1.775470
4.036722 -4.182690 -1.794681
4.817650 -4.975478 -1.968523
5.275945 -5.443688 -1.968928
5.812728 -5.990073 -1.963828
6.489015 -6.680774 -1.967466
7.363542 -7.573763 -1.979767
8.708635 -8.866439 -2.033123
9.752136 -9.921109 -1.948101
10.299759 -10.480307 -1.710397
10.284796 -10.472506 -1.365657
28.284431 -28.647030 -2.813190
28.468695 -28.853233 -1.889987
30.434933 -30.861219 -1.007715
28.340981 -28.754498 -0.002986
28.730831 -29.169197 0.945957
28.934404 -29.395798 1.917265
0.002161 -0.095743 -0.002613
0.002161 -0.095743 -0.002613
0.002161 -0.095743 -0.002613
0.002161 -0.095743 -0.002613
0.002161 -0.095743 -0.002613
38.496613 -39.217094 10.337609
0.410701 -0.511640 -0.348455
0.427117 -0.528634 -0.343541
0.458418 -0.560728 -0.349083
2.655613 -2.803055 -1.906007
2.825768 -2.977684 -1.912483
2.899725 -3.055280 -1.846790
2.895592 -3.053111 -1.730882
3.146554 -3.310817 -1.758781
3.396369 -3.568708 -1.770213
3.669783 -3.849817 -1.776105
4.013849 -4.204899 -1.794676
4.793521 -5.006991 -1.970172
5.248745 -5.475549 -1.969936
5.775984 -6.020388 -1.962901
6.445357 -6.709611 -1.965382
7.328540 -7.621530 -1.981614
8.673223 -8.931645 -2.036685
9.728724 -10.010736 -1.954777
10.209249 -10.507929 -1.705289
10.250015 -10.556853 -1.368998
28.070858 -28.759130 -2.808307
28.432718 -29.149075 -1.898653
30.314585 -31.083138 -1.009434
28.062397 -28.800968 -0.002985
28.511415 -29.280819 0.944240
0.002173 -0.095499 -0.002607
0.002173 -0.095499 -0.002607
17.113640 -17.637514 2.283416
17.259617 -17.799585 2.888380
17.241999 -17.793957 3.469525
17.139421 -17.694921 4.032986
38.244900 -39.397167 10.328721
0.410780 -0.516138 -0.350489
0.419810 -0.525769 -0.339615
0.458264 -0.565568 -0.350955
2.651673 -2.829124 -1.914078
2.811632 -2.996250 -1.914189
2.895355 -3.084793 -1.854919
2.889287 -3.079592 -1.737043
3.134470 -3.335316 -1.762413
3.390692 -3.602808 -1.777732
3.646802 -3.869255 -1.775459
3.991477 -4.229041 -1.795267
4.765172 -5.034242 -1.970167
5.217690 -5.505413 -1.969931
5.744503 -6.056070 -1.963818
6.407381 -6.748863 -1.965793
7.287890 -7.668832 -1.982720
8.621041 -8.976809 -2.036032
9.688061 -10.083352 -1.958113
10.181447 -10.595835 -1.710389
10.219216 -10.642220 -1.372710
27.890228 -28.904119 -2.806772
28.322996 -29.361542 -1.902194
42.028042 -43.554638 -1.406781
27.654980 -28.711424 -0.002982
28.021692 -29.101219 0.933336
28.669914 -29.793146 1.921922
16.795717 -17.504509 1.688620
0.002158 -0.095269 -0.002601
0.002158 -0.095269 -0.002601
0.002158 -0.095269 -0.002601
0.002158 -0.095269 -0.002601
16.770836 -17.527805 4.554496
0.404689 -0.514598 -0.347423
0.422070 -0.533038 -0.343528
0.446920 -0.559096 -0.344376
0.478122 -0.592009 -0.348096
2.794400 -3.012607 -1.914183
2.891484 -3.116171 -1.863862
2.884297 -3.109753 -1.744746
3.126802 -3.365704 -1.768955
3.371138 -3.623953 -1.778411
3.619143 -3.885066 -1.772893
3.969520 -4.255147 -1.796453
4.710595 -5.035716 -1.959687
5.200206 -5.551405 -1.975498
5.707733 -6.088351 -1.963353
6.373232 -6.792139 -1.967452
7.249643 -7.718766 -1.984568
8.573700 -9.033203 -2.037325
9.656084 -10.168954 -1.963677
10.146500 -10.684443 -1.715025
10.190929 -10.738326 -1.377351
16.307869 -17.140135 -1.652284
16.320028 -17.158876 -1.103869
16.332888 -17.184341 -0.551620
16.349232 -17.213501 -0.002825
16.359747 -17.230589 0.547177
16.380384 -17.264261 1.103715
16.389376 -17.285801 1.657934
16.403162 -17.312368 2.215616
16.437927 -17.354998 2.784322
16.441545 -17.370960 3.348736
16.450882 -17.392941 3.918863
16.476276 -17.425798 4.502288
0.404631 -0.519163 -0.349457
0.415959 -0.531398 -0.340583
0.449098 -0.566534 -0.348126
0.487529 -0.607482 -0.357064
2.776314 -3.027071 -1.913321
2.892149 -3.150587 -1.875245
2.877035 -3.136778 -1.750908
3.119449 -3.395571 -1.775497
3.350097 -3.641088 -1.777721
3.595969 -3.904196 -1.772247
3.944212 -4.276269 -1.795851
4.555068 -4.925942 -1.906206
5.168726 -5.580976 -1.975493
5.679536 -6.125515 -1.965192
6.335756 -6.827339 -1.967447
7.207011 -7.758827 -1.984563
8.524859 -9.084983 -2.037969
9.628344 -10.252594 -1.969518
10.144127 -10.804413 -1.724995
10.156913 -10.825443 -1.381063
16.198837 -17.216080 -1.650886
16.229822 -17.260937 -1.104425
16.245283 -17.289396 -0.551989
16.268602 -17.320168 -0.002822
0.002152 -0.094790 -0.002588
18.227661 -19.421917 1.235987
18.114740 -19.309015 1.843602
0.002152 -0.094790 -0.002588
0.002152 -0.094790 -0.002588
0.002152 -0.094790 -0.002588
0.002152 -0.094790 -0.002588
37.477261 -39.975483 10.307608
0.397459 -0.516221 -0.345369
0.415798 -0.536092 -0.342536
0.447577 -0.570151 -0.349058
0.491906 -0.617854 -0.362443
2.759386 -3.042751 -1.913316
2.889487 -3.182944 -1.885001
2.872097 -3.166507 -1.758611
3.102947 -3.415937 -1.776947
3.330918 -3.661427 -1.778399
3.580458 -3.931496 -1.775443
3.914887 -4.293051 -1.793463
4.204821 -4.605774 -1.770583
5.139721 -5.613196 -1.976501
5.658007 -6.172083 -1.969798
6.299603 -6.866280 -1.968274
7.160114 -7.797038 -1.983818
8.478385 -9.139391 -2.039262
9.594112 -10.333584 -1.974525
10.087791 -10.868137 -1.725919
10.118145 -10.908164 -1.384218
27.356197 -29.345409 -2.803424
28.111334 -30.174103 -1.922882
0.002137 -0.094560 -0.002582
27.248444 -29.281614 -0.002983
18.219629 -19.623432 0.617202
17.342386 -18.696167 1.183082
17.438080 -18.805452 1.785575
16.662998 -17.986280 2.278038
16.946009 -18.303034 2.905810
0.002137 -0.094560 -0.002582
0.002137 -0.094560 -0.002582
37.219128 -40.159924 10.299829
0.405550 -0.529606 -0.354545
0.416820 -0.542056 -0.345469
0.440028 -0.567287 -0.345296
0.492526 -0.624362 -0.365129
2.741153 -3.056996 -1.912455
2.886550 -3.215368 -1.894758
2.866880 -3.196294 -1.766314
3.087574 -3.437590 -1.779124
3.306526 -3.676133 -1.776342
3.555740 -3.948999 -1.774157
3.894526 -4.319478 -1.795245
4.189216 -4.640952 -1.774988
5.109200 -5.643847 -1.977002
5.626901 -6.208577 -1.971177
6.267137 -6.909372 -1.970348
7.115675 -7.837855 -1.983813
8.423547 -9.184859 -2.038609
9.563309 -10.418875 -1.980366
10.045877 -10.947612 -1.729395
10.086841 -10.999582 -1.388487
27.195591 -29.510841 -2.804261
28.081528 -30.490633 -1.932760
0.002148 -0.094314 -0.002576
28.131247 -30.576738 -0.002999
17.741003 -19.330803 0.604676
17.189054 -18.745422 1.179917
17.259874 -18.828896 1.778324
16.609686 -18.135805 2.284914
17.150272 -18.736235 2.959237
16.704391 -18.257938 3.465084
0.002148 -0.094314 -0.002576
36.974735 -40.358650 10.296124
0.394903 -0.522803 -0.347398
0.411866 -0.541631 -0.343503
0.444432 -0.577386 -0.350924
0.489458 -0.626940 -0.365123
2.726492 -3.075141 -1.914160
2.883338 -3.247857 -1.904514
2.862675 -3.227476 -1.774788
3.060741 -3.446797 -1.774753
3.289658 -3.699013 -1.778389
3.536067 -3.971938 -1.775432
3.868880 -4.340144 -1.794644
4.160390 -4.661889 -1.773880
5.079768 -5.675771 -1.978010
5.595547 -6.244922 -1.972555
6.233095 -6.950849 -1.972007
7.077617 -7.885684 -1.985660
8.377755 -9.240205 -2.040226
0.002133 -0.094084 -0.002569
10.018134 -11.043084 -1.735422
10.050804 -11.086576 -1.392199
27.114759 -29.763744 -2.813470
27.908911 -30.654364 -1.932947
0.002133 -0.094084 -0.002569
27.297661 -30.016756 -0.002989
0.002133 -0.094084 -0.002569
17.156822 -18.926451 1.185136
16.861647 -18.609001 1.748196
16.628935 -18.366306 2.302006
16.116627 -17.815823 2.798269
16.370468 -18.101418 3.417215
0.002133 -0.094084 -0.002569
36.730606 -40.557335 10.292789
0.397047 -0.529918 -0.351472
0.408117 -0.542450 -0.342518
0.434537 -0.571828 -0.345284
0.487565 -0.630833 -0.366014
2.706866 -3.087848 -1.912443
2.872468 -3.272289 -1.909389
2.864385 -3.265562 -1.787116
3.017694 -3.437813 -1.760925
3.270108 -3.719032 -1.779067
3.514950 -3.993380 -1.776067
3.837989 -4.354991 -1.791660
4.136599 -4.688361 -1.774977
5.051459 -5.708963 -1.979525
5.563972 -6.281103 -1.973934
6.202699 -6.996529 -1.974913
7.035283 -7.928957 -1.986396
8.330304 -9.293846 -2.041519
9.501017 -10.590872 -1.992328
15.081947 -16.770008 -2.628059
10.028805 -11.189755 -1.397956
27.010485 -29.993019 -2.820447
27.834368 -30.926872 -1.940029
40.311913 -44.781281 -1.400438
17.694782 -19.714918 -0.002841
17.929399 -19.989164 0.618925
16.672546 -18.607401 1.158964
16.403799 -18.315449 1.711512
16.109352 -18.000980 2.244237
16.116657 -18.021753 2.816157
16.220297 -18.143469 3.407475
16.187023 -18.119190 3.977236
36.491978 -40.761864 10.291306
0.393368 -0.530671 -0.350446
0.404356 -0.543245 -0.341532
0.434127 -0.576704 -0.347156
0.485663 -0.634709 -0.366905
2.690814 -3.104460 -1.913294
2.871824 -3.309457 -1.921586
2.863268 -3.301029 -1.797902
3.026911 -3.486856 -1.777652
3.238575 -3.726866 -1.773590
3.489943 -4.010455 -1.774781
3.818492 -4.382452 -1.794038
4.110565 -4.713989 -1.775523
5.021629 -5.740579 -1.980532
5.527196 -6.313724 -1.973929
6.156478 -7.027071 -1.973245
6.990026 -7.971735 -1.986762
8.271969 -9.335486 -2.040217
9.470307 -10.682189 -1.999005
10.010622 -11.290428 -1.756292
9.979375 -11.263363 -1.399995
26.932444 -30.263969 -2.830913
27.829456 -31.280022 -1.952144
40.035549 -44.991295 -1.399791
17.795050 -20.062599 -0.002842
17.471546 -19.706512 0.606956
16.905798 -19.084795 1.182812
16.274298 -18.388252 1.709282
15.991022 -18.082500 2.242567
15.837756 -17.916428 2.785267
16.265545 -18.410852 3.439763
16.098215 -18.235247 3.981777
36.249592 -40.962048 10.289082
0.389635 -0.531454 -0.349420
0.403985 -0.547999 -0.343485
0.431265 -0.579014 -0.347150
0.487164 -0.642694 -0.370488
2.671715 -3.118755 -1.912432
2.854489 -3.327043 -1.922394
2.861283 -3.337080 -1.808689
2.991956 -3.487716 -1.768916
3.216360 -3.743784 -1.772900
3.460401 -4.023712 -1.771574
3.791724 -4.403336 -1.793436
4.094081 -4.748856 -1.779928
4.991904 -5.774353 -1.982047
5.486164 -6.339329 -1.972079
6.117758 -7.063603 -1.973656
6.949770 -8.017477 -1.988239
8.219660 -9.387060 -2.040862
9.431532 -10.761470 -2.003733
9.911202 -11.312094 -1.750489
9.934091 -11.345946 -1.402965
26.848183 -30.519892 -2.840401
27.554270 -31.342270 -1.945808
39.783264 -45.244057 -1.400306
17.578072 -20.048828 -0.002838
0.002115 -0.093378 -0.002551
0.002115 -0.093378 -0.002551
16.171423 -18.484316 1.709563
0.002115 -0.093378 -0.002551
15.697768 -17.970922 2.779230
15.953489 -18.268677 3.395791
0.002115 -0.093378 -0.002551
36.005421 -41.174461 10.288709
0.385962 -0.532150 -0.348393
0.397926 -0.546125 -0.340540
0.427283 -0.579916 -0.346204
0.484006 -0.645231 -0.370483
2.653590 -3.132008 -1.911571
2.839424 -3.347299 -1.924829
2.848652 -3.360184 -1.812538
2.927685 -3.452132 -1.741993
3.205182 -3.773316 -1.778367
3.442132 -4.047001 -1.773489
3.773885 -4.431373 -1.796410
4.072271 -4.777888 -1.782128
4.961410 -5.803319 -1.982549
5.451429 -6.371998 -1.972536
6.080060 -7.098851 -1.974066
6.905461 -8.055872 -1.988234
8.166054 -9.433945 -2.040857
9.402598 -10.852579 -2.010689
9.873947 -11.400091 -1.755357
9.892748 -11.429672 -1.406305
26.752682 -30.765310 -2.848912
27.448864 -31.585865 -1.951120
41.102947 -47.269585 -1.455900
18.019814 -20.788940 -0.002846
16.788494 -19.388315 0.590952
16.502621 -19.066500 1.169776
16.238096 -18.775576 1.727979
15.493629 -17.925295 2.200962
15.652488 -18.120964 2.788988
15.949901 -18.476591 3.417502
15.726118 -18.225140 3.940283
16.222694 -18.811047 4.663752
0.379012 -0.528839 -0.344307
0.390806 -0.542822 -0.336615
0.423414 -0.580703 -0.345260
0.468046 -0.632802 -0.360605
2.636058 -3.146976 -1.911565
2.819473 -3.361941 -1.924010
2.850837 -3.399554 -1.825637
2.901021 -3.460199 -1.737623
3.176585 -3.782904 -1.774257
3.414402 -4.060734 -1.770923
3.737648 -4.439739 -1.791042
4.057766 -4.815578 -1.787636
4.929731 -5.832987 -1.983050
5.413936 -6.401535 -1.972069
6.043512 -7.140459 -1.975725
6.863237 -8.102390 -1.989710
8.118965 -9.485084 -2.042150
9.363834 -10.933227 -2.015695
9.837955 -11.486336 -1.760224
9.860552 -11.520628 -1.410760
26.643547 -30.997026 -2.856168
27.339252 -31.815435 -1.955871
40.856964 -47.535309 -1.456832
17.880873 -20.869280 -0.002843
18.015823 -21.033585 0.638468
16.333298 -19.091179 1.165494
16.693258 -19.523748 1.788381
15.561449 -18.219049 2.225856
15.591206 -18.260210 2.796656
15.440359 -18.097200 3.330389
15.551582 -18.239859 3.923426
17.013588 -19.953175 4.924062
0.379767 -0.534754 -0.347361
0.394924 -0.552839 -0.342487
0.421645 -0.584305 -0.346192
0.463679 -0.633956 -0.359701
2.616742 -3.160917 -1.910704
2.798219 -3.375089 -1.922377
2.846743 -3.434410 -1.835653
2.882207 -3.478508 -1.738345
3.163833 -3.810885 -1.779040
3.396929 -4.087886 -1.774119
3.710582 -4.460110 -1.790441
4.041721 -4.851787 -1.792592
4.899354 -5.866293 -1.984564
5.378797 -6.433816 -1.972525
6.005395 -7.177847 -1.976552
6.820858 -8.145989 -1.990817
8.060581 -9.529791 -2.041497
9.332172 -11.022821 -2.022372
9.808944 -11.589528 -1.767180
9.822365 -11.613475 -1.415030
26.529999 -31.225477 -2.863144
27.176651 -32.007095 -1.957736
0.002097 -0.092674 -0.002532
17.998196 -21.250336 -0.002845
0.002097 -0.092674 -0.002532
16.648500 -19.691416 1.196327
16.734871 -19.800190 1.804983
15.424706 -18.270061 2.221215
15.670795 -18.573277 2.830571
15.254556 -18.088787 3.312580
0.002097 -0.092674 -0.002532
16.785112 -19.922895 4.891849
0.376089 -0.535376 -0.346334
0.391141 -0.553523 -0.341501
0.417658 -0.585129 -0.345247
0.461695 -0.637739 -0.360592
2.601353 -3.178446 -1.912410
2.779291 -3.390882 -1.922372
2.839335 -3.464609 -1.843356
2.863898 -3.496199 -1.739067
3.137550 -3.823020 -1.776298
3.370248 -4.102749 -1.772193
3.689081 -4.485518 -1.792223
4.027872 -4.890906 -1.798651
4.868556 -5.897090 -1.985572
5.343484 -6.465893 -1.972982
5.962027 -7.209025 -1.975716
6.780724 -8.192379 -1.992664
8.007440 -9.577259 -2.041817
9.297216 -11.109387 -2.028491
9.645321 -11.530092 -1.749545
9.762336 -11.677155 -1.415955
26.563816 -31.630648 -2.886307
27.122545 -32.317032 -1.967148
38.757023 -46.174015 -1.401152
18.080801 -21.596693 -0.002846
18.019518 -21.539076 0.647473
17.980589 -21.508001 1.301116
16.535297 -19.793488 1.795639
15.458072 -18.523037 2.241280
15.837262 -18.988693 2.880281
15.146974 -18.171436 3.311747
15.199903 -18.247583 3.887119
16.732536 -20.092751 4.909996
0.374640 -0.538600 -0.347349
0.384021 -0.550154 -0.337576
0.418197 -0.591348 -0.348058
0.456262 -0.637389 -0.358791
2.588176 -3.198670 -1.915827
2.760273 -3.406565 -1.922366
2.838770 -3.503340 -1.855684
2.856171 -3.526697 -1.746336
3.105224 -3.827750 -1.770136
3.348323 -4.123284 -1.772828
3.689334 -4.537281 -1.804729
4.016145 -4.932992 -1.805813
4.841250 -5.932203 -1.988100
5.320387 -6.512764 -1.978049
5.922230 -7.244463 -1.976127
6.744011 -8.243132 -1.995622
7.952727 -9.622925 -2.041813
9.261584 -11.195906 -2.034611
9.595883 -11.604986 -1.752557
9.740126 -11.786433 -1.422454
26.395992 -31.799551 -2.887842
27.067017 -32.628952 -1.976654
38.510433 -46.419033 -1.401851
17.782978 -21.490887 -0.002842
17.849861 -21.586752 0.645805
17.853258 -21.606230 1.300839
0.002093 -0.092198 -0.002520
0.002093 -0.092198 -0.002520
0.002093 -0.092198 -0.002520
15.176586 -18.419739 3.341253
15.038583 -18.266056 3.872531
16.127512 -19.596169 4.765218
0.373155 -0.541822 -0.348363
0.382474 -0.553454 -0.338549
0.408573 -0.585317 -0.342418
0.448561 -0.634235 -0.355195
2.580608 -3.225812 -1.923522
2.745791 -3.427782 -1.925614
2.833151 -3.536471 -1.864929
2.842252 -3.550027 -1.749968
3.088424 -3.851119 -1.772866
3.333488 -4.152477 -1.777304
3.662498 -4.556696 -1.804128
3.993081 -4.961718 -1.808012
4.803890 -5.955213 -1.986575
5.278410 -6.536995 -1.976199
5.885933 -7.284220 -1.977785
6.705714 -8.292191 -1.998209
7.901543 -9.672822 -2.042781
9.229049 -11.286950 -2.041566
9.592639 -11.736411 -1.764151
9.723312 -11.903518 -1.429882
26.328482 -32.090828 -2.900539
26.980892 -32.907318 -1.984108
38.273758 -46.676628 -1.402968
17.803005 -21.767235 -0.002841
17.926308 -21.933041 0.653139
17.656984 -21.620268 1.295532
17.506615 -21.444632 1.927881
15.489806 -18.998013 2.277323
14.853766 -18.234575 2.739062
14.813788 -18.192263 3.284199
15.023739 -18.462011 3.895878
0.002076 -0.091965 -0.002513
0.369477 -0.542377 -0.347336
0.377592 -0.552703 -0.336584
0.409068 -0.591520 -0.345228
0.445431 -0.636558 -0.355189
0.485656 -0.686389 -0.365317
2.720802 -3.436181 -1.921541
2.829584 -3.572513 -1.875715
2.834051 -3.580536 -1.757237
3.078585 -3.883169 -1.779701
3.310065 -4.171341 -1.777298
3.634323 -4.574487 -1.802931
3.966212 -4.985852 -1.808558
4.774945 -5.988518 -1.988596
5.247363 -6.574569 -1.978500
5.849373 -7.323798 -1.979443
6.669541 -8.344142 -2.001537
7.846277 -9.717878 -2.042776
9.193267 -11.374923 -2.047965
9.681001 -11.982185 -1.792913
9.681582 -11.991453 -1.433780
26.189280 -32.297234 -2.905562
26.829481 -33.108242 -1.986904
0.002060 -0.091733 -0.002507
17.831779 -22.058495 -0.002842
17.836899 -22.080585 0.654486
17.527805 -21.715034 1.295162
17.355871 -21.510626 1.924814
16.122597 -20.002790 2.387296
14.735405 -18.302488 2.736510
14.741784 -18.316978 3.291439
0.002060 -0.091733 -0.002507
15.377241 -19.130066 4.607855
0.371170 -0.549616 -0.351411
0.376031 -0.555974 -0.337557
0.407299 -0.594987 -0.346161
0.442290 -0.638860 -0.355183
0.487867 -0.695979 -0.369589
2.703192 -3.454860 -1.923162
2.829131 -3.612958 -1.888814
2.838423 -3.627044 -1.772509
3.060767 -3.906962 -1.782432
3.304312 -4.212245 -1.786897
3.620425 -4.609964 -1.808883
3.962358 -5.040547 -1.820130
4.740912 -6.015655 -1.988591
5.219795 -6.618981 -1.982645
5.807615 -7.359626 -1.979854
6.622956 -8.386350 -2.002273
7.792006 -9.764146 -2.043096
0.002072 -0.091489 -0.002501
9.616153 -12.042083 -1.793604
9.652887 -12.096366 -1.439722
26.089128 -32.565197 -2.915748
26.719141 -33.361500 -1.992868
0.002072 -0.091489 -0.002501
17.970257 -22.499022 -0.002845
17.501257 -21.922047 0.646740
17.456829 -21.882303 1.299169
17.750986 -22.265518 1.983262
15.167176 -19.051178 2.262282
14.573322 -18.315342 2.725828
14.417156 -18.133005 3.242735
14.803221 -18.629566 3.894587
15.083551 -18.987547 4.552316
0.360961 -0.542129 -0.344263
0.376522 -0.562039 -0.340490
0.403216 -0.595757 -0.345217
0.436812 -0.638424 -0.353382
0.488773 -0.704272 -0.373006
2.689475 -3.477261 -1.927224
2.821972 -3.646765 -1.898059
2.831289 -3.661082 -1.781234
3.034078 -3.918373 -1.779690
3.283350 -4.235967 -1.788812
3.592369 -4.629609 -1.808282
3.936206 -5.066027 -1.821228
4.710515 -6.049472 -1.990612
5.176117 -6.641021 -1.980335
5.770545 -7.398811 -1.981513
6.577568 -8.427147 -2.003009
7.733299 -9.808369 -2.042767
9.101536 -11.532180 -2.057143
9.578517 -12.140612 -1.799864
9.614996 -12.195226 -1.444735
25.989960 -32.825443 -2.925655
26.641924 -33.670845 -2.001908
0.002057 -0.091259 -0.002494
17.962805 -22.755383 -0.002846
17.563963 -22.268103 0.653933
17.311245 -21.964777 1.297960
17.422611 -22.113525 1.960667
16.670620 -21.178133 2.504886
14.558641 -18.519617 2.743484
14.444446 -18.381716 3.272518
14.733011 -18.760645 3.904316
14.967631 -19.071737 4.551207
0.362587 -0.549371 -0.348338
0.368407 -0.557099 -0.335586
0.398113 -0.595046 -0.343332
0.434765 -0.642083 -0.354274
0.486466 -0.708158 -0.373855
2.667710 -3.489545 -1.925592
2.818534 -3.684486 -1.909617
2.830867 -3.701499 -1.793596
2.980748 -3.895552 -1.761215
3.268341 -4.264419 -1.793288
3.562288 -4.643313 -1.805893
3.924077 -5.109554 -1.828940
4.684352 -6.084554 -1.993646
5.141928 -6.675049 -1.981713
5.728493 -7.429093 -1.981092
6.535793 -8.469660 -2.004485
7.678492 -9.853995 -2.043087
9.061263 -11.616801 -2.062984
9.542172 -12.237446 -1.806124
9.569773 -12.281430 -1.448447
26.015503 -33.247280 -2.949934
26.527174 -33.923931 -2.007872
0.002042 -0.091029 -0.002488
0.002042 -0.091029 -0.002488
17.514946 -22.469307 0.656905
17.456078 -22.402210 1.318175
0.002042 -0.091029 -0.002488
16.560081 -21.279963 2.506004
14.502071 -18.659788 2.752314
14.356031 -18.486128 3.276418
14.658958 -18.881208 3.912425
15.031886 -19.373257 4.603420
0.355799 -0.545706 -0.344251
0.370071 -0.564410 -0.339498
0.394204 -0.595620 -0.342387
0.429485 -0.641429 -0.352473
0.487322 -0.716419 -0.377272
2.646985 -3.503146 -1.924773
2.815395 -3.721787 -1.921174
2.825990 -3.738110 -1.803775
2.976037 -3.934696 -1.771471
3.241940 -4.279915 -1.792002
3.538386 -4.666498 -1.807080
3.893965 -5.130275 -1.828384
4.650962 -6.112692 -1.994147
5.106346 -6.707351 -1.982630
5.688468 -7.467322 -1.982334
6.490819 -8.514227 -2.005962
7.622698 -9.894869 -2.042758
9.026381 -11.709162 -2.070218
9.526641 -12.357710 -1.816094
9.534577 -12.376854 -1.453459
25.671524 -33.199051 -2.932492
26.667267 -34.495892 -2.032939
0.002053 -0.090783 -0.002482
20.325241 -26.351145 -0.002895
17.475466 -22.677122 0.660156
17.278564 -22.438787 1.314451
16.453346 -21.386791 1.878932
14.242683 -18.538532 2.171454
14.356155 -18.692343 2.744884
14.167726 -18.461510 3.257495
14.459397 -18.853392 3.888760
0.002053 -0.090783 -0.002482
0.360434 -0.557105 -0.351386
0.363007 -0.560815 -0.335573
0.394430 -0.601899 -0.345198
0.427291 -0.645138 -0.353364
0.484695 -0.720486 -0.378121
2.620621 -3.509375 -1.919886
2.805049 -3.752810 -1.928877
2.816779 -3.770821 -1.811772
2.955020 -3.952992 -1.772149
3.209008 -4.288264 -1.787515
3.493811 -4.664382 -1.798138
3.873081 -5.163036 -1.832238
4.616373 -6.141434 -1.994649
5.078814 -6.750296 -1.986775
5.657792 -7.515236 -1.986488
6.449384 -8.560569 -2.008180
7.563229 -9.938074 -2.042429
8.993156 -11.804638 -2.078008
9.467052 -12.431056 -1.818642
9.499156 -12.481889 -1.459216
25.632318 -33.543896 -2.949934
25.453630 -33.334885 -1.955498
25.581787 -33.526638 -0.980411
26.926514 -35.297264 -0.003033
17.491837 -22.977049 0.665911
17.520454 -23.031197 1.343234
15.403243 -20.266066 1.772087
14.167709 -18.661081 2.176287
14.198674 -18.715248 2.735827
14.071415 -18.555063 3.259725
14.321320 -18.896765 3.880657
14.635468 -19.323338 4.550475
0.358792 -0.560287 -0.352400
0.365576 -0.569586 -0.340466
0.389321 -0.601109 -0.343314
0.421914 -0.644497 -0.351563
0.487604 -0.731665 -0.383249
2.606419 -3.531432 -1.923948
2.781703 -3.765695 -1.927330
0.002023 -0.090323 -0.002469
2.925961 -3.960677 -1.768039
3.193943 -4.318499 -1.792632
3.480075 -4.700930 -1.804685
3.843831 -5.184985 -1.832232
4.589623 -6.178463 -1.998189
5.040416 -6.779153 -1.986770
5.616162 -7.548973 -1.986899
6.395802 -8.591010 -2.006693
7.508836 -9.984317 -2.043073
8.954344 -11.893800 -2.084685
9.428299 -12.527809 -1.824902
9.462551 -12.582132 -1.464600
25.953642 -34.369781 -3.009516
25.277636 -33.501228 -1.956709
19.847404 -26.342396 -0.766940
19.738405 -26.207775 -0.002886
19.250387 -25.580593 0.738708
15.679401 -20.866814 1.210976
17.483168 -23.265760 2.027072
14.198497 -18.924898 2.197652
0.002023 -0.090323 -0.002469
14.073379 -18.779430 3.285054
14.371905 -19.189907 3.924105
14.568267 -19.465099 4.564178
0.347795 -0.551099 -0.344232
0.357571 -0.564461 -0.335561
0.389552 -0.607330 -0.346125
0.416579 -0.643803 -0.349762
0.486077 -0.737102 -0.384955
2.582709 -3.542172 -1.921502
2.767133 -3.790259 -1.931950
2.814353 -3.856236 -1.837950
2.883845 -3.952105 -1.756405
3.163894 -4.328963 -1.789425
3.459204 -4.728273 -1.807659
3.815852 -5.210517 -1.833329
4.554521 -6.204518 -1.998184
5.007633 -6.818038 -1.989532
5.583511 -7.597587 -1.991053
6.335929 -8.615895 -2.003726
7.457729 -10.034986 -2.044691
8.915074 -11.987639 -2.091918
9.391117 -12.627707 -1.831625
9.415599 -12.669584 -1.468498
25.605429 -34.329426 -2.992632
25.095762 -33.660244 -1.957547
25.127201 -33.726944 -0.977762
19.640652 -26.401003 -0.002885
17.177143 -23.108974 0.663966
15.534545 -20.922785 1.209023
15.432331 -20.800888 1.803198
14.553956 -19.636211 2.270657
14.180324 -19.141411 2.774391
13.868981 -18.736721 3.263070
14.137196 -19.111349 3.890713
14.022921 -18.964571 4.427178
0.345051 -0.552905 -0.344226
0.353708 -0.564923 -0.334575
0.380182 -0.600859 -0.340485
0.417522 -0.651770 -0.353345
0.474814 -0.729468 -0.378959
2.562801 -3.556724 -1.921497
2.740763 -3.800409 -1.928861
2.810333 -3.896102 -1.849585
2.850415 -3.953259 -1.749558
3.148444 -4.359050 -1.794541
3.426796 -4.740164 -1.804675
3.794300 -5.242978 -1.837183
4.520414 -6.231927 -1.998685
4.973450 -6.852761 -1.991372
5.551980 -7.642551 -1.994790
6.282459 -8.642933 -2.001870
7.403331 -10.085117 -2.045983
8.875948 -12.078273 -2.098873
9.352079 -12.730813 -1.838581
9.373994 -12.769773 -1.473697
25.587069 -34.718216 -3.013702
24.914139 -33.832264 -1.958945
24.945166 -33.886772 -0.978227
24.778566 -33.685749 -0.003000
16.476955 -22.445578 0.641930
18.969250 -25.837038 1.488447
15.443039 -21.065811 1.818544
15.365284 -20.967890 2.415552
13.981051 -19.100796 2.756741
13.906887 -19.013861 3.297585
14.110299 -19.297831 3.912764
14.133898 -19.344143 4.497164
0.343481 -0.555960 -0.345240
0.351055 -0.566639 -0.334569
0.376274 -0.601301 -0.339540
0.413330 -0.652397 -0.352442
0.467911 -0.727567 -0.376385
2.546031 -3.575596 -1.923931
2.717826 -3.812419 -1.927313
2.804867 -3.934530 -1.860492
2.829249 -3.970861 -1.750237
3.119350 -4.370726 -1.791974
3.410099 -4.773444 -1.810031
3.770237 -5.272249 -1.839934
4.482728 -6.254452 -1.997667
4.934464 -6.881008 -1.991367
5.509395 -7.678252 -1.995617
6.243191 -8.695683 -2.005569
7.349784 -10.129198 -2.046627
8.841903 -12.176847 -2.107221
9.308373 -12.819422 -1.843912
9.343060 -12.876283 -1.480010
15.323854 -21.078672 -1.819946
15.324392 -21.087212 -1.214985
15.322440 -21.100082 -0.606504
15.310957 -21.099810 -0.002792
15.281922 -21.067776 0.599760
15.257396 -21.049555 1.206140
14.778781 -20.406998 1.753964
15.193239 -20.992317 2.407938
13.767547 -19.037622 2.736072
13.809411 -19.109337 3.300371
13.962582 -19.334560 3.903364
14.032135 -19.437611 4.500129
0.334647 -0.549381 -0.339113
0.348217 -0.568462 -0.334563
0.375295 -0.606139 -0.341411
0.407886 -0.651692 -0.350641
0.456723 -0.719813 -0.370389
2.530663 -3.597787 -1.927993
2.692479 -3.823719 -1.924995
2.798350 -3.973518 -1.871399
2.813868 -3.997995 -1.755020
3.088380 -4.381200 -1.788768
3.385611 -4.797978 -1.811813
3.745048 -5.302066 -1.842685
4.453986 -6.291677 -2.001207
4.897527 -6.914629 -1.992745
5.465461 -7.712111 -1.996028
6.202343 -8.746678 -2.008897
7.293614 -10.177135 -2.047596
8.804876 -12.276965 -2.115568
9.271137 -12.927266 -1.851563
9.299711 -12.976414 -1.485209
15.174650 -21.134909 -1.817013
15.184463 -21.156363 -1.213771
15.195299 -21.187037 -0.606409
15.207168 -21.219172 -0.002791
15.243710 -21.277853 0.603196
16.652256 -23.253139 1.327504
15.151598 -21.181055 1.813109
15.146892 -21.190134 2.420386
15.169668 -21.229784 3.039890
15.857872 -22.205397 3.821666
13.627594 -19.108700 3.841117
13.694063 -19.208595 4.427927
0.343009 -0.566434 -0.350329
0.347455 -0.573054 -0.336516
0.374355 -0.610916 -0.343283
0.401541 -0.649404 -0.347943
0.446896 -0.713269 -0.365249
2.515268 -3.617559 -1.931241
2.672034 -3.840389 -1.925760
2.797142 -4.017662 -1.885216
2.806175 -4.033291 -1.763907
3.066581 -4.401199 -1.790042
3.357060 -4.813432 -1.810616
3.718146 -5.325753 -1.843783
4.422680 -6.320900 -2.002721
4.860477 -6.943188 -1.993201
5.420804 -7.736486 -1.994775
6.155470 -8.779813 -2.008891
7.242346 -10.228305 -2.049536
8.768976 -12.370770 -2.123357
9.318252 -13.149945 -1.875917
9.330605 -13.177007 -1.502113
0.001999 -0.089138 -0.002438
24.377953 -34.326412 -1.962950
24.406876 -34.379898 -0.980175
15.859884 -22.387270 -0.002805
15.521146 -21.927237 0.619205
15.090435 -21.329069 1.212200
16.347950 -23.116407 1.971847
15.187065 -21.489044 2.445281
0.001999 -0.089138 -0.002438
15.170921 -21.498171 3.684736
13.628414 -19.328365 3.870625
0.001999 -0.089138 -0.002438
0.332394 -0.556854 -0.342161
0.344750 -0.574737 -0.336510
0.372351 -0.614261 -0.344215
0.401476 -0.655779 -0.350629
0.445385 -0.718533 -0.366954
0.501414 -0.798665 -0.388843
2.649331 -3.853948 -1.924984
2.788425 -4.053252 -1.894668
2.795312 -4.066041 -1.771426
3.039892 -4.417490 -1.789397
3.327890 -4.831441 -1.810014
3.685742 -5.343661 -1.842674
4.387885 -6.349926 -2.003730
4.825363 -6.979589 -1.995502
5.382979 -7.782010 -1.998097
6.111737 -8.827168 -2.011479
7.187946 -10.271524 -2.050180
8.725571 -12.459606 -2.130034
9.183443 -13.113798 -1.863386
9.208149 -13.158593 -1.494119
18.859161 -26.879835 -2.293815
18.862608 -26.904774 -1.531742
18.882479 -26.943119 -0.765025
18.478033 -26.387495 -0.002867
16.423464 -23.480553 0.660731
0.001984 -0.088908 -0.002431
16.422535 -23.505497 1.997097
15.006232 -21.501795 2.436553
13.745057 -19.716595 2.799259
13.790267 -19.795925 3.377475
13.514158 -19.408546 3.870627
13.844720 -19.896009 4.550125
0.331494 -0.561447 -0.344195
0.345758 -0.582306 -0.340423
0.368230 -0.614757 -0.343271
0.398004 -0.657971 -0.350622
0.441634 -0.720917 -0.366948
0.497210 -0.801369 -0.388837
2.628011 -3.870854 -1.925749
2.791419 -4.107729 -1.912850
2.787754 -4.105453 -1.781681
3.008436 -4.425327 -1.785549
3.300563 -4.850251 -1.810009
3.653437 -5.363584 -1.842118
4.357290 -6.382773 -2.006257
4.793361 -7.018204 -1.998724
5.338885 -7.810050 -1.997676
6.066942 -8.870025 -2.013326
7.126802 -10.316567 -2.050500
8.675848 -12.544997 -2.135876
9.142362 -13.224785 -1.871269
9.173702 -13.279685 -1.501548
24.812365 -35.785213 -3.042864
26.444830 -38.162506 -2.164808
24.048033 -34.724537 -0.981940
18.876989 -27.296595 -0.002879
16.182022 -23.429335 0.656557
16.328548 -23.649611 1.333938
14.486628 -21.007250 1.776432
15.061876 -21.846222 2.465905
13.744895 -19.958479 2.822490
13.538167 -19.674280 3.343244
13.418477 -19.508467 3.875170
13.757334 -20.013899 4.559015
0.328847 -0.563041 -0.344189
0.336079 -0.573924 -0.333559
0.365278 -0.616559 -0.343264
0.390764 -0.654044 -0.347026
0.432875 -0.715746 -0.362664
0.495287 -0.806899 -0.390458
2.605826 -3.883684 -1.924972
2.786151 -4.149598 -1.925212
2.790799 -4.157900 -1.798094
3.000561 -4.467329 -1.795788
3.256926 -4.845285 -1.801067
3.626099 -5.386821 -1.843215
4.322104 -6.409082 -2.006758
4.760139 -7.052609 -2.001025
5.295455 -7.842016 -1.998087
6.016315 -8.904534 -2.013321
7.069635 -10.355912 -2.050496
8.626426 -12.622322 -2.140882
9.113961 -13.340806 -1.880544
9.145068 -13.396062 -1.508976
24.487494 -35.740253 -3.027374
23.843388 -34.828568 -1.967888
23.875532 -34.901627 -0.983054
17.605415 -25.768095 -0.002849
16.402979 -24.032009 0.670988
16.197245 -23.749506 1.334314
0.001981 -0.088434 -0.002419
15.637758 -22.958048 2.581820
13.563127 -19.938555 2.808556
0.001981 -0.088434 -0.002419
13.749290 -20.233885 4.004210
13.442069 -19.798546 4.491997
0.326089 -0.564686 -0.344183
0.334266 -0.577039 -0.334532
0.357270 -0.611099 -0.338564
0.388514 -0.657509 -0.347918
0.431276 -0.720973 -0.364369
0.493072 -0.812595 -0.392079
2.582913 -3.896835 -1.924196
0.001965 -0.088202 -0.002413
2.784522 -4.200588 -1.809717
2.975325 -4.484266 -1.795783
3.263731 -4.914303 -1.820127
3.591403 -5.403189 -1.841556
4.288898 -6.438412 -2.008272
4.719849 -7.082074 -2.001481
5.251605 -7.876253 -1.998914
5.974927 -8.956095 -2.017020
7.017104 -10.405957 -2.052437
8.562006 -12.687725 -2.143384
9.039803 -13.396054 -1.881004
9.103021 -13.499281 -1.514732
24.058514 -35.564175 -3.000304
23.658836 -34.988060 -1.969192
0.001965 -0.088202 -0.002413
17.365454 -25.742556 -0.002845
16.186527 -24.009806 0.667743
16.390926 -24.330303 1.361792
15.562857 -23.122869 1.941030
15.469633 -23.002211 2.576435
13.585382 -20.218540 2.837129
13.446991 -20.028595 3.377206
0.001965 -0.088202 -0.002413
13.327344 -19.873678 4.491631
0.327102 -0.572070 -0.348258
0.331347 -0.578771 -0.334526
0.360046 -0.621767 -0.344191
0.388104 -0.664014 -0.350604
0.429641 -0.726198 -0.366074
0.487867 -0.813658 -0.391259
2.559240 -3.910308 -1.923419
2.756852 -4.207210 -1.937568
2.778575 -4.242849 -1.821341
2.944723 -4.493184 -1.792576
3.213649 -4.899405 -1.807610
3.552221 -5.410723 -1.837140
4.250140 -6.459516 -2.007254
4.683854 -7.115338 -2.003321
5.209164 -7.906805 -1.999325
5.925380 -8.989030 -2.017015
6.955799 -10.447131 -2.052432
8.498193 -12.749686 -2.145606
8.933085 -13.407913 -1.875201
9.002314 -13.521318 -1.511198
23.520950 -35.204441 -2.958441
23.472662 -35.158981 -1.970963
23.502296 -35.216736 -0.984260
17.208693 -25.828480 -0.002843
15.941154 -23.950459 0.663431
15.586685 -23.428701 1.306004
14.824379 -22.303947 1.864735
13.526191 -20.365944 2.271241
13.232503 -19.940710 2.787194
13.363915 -20.153170 3.385280
13.440034 -20.275248 3.981521
13.277530 -20.046322 4.513480
0.322491 -0.570774 -0.346211
0.329566 -0.581815 -0.335499
0.355108 -0.620575 -0.342307
0.378957 -0.656983 -0.345213
0.420948 -0.720886 -0.361789
0.487692 -0.822311 -0.394507
2.537896 -3.924266 -1.923414
2.735151 -4.225865 -1.939018
2.775323 -4.289892 -1.835016
2.897421 -4.476588 -1.779125
3.213216 -4.959019 -1.823094
3.532124 -5.446874 -1.842648
4.216599 -6.488461 -2.008769
4.644398 -7.143554 -2.003777
5.161647 -7.935662 -1.998904
5.875730 -9.028685 -2.018121
6.895740 -10.482224 -2.051779
8.437254 -12.816273 -2.148664
8.878388 -13.487101 -1.879372
8.931624 -13.577724 -1.511937
23.387901 -35.443748 -2.967231
23.299782 -35.324127 -1.972918
23.322973 -35.386139 -0.985235
18.154507 -27.584202 -0.002869
15.920135 -24.208977 0.668166
15.668821 -23.846296 1.324355
14.734742 -22.446924 1.869620
13.553595 -20.670046 2.296321
13.122446 -20.022892 2.788126
13.564935 -20.711006 3.466273
13.117477 -20.045883 3.920896
13.242342 -20.243685 4.540884
0.320562 -0.573867 -0.347225
0.326629 -0.583512 -0.335493
0.352920 -0.623895 -0.343240
0.377536 -0.661958 -0.347002
0.417188 -0.723120 -0.361783
0.480471 -0.820261 -0.392061
2.513087 -3.935903 -1.921867
2.709550 -4.240198 -1.938285
2.769566 -4.333881 -1.847325
2.875465 -4.499798 -1.781681
3.170757 -4.956921 -1.815345
3.511723 -5.482968 -1.848156
4.179636 -6.514718 -2.009271
4.613279 -7.184589 -2.007923
5.116388 -7.964988 -1.998900
5.819910 -9.055499 -2.016636
6.831829 -10.519370 -2.051127
8.368225 -12.870977 -2.149776
8.985815 -13.825199 -1.919271
9.009449 -13.871897 -1.538878
23.280123 -35.724457 -2.979516
23.114546 -35.498161 -1.974974
23.125351 -35.541935 -0.985752
18.277819 -28.120190 -0.002879
15.122041 -23.297476 0.640328
15.450334 -23.819628 1.317740
15.029180 -23.181574 1.923878
