# This PCD file was generated using the MATLAB® pcwrite function
# from Computer Vision Toolbox®.
# .PCD v.7 - Point Cloud Data file format
VERSION .7
FIELDS x y z
SIZE 4 4 4
TYPE F F F
COUNT 1 1 1
WIDTH 1676
HEIGHT 1
VIEWPOINT 0 0 0 1 0 0 0
POINTS 1676
DATA ascii
3.168331 9.613260 -1.455094
3.648303 11.091990 -1.392576
4.246830 12.927568 -1.295447
5.020955 15.300632 -1.149035
5.227164 15.927037 -0.801048
6.544192 19.964457 -0.504781
6.546385 19.946817 -0.013126
13.305701 40.717422 0.977153
13.295250 40.635975 1.980386
13.186752 40.253963 2.952512
0.005489 -0.176870 -0.005271
3.259558 9.786211 1.216457
0.005489 -0.176870 -0.005271
9.780761 29.680399 5.144318
9.805371 29.737213 5.913446
0.186035 0.372309 -0.348261
0.191949 0.389640 -0.340535
0.207153 0.435415 -0.348218
0.231678 0.508986 -0.368078
0.287618 0.678080 -0.431719
0.566706 1.521458 -0.802320
1.277247 3.666780 -1.698007
1.360277 3.915264 -1.690253
1.449963 4.180904 -1.678084
1.552052 4.486048 -1.667221
1.672026 4.841779 -1.657461
1.806154 5.239225 -1.644126
1.956068 5.686566 -1.625338
2.131936 6.207614 -1.602321
2.346491 6.847524 -1.581917
2.616850 7.649447 -1.562879
2.886801 8.575168 -1.522573
3.224554 9.595138 -1.455100
3.717481 11.077985 -1.393515
4.329369 12.917560 -1.296950
5.117995 15.296394 -1.150872
6.399792 19.152689 -0.962308
6.561883 19.630646 -0.497443
6.579548 19.660398 -0.013048
12.243705 36.707920 0.882507
12.252447 36.711945 1.792814
11.378096 34.037685 2.502436
10.721146 32.041843 3.149695
3.327457 9.799612 1.220387
3.318608 9.761243 1.463003
9.877130 29.415989 5.108055
10.143454 30.178396 6.012090
0.187986 0.368259 -0.346213
0.195666 0.390483 -0.341510
0.210553 0.434511 -0.348212
0.233194 0.501160 -0.364480
0.290223 0.669827 -0.428288
0.570621 1.501121 -0.794174
1.298653 3.659856 -1.698006
1.385578 3.912938 -1.692436
1.477987 4.181651 -1.681507
1.579438 4.479104 -1.667861
1.700850 4.832339 -1.657460
1.837886 5.230837 -1.644678
1.989120 5.673648 -1.624831
2.168591 6.195508 -1.602322
2.390567 6.841165 -1.583585
2.656200 7.613597 -1.558801
2.940574 8.574165 -1.525177
3.285099 9.589839 -1.457059
3.782690 11.064867 -1.394453
4.405485 12.902920 -1.297892
5.226621 15.325583 -1.155233
0.005467 -0.176408 -0.005257
6.597684 19.361725 -0.491707
6.610280 19.376171 -0.012970
12.471574 36.705647 0.884067
12.472668 36.665749 1.793975
12.470258 36.615612 2.696534
12.476474 36.590923 3.602263
10.943932 32.053535 3.962032
10.574270 30.927975 4.599102
10.525796 30.749258 5.349031
10.395695 30.348700 6.057514
0.191196 0.367396 -0.346207
0.196757 0.382981 -0.337582
0.214165 0.433520 -0.348206
0.236628 0.498345 -0.363576
0.298169 0.676909 -0.432564
0.587953 1.520530 -0.804753
1.322548 3.655845 -1.699547
1.409767 3.904911 -1.692435
1.502413 4.171568 -1.680821
1.606372 4.468133 -1.667220
1.732985 4.829655 -1.659846
1.868316 5.218623 -1.644127
2.024992 5.665673 -1.625847
2.205210 6.183200 -1.602324
2.434715 6.838654 -1.586087
2.705436 7.611451 -1.561401
2.993640 8.560591 -1.525832
3.346971 9.587916 -1.459577
3.850515 11.046286 -1.394927
4.483538 12.878735 -1.298089
5.327331 15.329507 -1.157771
6.527504 18.804379 -0.948726
0.005456 -0.176177 -0.005250
6.632128 19.075251 -0.012884
14.213597 41.052971 0.990851
13.829693 39.892780 1.955479
0.005456 -0.176177 -0.005250
11.746378 33.795330 3.334476
10.803389 31.030956 3.843902
11.093768 31.851414 4.745088
10.528905 30.184996 5.261653
10.325675 29.564501 5.913720
0.193197 0.363311 -0.344160
0.201114 0.385398 -0.339537
0.217668 0.432545 -0.348200
0.242260 0.502296 -0.366264
0.297675 0.660078 -0.424851
0.600099 1.524278 -0.808005
1.343937 3.646692 -1.698773
1.430141 3.888216 -1.688793
1.526769 4.161350 -1.680135
1.633677 4.460868 -1.667860
1.762375 4.821674 -1.660442
1.900560 5.211668 -1.645230
2.059209 5.656029 -1.626355
2.248848 6.190867 -1.607406
2.486074 6.856161 -1.593171
2.756704 7.614551 -1.565115
3.047697 8.554663 -1.527786
3.403051 9.568767 -1.459583
3.919547 11.037343 -1.396563
4.564436 12.869917 -1.299778
5.426917 15.329006 -1.160028
0.005445 -0.175947 -0.005243
6.112443 17.249790 -0.440891
6.669896 18.829451 -0.012818
10.985213 31.100124 0.751863
10.984797 31.063433 1.526444
10.875747 30.735287 2.273646
13.981676 39.522396 3.905270
11.506312 32.454346 4.027491
10.670374 30.065174 4.489107
10.838651 30.507608 5.328263
10.575774 29.729160 5.958406
0.197433 0.365695 -0.346195
0.207240 0.392705 -0.344433
0.224695 0.441525 -0.353831
0.246149 0.501156 -0.366259
0.310365 0.680757 -0.435978
0.602797 1.500308 -0.798231
1.367137 3.642642 -1.700314
1.456603 3.888952 -1.692432
1.552423 4.152484 -1.680134
1.659027 4.448088 -1.666577
1.791077 4.811719 -1.660442
1.932438 5.200573 -1.645231
2.094655 5.649809 -1.627877
2.284534 6.172186 -1.606021
2.528998 6.845244 -1.594006
2.802157 7.596502 -1.564747
3.096530 8.533539 -1.527140
3.465353 9.561756 -1.461542
3.989961 11.031735 -1.398665
4.640040 12.845596 -1.299974
5.533403 15.338186 -1.163127
0.005462 -0.175703 -0.005237
6.225308 17.250397 -0.441803
0.005462 -0.175703 -0.005237
0.005462 -0.175703 -0.005237
14.372354 39.962982 1.966758
11.062703 30.681843 2.274445
12.111880 33.572071 3.326076
11.714539 32.445881 4.034635
11.186900 30.941124 4.628983
11.002193 30.392990 5.319496
10.880000 30.036156 6.031918
0.201801 0.368016 -0.348231
0.206452 0.380258 -0.337564
0.227151 0.437133 -0.351946
0.250761 0.501632 -0.367151
0.310963 0.667326 -0.429978
0.600575 1.464448 -0.782757
1.388471 3.631269 -1.698770
1.478666 3.877268 -1.690974
1.578570 4.147281 -1.681502
1.685570 4.438725 -1.666576
1.820368 4.803388 -1.661037
1.965295 5.195053 -1.646886
2.130100 5.643382 -1.629399
2.324338 6.168350 -1.608332
2.570809 6.838652 -1.595674
2.848828 7.590251 -1.566605
3.146068 8.509740 -1.526170
3.519958 9.538215 -1.460990
4.063726 11.028707 -1.401233
4.717763 12.820004 -1.300170
0.005450 -0.175471 -0.005230
0.005450 -0.175471 -0.005230
6.345866 17.270941 -0.443232
6.248522 16.984108 -0.012141
0.005450 -0.175471 -0.005230
14.394945 39.309315 1.938622
0.005450 -0.175471 -0.005230
12.396826 33.769932 3.352316
12.186247 33.156319 4.131157
11.242462 30.539890 4.578707
11.207058 30.425976 5.335964
11.497159 31.184046 6.274319
0.206602 0.371987 -0.351287
0.211338 0.384266 -0.340499
0.231771 0.439430 -0.353820
0.255766 0.503841 -0.368941
0.316414 0.667478 -0.430828
0.609711 1.461339 -0.782752
1.410305 3.625455 -1.699539
1.501310 3.867217 -1.690244
1.602638 4.138668 -1.681501
1.714057 4.434555 -1.668497
1.850282 4.796675 -1.662230
1.992532 5.177065 -1.644678
2.165547 5.636742 -1.630921
2.363049 6.164664 -1.610642
2.614481 6.833170 -1.597758
2.897531 7.585044 -1.568834
3.193067 8.488614 -1.525523
3.579506 9.533553 -1.463227
4.132299 11.022903 -1.403333
4.792205 12.799361 -1.300738
5.739158 15.357405 -1.169323
0.005440 -0.175241 -0.005223
0.005440 -0.175241 -0.005223
6.294127 16.814228 -0.012101
15.456043 41.520565 1.010262
14.086009 37.781975 1.867334
12.509776 33.514240 2.493895
12.459293 33.341797 3.316941
12.631861 33.769287 4.216101
11.521289 30.766575 4.621983
11.224301 29.935909 5.261530
11.355124 30.253973 6.100965
0.207328 0.364610 -0.347198
0.212698 0.378401 -0.337552
0.233422 0.433383 -0.350995
0.255245 0.490900 -0.362648
0.318070 0.657447 -0.426541
0.617167 1.452934 -0.780305
1.435378 3.626176 -1.703395
1.525175 3.860521 -1.690970
1.628075 4.131400 -1.682184
1.740516 4.424877 -1.668496
1.878177 4.784434 -1.661633
2.026002 5.172982 -1.646886
2.200297 5.628074 -1.631936
2.399467 6.151238 -1.610643
2.659599 6.831093 -1.600676
2.942098 7.568511 -1.568836
3.242824 8.470370 -1.525527
3.637369 9.518644 -1.464069
4.200811 11.010381 -1.404737
4.862535 12.760670 -1.299628
5.843800 15.365495 -1.172421
6.579514 17.304991 -0.883248
0.005429 -0.175011 -0.005216
6.333161 16.622662 -0.012051
15.780200 41.655781 1.015698
12.665565 33.360535 1.652729
12.519242 32.954857 2.457646
12.528544 32.943901 3.284528
12.700938 33.363804 4.174620
12.714096 33.380291 5.023626
11.366466 29.789953 5.247268
11.618472 30.421843 6.147868
0.210494 0.363630 -0.347191
0.216589 0.379029 -0.338526
0.233241 0.422362 -0.345351
0.260477 0.492994 -0.364439
0.320401 0.649061 -0.423109
0.636584 1.475108 -0.792512
1.455884 3.612702 -1.701077
1.550381 3.855154 -1.692425
1.651534 4.116679 -1.680128
1.767739 4.414751 -1.668495
1.906824 4.771699 -1.661035
2.057631 5.161145 -1.646885
2.232534 5.609778 -1.630414
2.439708 6.144446 -1.612491
0.005416 -0.174775 -0.005209
2.994991 7.569546 -1.572549
3.298906 8.464181 -1.527806
3.698965 9.508297 -1.465749
4.270534 10.994841 -1.405907
4.946196 12.750508 -1.301503
5.947163 15.360682 -1.174678
7.430861 19.219387 -0.981607
6.491450 16.747780 -0.432896
6.339468 16.342361 -0.011965
14.286408 37.025848 0.904704
13.071862 33.826012 1.679491
12.696678 32.831966 2.454005
12.670150 32.728123 3.270433
12.910098 33.316051 4.178059
12.743077 32.864819 4.957526
11.803863 30.396290 5.365633
11.528211 29.650522 6.006299
0.212983 0.361082 -0.346165
0.221023 0.381287 -0.340481
0.237302 0.422921 -0.346284
0.263653 0.490080 -0.363535
0.324469 0.645783 -0.422247
0.650032 1.481899 -0.797393
1.476959 3.602804 -1.700304
1.570814 3.839494 -1.689510
1.676872 4.109129 -1.680811
1.794106 4.404776 -1.668494
1.935934 4.762696 -1.661631
2.086870 5.145901 -1.645781
2.270703 5.609722 -1.633965
2.483094 6.148689 -1.617110
2.554759 6.324797 -1.491954
3.047373 7.572581 -1.576634
3.351379 8.452695 -1.529109
3.761731 9.505583 -1.468544
4.336828 10.975908 -1.406611
5.025470 12.735100 -1.302817
6.047965 15.356242 -1.176934
7.576336 19.264097 -0.986039
6.522550 16.540918 -0.428615
16.393541 41.836147 -0.022475
14.266599 36.345486 0.890012
13.244581 33.692867 1.676593
12.939312 32.894333 2.464101
12.920832 32.812622 3.286128
13.209739 33.515270 4.212294
13.186639 33.438492 5.054926
12.057308 30.526588 5.400540
12.216361 30.899336 6.271977
0.214789 0.356911 -0.344117
0.222289 0.375406 -0.337533
0.242019 0.425091 -0.348157
0.268768 0.492135 -0.365325
0.333179 0.654258 -0.427380
0.655792 1.468091 -0.792503
1.497306 3.591088 -1.698758
1.590427 3.821994 -1.685867
1.702211 4.099379 -1.680809
1.821794 4.398164 -1.669774
1.964278 4.751738 -1.661630
2.118365 5.133714 -1.645781
2.302487 5.593233 -1.632951
2.521953 6.137743 -1.618035
2.570011 6.251668 -1.478624
3.100510 7.572906 -1.580347
3.403085 8.439043 -1.530087
3.822650 9.492601 -1.469945
4.406717 10.965831 -1.408480
5.101070 12.709949 -1.303198
6.149421 15.344516 -1.178770
7.711523 19.279911 -0.989061
11.772407 29.500969 -0.758623
16.731422 41.963482 -0.022612
13.766375 34.475433 0.846057
13.379307 33.466038 1.669076
13.136450 32.821060 2.464346
13.018019 32.489712 3.261487
13.433377 33.514687 4.221755
13.373062 33.328785 5.050174
13.583789 33.821888 5.994746
13.794531 34.331455 6.981111
0.218567 0.357490 -0.345131
0.228137 0.380817 -0.341449
0.247548 0.428832 -0.350970
0.273358 0.492447 -0.366216
0.339952 0.657619 -0.429943
1.444474 3.399742 -1.722288
1.520960 3.585833 -1.700299
1.618266 3.825141 -1.690962
1.728158 4.093266 -1.682177
1.848769 4.389633 -1.670414
1.993284 4.742392 -1.662225
2.149571 5.123487 -1.646332
2.337060 5.583747 -1.633965
2.561134 6.130615 -1.619883
2.583014 6.181313 -1.465711
3.148815 7.568498 -1.582946
3.459201 8.431812 -1.532366
3.887017 9.492773 -1.473299
4.476353 10.949011 -1.409650
5.184015 12.696399 -1.304886
6.248975 15.335071 -1.180745
6.699068 16.436123 -0.847233
0.005382 -0.174083 -0.005189
17.063267 42.089401 -0.022746
13.903982 34.226677 0.841915
13.745481 33.816692 1.690388
13.335685 32.769299 2.466118
13.175238 32.355972 3.255352
13.525388 33.186775 4.190234
13.794786 33.816895 5.135637
13.842888 33.917809 6.025123
0.005382 -0.174083 -0.005189
0.220198 0.353328 -0.343083
0.229909 0.376573 -0.339482
0.249564 0.424434 -0.349085
0.275730 0.487875 -0.364415
0.345394 0.657582 -0.430793
1.464309 3.389949 -1.721471
1.543300 3.580972 -1.701840
1.641927 3.817750 -1.691688
1.752649 4.083512 -1.682175
1.873536 4.375683 -1.669130
2.022238 4.732872 -1.662821
2.182168 5.116623 -1.647987
2.373807 5.579415 -1.636501
2.592138 6.103448 -1.616650
2.604205 6.126375 -1.456547
3.199143 7.560874 -1.585175
3.509356 8.418133 -1.533343
3.947017 9.481522 -1.474978
4.543551 10.937012 -1.411285
5.256445 12.669399 -1.305080
6.351638 15.332373 -1.183281
6.873323 16.598446 -0.857390
12.639935 30.649946 -0.791478
17.398607 42.216579 -0.022882
14.160109 34.306107 0.845763
14.001444 33.885197 1.697747
13.560558 32.779068 2.472608
13.479187 32.548302 3.282518
13.717717 33.110550 4.190434
14.050405 33.883774 5.157811
14.287093 34.422901 6.129249
14.396730 34.670689 7.082670
0.225957 0.358639 -0.347161
0.229137 0.365796 -0.333594
0.253089 0.423205 -0.349079
0.278260 0.483190 -0.362612
0.346164 0.645782 -0.425650
1.482652 3.376665 -1.719026
1.564096 3.568617 -1.700294
1.665532 3.808209 -1.691686
1.777837 4.075366 -1.682858
1.899707 4.363009 -1.668488
2.051995 4.722826 -1.663416
2.211812 5.102477 -1.647434
2.405597 5.560157 -1.634979
2.604877 6.033055 -1.602332
2.622984 6.070061 -1.446966
3.251153 7.560728 -1.588887
3.563972 8.406565 -1.534972
4.011579 9.480879 -1.478331
4.615386 10.924835 -1.413152
5.335499 12.645648 -1.305835
6.449130 15.316124 -1.184835
0.005388 -0.173608 -0.005176
0.005388 -0.173608 -0.005176
17.735205 42.339455 -0.023016
14.355652 34.201580 0.845228
14.112831 33.586227 1.686905
13.909087 33.081844 2.501297
13.624068 32.367661 3.272127
13.618363 32.321712 4.101031
13.962700 33.126820 5.055077
14.401787 34.140259 6.093634
14.535911 34.425579 7.050117
0.231687 0.363938 -0.351238
0.233590 0.367947 -0.335548
0.255818 0.420374 -0.348133
0.282721 0.483488 -0.363504
0.354360 0.652353 -0.429925
1.502320 3.366655 -1.718209
1.587727 3.564910 -1.702606
1.686956 3.795401 -1.690227
1.801491 4.063597 -1.682171
1.926500 4.354014 -1.669127
2.079387 4.709460 -1.662818
2.245111 5.097006 -1.649642
2.440034 5.550048 -1.635993
2.619955 5.969896 -1.589862
2.658842 6.055142 -1.446966
3.302518 7.558440 -1.592229
3.617085 8.395288 -1.536600
4.072415 9.470686 -1.480289
4.683752 10.909351 -1.414554
5.411428 12.620512 -1.306402
6.556706 15.323137 -1.188212
8.301147 19.430040 -1.006125
0.005378 -0.173378 -0.005169
0.005378 -0.173378 -0.005169
30.380617 71.427734 1.770375
0.005378 -0.173378 -0.005169
14.205407 33.249496 2.519997
14.008893 32.754528 3.319090
14.303751 33.414783 4.249412
14.260246 33.295895 5.093074
15.738958 36.731468 6.570080
14.845698 34.602032 7.103298
0.232053 0.356533 -0.347148
0.238061 0.370062 -0.337503
0.259233 0.419161 -0.348127
0.291421 0.493610 -0.369785
0.358404 0.648915 -0.429063
1.524087 3.361573 -1.719834
1.607726 3.552586 -1.701060
1.712683 3.792737 -1.693137
1.825814 4.053425 -1.682169
1.952500 4.343125 -1.669125
2.108916 4.701177 -1.664009
2.273862 5.080746 -1.648537
2.473679 5.537965 -1.636500
2.630499 5.897827 -1.575082
2.703139 6.059748 -1.451548
3.352366 7.552198 -1.594828
3.666300 8.374612 -1.536603
4.133265 9.460117 -1.482247
4.754450 10.898932 -1.416654
5.491966 12.605912 -1.308088
6.659874 15.318438 -1.190747
7.618272 17.532238 -0.911444
13.457265 31.081470 -0.808412
18.295681 42.302212 -0.023168
0.005366 -0.173146 -0.005162
14.572127 33.589165 1.695252
14.571297 33.570526 2.550489
14.669538 33.765057 3.429511
14.592823 33.554688 4.277629
14.431223 33.164547 5.085550
15.637093 35.916199 6.440658
0.005366 -0.173146 -0.005162
0.233719 0.352300 -0.345100
0.240492 0.367353 -0.336517
0.263316 0.419535 -0.349060
0.291657 0.483987 -0.365288
0.363837 0.648756 -0.429914
1.541472 3.346318 -1.716575
1.630595 3.546921 -1.702600
1.733213 3.777963 -1.690950
1.849325 4.041395 -1.681482
1.979205 4.333824 -1.669765
2.136925 4.689239 -1.664008
2.304801 5.069606 -1.649088
2.508798 5.529219 -1.638021
2.651272 5.850788 -1.566768
2.770432 6.115993 -1.468212
3.403074 7.547452 -1.597798
3.719320 8.362693 -1.538230
4.194103 9.449157 -1.484204
4.820415 10.877134 -1.417358
5.566960 12.578042 -1.308468
6.754425 15.292949 -1.191739
0.005355 -0.172916 -0.005155
0.005355 -0.172916 -0.005155
31.976793 72.914131 -0.036294
0.005355 -0.172916 -0.005155
15.713981 35.667946 1.804423
15.238603 34.566341 2.632451
15.027711 34.052414 3.467222
14.811275 33.526875 4.284776
14.964567 33.859146 5.204600
15.586006 35.238842 6.335498
20.874142 47.212124 9.729159
0.236706 0.351198 -0.345094
0.244292 0.367818 -0.337491
0.265999 0.416658 -0.348115
0.295443 0.482573 -0.365283
0.361222 0.630387 -0.421344
1.560193 3.334317 -1.714943
1.652706 3.539433 -1.703370
1.758165 3.773298 -1.693132
1.873539 4.030958 -1.681480
2.005853 4.324363 -1.670403
2.164049 4.675380 -1.663410
2.334900 5.056523 -1.649087
2.543918 5.520265 -1.639543
2.657318 5.771729 -1.550140
2.836060 6.166313 -1.483626
3.448212 7.529812 -1.598171
3.773107 8.352251 -1.540182
4.252565 9.432390 -1.485324
4.888685 10.860389 -1.418759
5.646627 12.560645 -1.309968
6.852131 15.274179 -1.193292
8.752278 19.542204 -1.019415
0.005344 -0.172686 -0.005149
0.005344 -0.172686 -0.005149
0.005344 -0.172686 -0.005149
15.947414 35.639313 1.807532
14.889359 33.246338 2.538638
15.167493 33.838387 3.454242
14.929518 33.272713 4.263216
15.092180 33.620899 5.181254
0.005344 -0.172686 -0.005149
21.995327 48.989902 10.120083
0.241115 0.353229 -0.347130
0.248806 0.369844 -0.339445
0.269377 0.415383 -0.348109
0.302112 0.487636 -0.368869
0.368047 0.633502 -0.423907
1.585442 3.335266 -1.719826
1.672501 3.526762 -1.701823
1.780075 3.761693 -1.692402
1.899176 4.021756 -1.682162
2.031672 4.313011 -1.670401
2.194251 4.668337 -1.665198
2.365032 5.041103 -1.648533
2.577392 5.507558 -1.640049
2.678036 5.724247 -1.541826
2.883252 6.171031 -1.488625
3.492146 7.505926 -1.597430
3.824485 8.336076 -1.541160
4.318325 9.427162 -1.488399
4.956921 10.843225 -1.420161
5.732011 12.555469 -1.312773
6.953368 15.255413 -1.194986
0.005334 -0.172455 -0.005142
7.369743 16.156700 -0.428059
7.441765 16.300821 -0.012232
0.005334 -0.172455 -0.005142
0.005334 -0.172455 -0.005142
15.712200 34.539299 2.644043
16.770369 36.842937 3.769825
15.401167 33.803616 4.342136
15.369018 33.700722 5.207315
0.005334 -0.172455 -0.005142
0.005334 -0.172455 -0.005142
0.244235 0.352062 -0.347124
0.249846 0.363869 -0.336498
0.275066 0.418868 -0.350922
0.304524 0.482845 -0.367066
0.371312 0.628286 -0.422189
1.606960 3.327736 -1.720637
1.695152 3.518726 -1.702592
1.803334 3.751333 -1.692399
1.925566 4.014114 -1.683530
2.058182 4.301147 -1.670399
2.224476 4.658979 -1.666389
2.397479 5.030751 -1.649636
2.614217 5.499477 -1.642077
2.693382 5.666112 -1.530740
2.935505 6.186074 -1.496123
3.542514 7.496072 -1.599658
3.881368 8.327891 -1.543762
4.376758 9.405273 -1.488960
5.024554 10.819342 -1.420864
5.813934 12.536034 -1.314273
7.053754 15.234155 -1.196539
7.421185 16.029556 -0.843096
7.465518 16.111197 -0.428023
0.005322 -0.172223 -0.005135
8.250592 17.799448 0.446151
0.005322 -0.172223 -0.005135
15.629230 33.818615 2.596012
24.903330 53.944481 5.528773
0.005322 -0.172223 -0.005135
0.005322 -0.172223 -0.005135
0.005322 -0.172223 -0.005135
22.515839 48.617897 10.096712
0.250846 0.358720 -0.352221
0.253644 0.364271 -0.337472
0.276948 0.414328 -0.349036
0.302279 0.468389 -0.359876
0.372077 0.618199 -0.417900
1.626439 3.318986 -1.720633
1.715576 3.507519 -1.701818
1.825064 3.739471 -1.691668
1.949663 4.005281 -1.684212
2.083088 4.287795 -1.669756
2.249807 4.641191 -1.664598
2.427270 5.019318 -1.650187
2.651705 5.495139 -1.645120
2.705309 5.607202 -1.519192
2.960977 6.148614 -1.491124
3.592713 7.492487 -1.602998
3.934322 8.314652 -1.545389
4.434230 9.389964 -1.490358
5.085168 10.785134 -1.420170
5.896107 12.522522 -1.316331
7.142900 15.202093 -1.197109
7.707828 16.403570 -0.864714
7.613825 16.186108 -0.431101
7.571640 16.087759 -0.012198
7.584703 16.100780 0.404567
0.005310 -0.171989 -0.005128
16.096794 34.327923 2.641766
37.959721 81.126518 8.329787
0.005310 -0.171989 -0.005128
26.681410 56.888840 8.821986
0.005310 -0.171989 -0.005128
22.539190 47.939671 9.982855
0.246583 0.341968 -0.342007
0.255975 0.361488 -0.336485
0.281817 0.416188 -0.350909
0.308990 0.473368 -0.363462
0.381230 0.626117 -0.423033
1.645685 3.308174 -1.719816
1.736695 3.497850 -1.701815
1.849130 3.732548 -1.693122
1.973625 3.994249 -1.684209
2.109495 4.277715 -1.670395
2.279059 4.631876 -1.665789
2.456259 5.003801 -1.649633
2.685883 5.483547 -1.646133
2.716795 5.546088 -1.507181
3.006478 6.151178 -1.495706
3.635866 7.470185 -1.602628
3.986413 8.299299 -1.546691
4.491672 9.369948 -1.491199
5.156545 10.773947 -1.422502
5.983418 12.519295 -1.319508
7.243086 15.186293 -1.199081
9.310736 19.555586 -1.030933
7.722268 16.173059 -0.431913
7.691468 16.100267 -0.012232
7.689257 16.080666 0.405151
0.005325 -0.171744 -0.005122
25.955963 54.641125 4.211542
0.005325 -0.171744 -0.005122
27.122782 57.000935 7.369354
25.502712 53.560364 8.329538
0.005325 -0.171744 -0.005122
22.790138 47.756310 9.971726
0.256165 0.354767 -0.351188
0.261280 0.364989 -0.339420
0.283671 0.411637 -0.349024
0.310384 0.467009 -0.360762
0.392055 0.637225 -0.429878
1.664876 3.297267 -1.718998
1.758570 3.489732 -1.702583
1.870745 3.720433 -1.692391
1.998367 3.984792 -1.684891
2.135029 4.265764 -1.670392
2.308291 4.622395 -1.666980
2.494281 5.007168 -1.655151
2.717540 5.466538 -1.645625
2.728533 5.486800 -1.495633
3.042776 6.134043 -1.495705
3.684021 7.458268 -1.604484
4.040992 8.288962 -1.548968
4.549013 9.349583 -1.492039
5.224538 10.755132 -1.423902
6.064015 12.501102 -1.321193
7.339884 15.162653 -1.200493
0.005315 -0.171514 -0.005115
0.005315 -0.171514 -0.005115
7.931892 16.362633 -0.012376
10.434690 21.563492 0.545042
0.005315 -0.171514 -0.005115
0.005315 -0.171514 -0.005115
27.460117 56.914871 5.879385
0.005315 -0.171514 -0.005115
25.982246 53.768215 8.384727
0.005315 -0.171514 -0.005115
0.005315 -0.171514 -0.005115
0.253962 0.342721 -0.344036
0.264342 0.363734 -0.339414
14.779635 30.327850 -18.041563
0.318722 0.475124 -0.366144
0.390383 0.622213 -0.423021
1.685604 3.289546 -1.719809
1.782797 3.486448 -1.705666
1.896345 3.716572 -1.695301
2.022223 3.973491 -1.684888
2.158031 4.248573 -1.668467
2.335812 4.609300 -1.666978
2.516434 4.977453 -1.650182
2.738853 5.428466 -1.639029
2.741373 5.431059 -1.485008
3.086722 6.132525 -1.499454
3.732128 7.446034 -1.606340
4.096460 8.280060 -1.551570
4.608852 9.334220 -1.493716
5.299398 10.750190 -1.427165
6.146355 12.486002 -1.323251
7.439262 15.143790 -1.202325
0.005304 -0.171283 -0.005108
8.015510 16.301270 -0.437645
7.856204 15.966311 -0.012230
8.017444 16.282919 0.412524
31.557625 64.568176 3.324777
0.005304 -0.171283 -0.005108
0.005304 -0.171283 -0.005108
0.005304 -0.171283 -0.005108
26.549360 54.144951 8.466839
27.564251 56.171097 10.274028
0.005304 -0.171283 -0.005108
0.258412 0.344598 -0.346071
0.266658 0.360913 -0.338427
14.961011 30.255264 -18.049103
0.314525 0.457501 -0.357157
0.397329 0.625081 -0.425584
1.706881 3.281400 -1.720620
1.801342 3.471428 -1.703348
1.912049 3.692488 -1.689472
2.046730 3.961693 -1.684886
2.185925 4.241448 -1.670388
2.363271 4.596056 -1.666976
2.551165 4.971333 -1.652940
2.751262 5.373016 -1.627360
2.764147 5.394062 -1.479464
3.107497 6.081098 -1.491538
3.780684 7.431092 -1.607825
4.149324 8.265477 -1.553196
4.666852 9.310576 -1.494277
5.368237 10.732275 -1.428797
6.230463 12.473938 -1.325682
7.549259 15.139077 -1.205421
8.162951 16.377069 -0.872833
8.102121 16.239031 -0.437229
8.098672 16.217426 -0.012372
8.103051 16.218884 0.412059
27.519064 55.467419 2.864710
27.624798 55.631550 4.323901
0.005293 -0.171053 -0.005101
0.005293 -0.171053 -0.005101
26.993898 54.235397 8.505650
27.971256 56.155571 10.301148
0.005293 -0.171053 -0.005101
0.259145 0.338698 -0.343002
0.267446 0.354897 -0.335480
15.151301 30.186867 -18.061340
0.325427 0.470281 -0.365234
0.400415 0.619744 -0.423865
1.725869 3.270144 -1.719802
1.822077 3.459311 -1.702573
1.939925 3.691355 -1.693838
2.068785 3.946762 -1.683514
2.212002 4.228666 -1.670385
2.392313 4.583931 -1.667570
2.581547 4.958552 -1.653490
2.761460 5.311934 -1.614170
2.796960 5.380070 -1.479925
3.160105 6.096583 -1.499453
3.825234 7.411253 -1.608197
4.207144 8.256898 -1.556123
4.724823 9.290930 -1.495396
5.438943 10.712977 -1.430431
6.325726 12.478027 -1.329979
7.653206 15.127792 -1.207954
0.005282 -0.170821 -0.005094
8.189364 16.171347 -0.436719
8.254597 16.294237 -0.012436
0.005282 -0.170821 -0.005094
28.454008 56.510727 2.927105
30.475342 60.510883 4.715870
0.005282 -0.170821 -0.005094
26.172800 51.850471 6.781126
0.005282 -0.170821 -0.005094
30.408604 60.191082 11.071247
0.005282 -0.170821 -0.005094
0.266724 0.346674 -0.349121
0.272053 0.356734 -0.337435
15.331994 30.112068 -18.068878
0.326672 0.463877 -0.362533
0.405615 0.619367 -0.424716
1.746468 3.262062 -1.720613
1.845422 3.453968 -1.704885
1.962249 3.682392 -1.694563
2.095830 3.941760 -1.686250
2.237365 4.218220 -1.671023
2.419662 4.572486 -1.668164
2.611851 4.945589 -1.654040
2.774418 5.262248 -1.604022
0.005271 -0.170591 -0.005088
3.203866 6.096539 -1.503617
3.874589 7.404064 -1.611166
4.256437 8.234595 -1.556449
4.782726 9.270936 -1.496515
5.506835 10.692425 -1.431831
6.414567 12.473682 -1.333343
7.754572 15.110481 -1.210066
10.068123 19.655249 -1.050820
0.005271 -0.170591 -0.005088
8.354560 16.257456 -0.012449
28.455429 55.758926 1.426690
0.005271 -0.170591 -0.005088
0.005271 -0.170591 -0.005088
28.411238 55.573792 5.806680
0.005271 -0.170591 -0.005088
0.005271 -0.170591 -0.005088
0.005271 -0.170591 -0.005088
0.005271 -0.170591 -0.005088
0.268017 0.342372 -0.347073
0.278953 0.363223 -0.342330
0.302698 0.409262 -0.351812
0.331029 0.463903 -0.363425
0.408509 0.614075 -0.422997
1.766998 3.253844 -1.721424
1.869802 3.452076 -1.708739
1.986084 3.674620 -1.696016
2.118580 3.928231 -1.685562
2.266030 4.212277 -1.673584
2.442494 4.550266 -1.665179
2.643874 4.935874 -1.655694
2.786048 5.208648 -1.592860
0.005260 -0.170360 -0.005081
3.240049 6.075977 -1.503200
3.923011 7.388216 -1.612651
4.314030 8.232063 -1.560350
4.840533 9.250581 -1.497633
5.572732 10.672405 -1.433230
6.497700 12.462772 -1.335959
7.858742 15.097839 -1.212599
10.223302 19.686113 -1.055436
11.056321 21.286238 -0.575095
11.035824 21.227861 -0.014717
17.574896 33.897999 0.869523
17.577324 33.873161 1.766148
0.005260 -0.170360 -0.005081
28.551668 55.038593 5.768341
0.005260 -0.170360 -0.005081
0.005260 -0.170360 -0.005081
0.005260 -0.170360 -0.005081
0.005260 -0.170360 -0.005081
0.266290 0.331887 -0.340942
0.277281 0.352548 -0.336442
0.306107 0.407714 -0.351805
0.336406 0.465354 -0.365215
0.409784 0.605487 -0.419565
1.785804 3.242265 -1.720606
1.886103 3.431382 -1.704106
2.008818 3.663043 -1.696013
2.142096 3.916236 -1.685559
2.292827 4.200709 -1.674223
2.471295 4.537661 -1.665773
2.674973 4.924250 -1.656796
2.795402 5.149480 -1.580177
2.957386 5.455844 -1.513177
3.277736 6.060973 -1.504033
3.972786 7.377961 -1.615248
4.369204 8.217125 -1.562302
4.901946 9.236912 -1.499868
5.651570 10.667654 -1.436958
6.580711 12.440207 -1.337644
7.961154 15.080956 -1.214851
0.005249 -0.170130 -0.005074
0.005249 -0.170130 -0.005074
0.005249 -0.170130 -0.005074
11.198549 21.222147 0.545781
0.005249 -0.170130 -0.005074
17.794245 33.783577 2.659868
17.805096 33.775085 3.555326
0.005249 -0.170130 -0.005074
0.005249 -0.170130 -0.005074
27.487211 52.126564 9.676714
0.005249 -0.170130 -0.005074
0.275597 0.342786 -0.349103
0.279458 0.349665 -0.335455
0.304490 0.396850 -0.346161
0.338397 0.460520 -0.363413
0.409173 0.593799 -0.414421
1.805122 3.230264 -1.719788
1.907637 3.422366 -1.704874
2.029950 3.650042 -1.695281
2.167144 3.905391 -1.686241
2.316148 4.184370 -1.672938
2.498322 4.523632 -1.665771
2.706904 4.911967 -1.657898
2.805062 5.094300 -1.568508
2.987916 5.433328 -1.511789
3.312743 6.038248 -1.503198
4.022052 7.363221 -1.617104
4.418255 8.193858 -1.562627
4.958501 9.209707 -1.500149
5.677581 10.566731 -1.427883
6.658679 12.412973 -1.338768
8.072828 15.074341 -1.218086
8.923214 16.673889 -0.901536
9.029217 16.859550 -0.460269
0.005239 -0.169900 -0.005067
8.989727 16.763216 0.432272
29.364891 55.117203 2.888965
0.005239 -0.169900 -0.005067
33.660934 63.098988 6.651732
18.023895 33.688511 4.464552
0.005239 -0.169900 -0.005067
0.005239 -0.169900 -0.005067
0.005239 -0.169900 -0.005067
0.277814 0.339892 -0.348076
0.280871 0.345185 -0.333488
0.309505 0.398411 -0.348034
0.341267 0.457189 -0.362508
0.411830 0.588505 -0.412702
1.827241 3.224922 -1.722227
1.928021 3.409644 -1.704099
2.052768 3.640211 -1.696006
2.191433 3.894778 -1.686922
2.345630 4.179581 -1.676140
2.525284 4.509460 -1.665768
2.736090 4.896584 -1.657896
2.815997 5.042585 -1.557852
3.022841 5.421446 -1.513173
3.356580 6.037146 -1.507362
4.070533 7.353043 -1.619701
4.476117 8.183459 -1.565554
5.017024 9.190033 -1.501546
5.730790 10.513919 -1.425326
6.742528 12.391119 -1.340638
8.175448 15.056063 -1.220337
0.005254 -0.169654 -0.005061
0.005254 -0.169654 -0.005061
9.085331 16.715761 -0.012781
9.090834 16.711685 0.432309
27.997318 51.818298 2.724611
29.500061 54.562893 4.317397
29.132999 53.858566 5.696442
18.239985 33.624805 4.469853
28.527697 52.646358 8.406311
28.423553 52.430958 9.792753
0.005254 -0.169654 -0.005061
0.283915 0.344641 -0.352153
0.287877 0.351528 -0.338383
17.546425 32.147297 -19.575247
0.348152 0.461814 -0.366094
0.420358 0.594397 -0.416978
1.845267 3.213339 -1.721409
1.951474 3.405581 -1.707182
2.079326 3.638782 -1.700372
2.214047 3.882751 -1.686919
2.368917 4.165024 -1.675496
2.552233 4.497238 -1.666362
2.762448 4.878133 -1.656789
0.005244 -0.169424 -0.005054
3.055833 5.408183 -1.514094
3.403348 6.040910 -1.512777
4.119976 7.344286 -1.622669
4.523555 8.160364 -1.565879
5.074805 9.172626 -1.503222
5.789302 10.480309 -1.425095
6.822898 12.372824 -1.342694
8.284019 15.054313 -1.223851
10.847788 19.751995 -1.071924
0.005244 -0.169424 -0.005054
9.250161 16.795069 -0.012848
10.521338 19.111485 0.495980
0.005244 -0.169424 -0.005054
0.005244 -0.169424 -0.005054
30.274921 55.235214 5.859373
29.073895 52.992199 7.055683
0.005244 -0.169424 -0.005054
0.005244 -0.169424 -0.005054
28.589525 51.996517 11.177443
0.285277 0.340197 -0.350104
0.290128 0.348562 -0.337397
17.754633 32.073936 -19.594061
0.348426 0.453746 -0.362495
0.425867 0.593668 -0.417828
1.863503 3.199413 -1.719776
1.971713 3.392601 -1.706406
2.097079 3.616503 -1.695999
2.238015 3.869834 -1.686915
2.395309 4.150765 -1.675493
2.588049 4.495213 -1.671131
2.795073 4.866982 -1.658443
2.836293 4.937118 -1.536034
3.089776 5.391955 -1.514555
3.440192 6.018583 -1.512359
4.168566 7.324432 -1.623782
4.576618 8.140598 -1.567179
5.135782 9.153068 -1.504898
5.852290 10.446091 -1.425097
6.901906 12.341183 -1.343631
8.380804 15.017464 -1.224839
0.005230 -0.169189 -0.005047
18.931009 34.089848 -0.929566
10.622624 19.042080 -0.013918
20.124491 36.204506 0.943210
0.005230 -0.169189 -0.005047
0.005230 -0.169189 -0.005047
20.169201 36.209209 3.858416
20.186668 36.210403 4.842984
20.179289 36.181740 5.820625
0.005230 -0.169189 -0.005047
0.005230 -0.169189 -0.005047
0.286513 0.335802 -0.348056
0.293935 0.348667 -0.338371
17.951807 31.993124 -19.607237
0.350264 0.448878 -0.360693
0.421427 0.575693 -0.409258
1.888186 3.198466 -1.724657
1.993057 3.383071 -1.707174
2.122458 3.611148 -1.698908
2.262107 3.858790 -1.687597
2.420113 4.137183 -1.675490
2.616679 4.483839 -1.672321
2.829652 4.861152 -1.661753
2.845689 4.885563 -1.525378
3.121684 5.374347 -1.514552
3.474774 5.997267 -1.511941
4.216423 7.309169 -1.625637
4.633937 8.131643 -1.570430
5.187353 9.120179 -1.504341
5.919045 10.422934 -1.426496
6.984387 12.320660 -1.345687
8.484550 14.998894 -1.227231
11.128372 19.711693 -1.076643
19.090578 33.914402 -0.927793
0.005220 -0.168958 -0.005040
0.005220 -0.168958 -0.005040
25.120230 44.589363 2.367537
0.005220 -0.168958 -0.005040
29.585102 52.480705 5.604392
34.052990 60.383026 8.090163
29.404312 52.093754 8.397595
20.411232 36.076771 6.811483
0.005220 -0.168958 -0.005040
0.285201 0.326933 -0.342946
0.297754 0.348746 -0.339344
0.323309 0.393722 -0.348948
0.357330 0.453339 -0.364280
0.427482 0.576666 -0.410965
1.907206 3.185894 -1.723840
2.016190 3.376634 -1.709485
2.144148 3.599136 -1.698905
2.285943 3.845587 -1.687593
2.445767 4.125102 -1.676127
2.646230 4.473961 -1.674108
2.846074 4.821169 -1.654021
0.005209 -0.168728 -0.005033
3.149660 5.347570 -1.512241
3.518991 5.990424 -1.515272
4.264524 7.291132 -1.627121
4.683510 8.108549 -1.571079
5.251070 9.105058 -1.506854
5.983737 10.395886 -1.427429
7.065903 12.297880 -1.347557
8.586060 14.969443 -1.228921
11.335153 19.811003 -1.085486
19.258587 33.755634 -0.926491
0.005209 -0.168728 -0.005033
0.005209 -0.168728 -0.005033
0.005209 -0.168728 -0.005033
0.005209 -0.168728 -0.005033
31.396729 54.938400 5.885888
0.005209 -0.168728 -0.005033
0.005209 -0.168728 -0.005033
0.005209 -0.168728 -0.005033
0.005209 -0.168728 -0.005033
0.287265 0.324003 -0.341918
0.299061 0.344204 -0.337377
0.326637 0.392063 -0.348942
0.363670 0.456124 -0.366968
0.435357 0.580729 -0.414384
1.928269 3.178296 -1.725464
2.035300 3.361682 -1.707938
2.164859 3.585398 -1.698173
2.308978 3.832632 -1.687590
2.472311 4.114513 -1.677406
2.677639 4.467190 -1.677088
2.865110 4.788332 -1.648498
2.867848 4.791033 -1.506603
3.182293 5.331310 -1.512700
3.553267 5.970964 -1.515270
4.307039 7.269204 -1.627491
4.744250 8.101466 -1.574980
5.306264 9.078402 -1.507413
6.049196 10.365686 -1.428129
7.149546 12.273328 -1.349426
8.681889 14.935646 -1.230189
9.764510 16.806355 -0.926109
0.005198 -0.168498 -0.005027
0.005198 -0.168498 -0.005027
9.663038 16.595493 0.436287
0.005198 -0.168498 -0.005027
0.005198 -0.168498 -0.005027
31.411850 54.257385 5.831655
31.196239 53.839684 7.262721
30.145222 51.977264 8.434714
29.438776 50.734039 9.630854
0.005198 -0.168498 -0.005027
0.296030 0.333062 -0.349058
0.301049 0.341290 -0.336391
0.327981 0.387443 -0.347057
0.364444 0.449710 -0.364267
0.438738 0.576912 -0.413522
1.945067 3.164598 -1.723831
2.056810 3.353729 -1.709477
2.186396 3.573142 -1.698169
2.332192 3.821577 -1.688271
2.496891 4.100486 -1.677403
2.701347 4.447027 -1.675295
2.863601 4.722750 -1.631933
2.888502 4.761364 -1.502542
3.216840 5.320462 -1.514545
3.587519 5.949002 -1.514851
4.358677 7.259838 -1.630830
4.794256 8.081977 -1.576280
5.365711 9.062641 -1.509647
6.116798 10.347505 -1.430225
7.237825 12.266239 -1.352974
8.778011 14.907965 -1.231877
11.621448 19.778240 -1.090861
9.784538 16.610405 -0.463815
0.005186 -0.168266 -0.005020
0.005186 -0.168266 -0.005020
0.005186 -0.168266 -0.005020
0.005186 -0.168266 -0.005020
31.563425 53.801090 5.802024
31.608589 53.834568 7.286298
34.854546 59.356739 9.660297
0.005186 -0.168266 -0.005020
0.005186 -0.168266 -0.005020
0.293687 0.322724 -0.342927
0.304860 0.341317 -0.337365
0.329356 0.382759 -0.345171
0.369792 0.450943 -0.366057
0.443934 0.576197 -0.414372
1.964758 3.153265 -1.723827
2.078902 3.345283 -1.711016
2.211663 3.567184 -1.701078
2.356727 3.809559 -1.688952
2.524278 4.091208 -1.679322
2.730756 4.436608 -1.677081
2.875871 4.677842 -1.622545
2.917785 4.746599 -1.503047
3.241352 5.288177 -1.510847
3.632660 5.943033 -1.518599
4.407611 7.242586 -1.632684
4.843612 8.057939 -1.576930
5.413261 9.018999 -1.507693
6.182214 10.320984 -1.431390
7.315259 12.234962 -1.354096
8.843876 14.816440 -1.228655
0.005176 -0.168035 -0.005013
9.845263 16.493870 -0.462168
9.821321 16.439943 -0.012877
9.842093 16.468296 0.435819
0.005176 -0.168035 -0.005013
0.005176 -0.168035 -0.005013
0.005176 -0.168035 -0.005013
31.271128 52.560310 7.138340
31.331144 52.619026 8.596174
29.929192 50.216061 9.598120
29.286171 49.113338 10.771151
0.299199 0.325659 -0.345982
0.296240 0.320294 -0.324613
0.326286 0.370452 -0.338587
0.367937 0.439792 -0.360662
0.437987 0.556817 -0.404945
1.985690 3.145310 -1.725451
2.095880 3.326828 -1.707926
2.233093 3.554662 -1.701074
2.379578 3.796216 -1.688949
2.551647 4.081757 -1.681241
2.758174 4.422732 -1.677674
2.884862 4.630160 -1.612053
2.942998 4.725019 -1.501521
3.282670 5.286376 -1.515464
3.672739 5.933011 -1.521096
4.452924 7.224897 -1.634168
4.897285 8.037819 -1.578554
5.472068 8.998180 -1.509368
6.251376 10.296375 -1.433021
7.405987 12.220737 -1.357271
8.936028 14.775873 -1.229502
11.885296 19.694881 -1.093791
9.953212 16.457832 -0.462740
9.927945 16.402328 -0.012892
9.961017 16.444252 0.436725
0.005192 -0.167792 -0.005007
0.005192 -0.167792 -0.005007
0.005192 -0.167792 -0.005007
0.005192 -0.167792 -0.005007
0.005192 -0.167792 -0.005007
31.056009 51.455845 9.867188
0.005192 -0.167792 -0.005007
0.300177 0.321306 -0.343934
0.289040 0.302481 -0.313822
0.311013 0.338660 -0.319787
0.349130 0.401295 -0.339101
0.408465 0.498888 -0.374108
2.005663 3.135663 -1.726261
2.118210 3.320088 -1.710236
2.256394 3.545206 -1.702526
2.402304 3.782713 -1.688944
2.578969 4.072124 -1.683161
2.787490 4.411949 -1.679460
2.892426 4.580901 -1.601008
0.005182 -0.167561 -0.005000
3.322065 5.280968 -1.519156
3.704742 5.904722 -1.519428
4.496645 7.198648 -1.634166
4.948065 8.019096 -1.580179
5.528781 8.973609 -1.510485
6.319889 10.278615 -1.435349
7.489364 12.203359 -1.359886
9.077595 14.816659 -1.237084
12.044495 19.708876 -1.098216
0.005182 -0.167561 -0.005000
10.045874 16.382851 -0.012915
0.005182 -0.167561 -0.005000
0.005182 -0.167561 -0.005000
0.005182 -0.167561 -0.005000
0.005182 -0.167561 -0.005000
32.383537 53.032684 7.252170
0.005182 -0.167561 -0.005000
0.005182 -0.167561 -0.005000
0.005182 -0.167561 -0.005000
0.302168 0.318317 -0.342907
0.295443 0.306965 -0.317738
0.307548 0.326534 -0.313203
0.005170 -0.167329 -0.004993
0.339647 0.378083 -0.308159
2.025564 3.125885 -1.727071
2.141726 3.312453 -1.712547
2.276392 3.528856 -1.701066
2.426957 3.772304 -1.690310
2.611000 4.068333 -1.687644
2.817577 4.400493 -1.681247
2.906578 4.543176 -1.593828
3.012085 4.710607 -1.507603
3.359489 5.271984 -1.521925
3.745752 5.893562 -1.521925
4.543030 7.179605 -1.635649
4.997500 7.991577 -1.580503
5.586401 8.950365 -1.511880
6.388917 10.253099 -1.436980
7.569810 12.170919 -1.361194
9.185503 14.800187 -1.240034
12.216404 19.725977 -1.103111
0.005170 -0.167329 -0.004993
9.838228 15.832634 -0.012683
0.005170 -0.167329 -0.004993
0.005170 -0.167329 -0.004993
0.005170 -0.167329 -0.004993
0.005170 -0.167329 -0.004993
0.005170 -0.167329 -0.004993
0.005170 -0.167329 -0.004993
0.005170 -0.167329 -0.004993
0.005170 -0.167329 -0.004993
0.307663 0.321216 -0.345963
0.300001 0.308486 -0.319692
0.310367 0.325014 -0.313197
0.322738 0.344558 -0.307653
0.005159 -0.167099 -0.004986
2.053156 3.128418 -1.734394
2.160714 3.298767 -1.711771
2.300909 3.522697 -1.703975
2.450549 3.760130 -1.690991
2.639572 4.062003 -1.690845
2.843993 4.386582 -1.681839
2.900027 4.472819 -1.575606
3.052550 4.715333 -1.514194
3.402036 5.270987 -1.527003
3.779489 5.872845 -1.521922
4.591210 7.166084 -1.638245
5.045386 7.964654 -1.580827
5.638754 8.918359 -1.511880
6.459198 10.233327 -1.439308
7.646924 12.137590 -1.362316
9.296681 14.788057 -1.243406
0.005159 -0.167099 -0.004986
0.005159 -0.167099 -0.004986
9.882506 15.699664 -0.012651
0.005159 -0.167099 -0.004986
0.005159 -0.167099 -0.004986
0.005159 -0.167099 -0.004986
0.005159 -0.167099 -0.004986
0.005159 -0.167099 -0.004986
32.475883 51.788189 8.579954
0.005159 -0.167099 -0.004986
0.005159 -0.167099 -0.004986
0.309452 0.318294 -0.344936
0.304486 0.310017 -0.321646
0.309449 0.317512 -0.309432
0.324627 0.341497 -0.306749
0.344812 0.373188 -0.307290
0.359359 0.395869 -0.301357
2.180603 3.286545 -1.711767
2.320081 3.506508 -1.702514
2.476093 3.751002 -1.693041
2.663571 4.044951 -1.690201
2.871924 4.371521 -1.682432
0.005148 -0.166869 -0.004979
3.088659 4.708869 -1.517742
3.405038 5.204952 -1.514066
3.822519 5.859851 -1.524419
4.636683 7.142338 -1.638986
5.092735 7.939995 -1.581476
5.693004 8.889400 -1.512438
6.527651 10.214233 -1.441636
7.739765 12.133789 -1.366609
9.400565 14.763310 -1.245795
0.005148 -0.166869 -0.004979
0.005148 -0.166869 -0.004979
9.919173 15.556561 -0.012613
10.000029 15.672414 0.422159
0.005148 -0.166869 -0.004979
0.005148 -0.166869 -0.004979
0.005148 -0.166869 -0.004979
32.190193 50.698524 7.009018
0.005148 -0.166869 -0.004979
0.005148 -0.166869 -0.004979
0.005148 -0.166869 -0.004979
0.311488 0.315214 -0.343909
0.306450 0.306944 -0.320659
0.319005 0.326293 -0.316003
0.326767 0.338271 -0.305844
0.346153 0.368291 -0.305571
0.358859 0.387775 -0.298093
2.210567 3.287442 -1.718707
2.343439 3.494116 -1.703238
2.500963 3.737677 -1.693722
2.692274 4.033679 -1.692120
2.906778 4.365446 -1.686605
0.005138 -0.166638 -0.004973
3.105816 4.670659 -1.511651
3.442996 5.192537 -1.516373
3.864499 5.844923 -1.526500
4.685415 7.120794 -1.640468
5.144187 7.912371 -1.582125
5.752388 8.861457 -1.513555
6.597235 10.184538 -1.443033
7.808239 12.076549 -1.365492
9.509677 14.734550 -1.248185
10.190062 15.788823 -0.895512
10.044222 15.554172 -0.445710
10.009480 15.487601 -0.012613
10.074895 15.577703 0.421242
0.005138 -0.166638 -0.004973
0.005138 -0.166638 -0.004973
0.005138 -0.166638 -0.004973
0.005138 -0.166638 -0.004973
32.194160 49.986015 8.345380
0.005138 -0.166638 -0.004973
0.005138 -0.166638 -0.004973
0.312278 0.310828 -0.341860
0.310963 0.308418 -0.322614
0.317836 0.318888 -0.312238
0.328595 0.335195 -0.304940
0.348142 0.365094 -0.304708
0.362927 0.387560 -0.298901
2.230162 3.277249 -1.719473
2.362792 3.479684 -1.702505
2.522686 3.723930 -1.693718
2.716962 4.022509 -1.693397
2.927041 4.343524 -1.684214
2.930224 4.344944 -1.549096
3.135049 4.658944 -1.513169
3.473994 5.177379 -1.517293
3.907558 5.840622 -1.530663
4.728122 7.098114 -1.641209
5.192358 7.888800 -1.583099
5.820853 8.857795 -1.518299
0.005126 -0.166406 -0.004966
7.879611 12.038099 -1.366052
9.593712 14.683243 -1.248328
0.005126 -0.166406 -0.004966
10.162110 15.545205 -0.447036
10.125940 15.477153 -0.012639
0.005126 -0.166406 -0.004966
0.005126 -0.166406 -0.004966
0.005126 -0.166406 -0.004966
0.005126 -0.166406 -0.004966
0.005126 -0.166406 -0.004966
0.005126 -0.166406 -0.004966
0.005126 -0.166406 -0.004966
0.005126 -0.166406 -0.004966
0.314157 0.307793 -0.340833
0.312813 0.305370 -0.321627
0.322627 0.320214 -0.314111
0.332547 0.335006 -0.305832
0.350293 0.361773 -0.303845
0.368083 0.388774 -0.300523
2.255594 3.271965 -1.723327
2.388439 3.472118 -1.705414
2.548087 3.714329 -1.695768
2.743811 4.009770 -1.694676
2.936940 4.300824 -1.674666
2.933973 4.294543 -1.537499
3.175261 4.658327 -1.518746
3.481166 5.121813 -1.507128
3.950635 5.831389 -1.533993
4.767638 7.067777 -1.640464
5.244286 7.864760 -1.584397
5.868303 8.817797 -1.517181
6.752759 10.165051 -1.450947
7.970296 12.019799 -1.369226
9.704030 14.666491 -1.251558
13.055682 19.776867 -1.126265
0.005115 -0.166176 -0.004959
10.357099 15.634739 -0.012748
0.005115 -0.166176 -0.004959
0.005115 -0.166176 -0.004959
0.005115 -0.166176 -0.004959
0.005115 -0.166176 -0.004959
0.005115 -0.166176 -0.004959
0.005115 -0.166176 -0.004959
0.005115 -0.166176 -0.004959
31.762775 48.047188 10.847790
0.318776 0.309115 -0.342869
0.308784 0.293642 -0.314758
0.322496 0.314196 -0.311285
0.333427 0.330358 -0.304029
0.352317 0.358504 -0.302982
0.372279 0.388437 -0.301331
0.384332 0.406197 -0.291990
2.407254 3.455479 -1.703953
2.569309 3.698301 -1.695079
2.769866 3.997336 -1.695953
2.941459 4.252331 -1.662731
2.951046 4.265049 -1.533079
3.174012 4.596762 -1.505045
3.531981 5.132740 -1.515900
3.980710 5.802319 -1.532324
4.817874 7.053586 -1.643431
5.295821 7.842969 -1.586021
5.917678 8.780858 -1.516622
6.808753 10.121337 -1.450248
8.064411 12.010561 -1.373332
9.814487 14.648970 -1.254788
13.227532 19.788328 -1.131159
0.005105 -0.165946 -0.004952
0.005105 -0.165946 -0.004952
0.005105 -0.165946 -0.004952
0.005105 -0.165946 -0.004952
0.005105 -0.165946 -0.004952
44.022343 66.007378 7.376670
0.005105 -0.165946 -0.004952
34.448917 51.555622 8.702211
34.671986 51.850800 10.238584
34.637356 51.759148 11.727897
0.318614 0.303239 -0.339799
0.313374 0.295029 -0.316712
0.328181 0.316993 -0.314098
0.338262 0.331666 -0.305819
0.357329 0.359731 -0.304689
0.374437 0.385033 -0.300510
0.374248 0.384324 -0.281953
2.428041 3.441839 -1.703948
2.593589 3.686851 -1.696444
2.789535 3.975316 -1.693385
2.950809 4.211841 -1.653779
2.956073 4.217968 -1.522585
3.215393 4.599549 -1.511636
3.558028 5.106140 -1.514049
4.021502 5.789314 -1.534820
4.857115 7.022771 -1.642686
5.343967 7.815921 -1.586669
5.975646 8.756827 -1.518296
6.877743 10.097132 -1.452343
8.164211 12.008904 -1.378371
9.930608 14.638942 -1.258719
13.404387 19.805107 -1.136427
0.005094 -0.165715 -0.004945
0.005094 -0.165715 -0.004945
0.005094 -0.165715 -0.004945
0.005094 -0.165715 -0.004945
0.005094 -0.165715 -0.004945
0.005094 -0.165715 -0.004945
0.005094 -0.165715 -0.004945
32.203354 47.586449 8.064984
0.005094 -0.165715 -0.004945
0.005094 -0.165715 -0.004945
0.320339 0.300239 -0.338772
0.318932 0.297804 -0.319647
0.329953 0.313896 -0.313151
0.340104 0.328493 -0.304914
0.361369 0.359433 -0.305539
0.377580 0.383126 -0.300504
0.384641 0.393100 -0.287348
2.450824 3.431152 -1.705400
2.618872 3.676796 -1.698494
2.817542 3.965719 -1.695945
2.959799 4.171394 -1.644827
2.973631 4.190031 -1.518716
3.237264 4.573239 -1.509095
3.584998 5.081037 -1.512660
4.047957 5.755048 -1.531900
4.902802 7.001474 -1.644168
5.389781 7.785328 -1.586667
6.030175 8.727495 -1.519131
6.945556 10.070828 -1.454204
8.251974 11.988388 -1.381357
10.067104 14.657789 -1.265177
13.631230 19.893206 -1.145831
0.005110 -0.165470 -0.004939
0.005110 -0.165470 -0.004939
0.005110 -0.165470 -0.004939
0.005110 -0.165470 -0.004939
0.005110 -0.165470 -0.004939
0.005110 -0.165470 -0.004939
0.005110 -0.165470 -0.004939
34.158051 49.862667 8.482642
0.005110 -0.165470 -0.004939
0.005110 -0.165470 -0.004939
0.323018 0.298657 -0.338766
0.323565 0.299103 -0.321601
0.331720 0.310807 -0.312206
0.348992 0.335625 -0.310296
0.359256 0.350159 -0.301250
0.380827 0.381146 -0.300498
0.382623 0.383547 -0.283483
2.472530 3.418802 -1.706124
2.644772 3.666109 -1.700544
2.844472 3.954391 -1.697863
2.964101 4.124709 -1.633488
2.997200 4.169434 -1.517608
3.255662 4.542071 -1.505033
3.616019 5.059968 -1.512656
4.088522 5.739262 -1.533980
4.948527 6.977409 -1.645279
5.438757 7.759349 -1.587640
6.089465 8.701668 -1.520805
7.018902 10.052267 -1.457229
8.327340 11.949198 -1.382290
10.185275 14.642541 -1.268968
13.831266 19.938219 -1.152886
0.005099 -0.165240 -0.004932
0.005099 -0.165240 -0.004932
0.005099 -0.165240 -0.004932
0.005099 -0.165240 -0.004932
0.005099 -0.165240 -0.004932
0.005099 -0.165240 -0.004932
0.005099 -0.165240 -0.004932
35.274975 50.847366 8.684934
0.005099 -0.165240 -0.004932
0.005099 -0.165240 -0.004932
0.322802 0.292752 -0.335696
0.326287 0.297432 -0.321594
0.335536 0.310547 -0.313139
0.346854 0.326478 -0.305799
0.365394 0.352735 -0.303813
0.377700 0.370217 -0.295606
0.390075 0.387586 -0.286563
2.502215 3.416560 -1.711945
2.669981 3.655721 -1.702593
2.871006 3.940839 -1.699141
2.970869 4.080722 -1.623343
3.028696 4.161849 -1.520916
3.270196 4.503943 -1.498941
3.654918 5.052104 -1.516348
4.126901 5.722332 -1.535643
4.990632 6.950700 -1.645647
5.487860 7.730486 -1.588288
6.145993 8.674897 -1.522199
7.094053 10.031966 -1.460255
8.408068 11.912987 -1.383783
10.303295 14.631476 -1.273039
14.036892 19.980770 -1.160034
0.005088 -0.165009 -0.004925
0.005088 -0.165009 -0.004925
0.005088 -0.165009 -0.004925
0.005088 -0.165009 -0.004925
46.445461 66.310051 5.631655
0.005088 -0.165009 -0.004925
0.005088 -0.165009 -0.004925
0.005088 -0.165009 -0.004925
0.005088 -0.165009 -0.004925
0.005088 -0.165009 -0.004925
0.328398 0.295376 -0.338753
0.328948 0.295816 -0.321588
0.337222 0.307417 -0.312192
0.349676 0.324742 -0.305793
0.369374 0.352352 -0.304663
0.388110 0.378741 -0.301299
0.395361 0.388607 -0.288100
2.528146 3.409986 -1.715581
2.699490 3.651308 -1.707383
2.893468 3.922972 -1.698496
2.977590 4.038890 -1.613793
3.041284 4.127347 -1.514839
3.294752 4.482162 -1.497922
3.675839 5.018547 -1.512648
4.164057 5.703542 -1.536890
5.036019 6.928560 -1.647129
5.537695 7.705517 -1.589586
6.197867 8.641292 -1.522476
7.152566 9.991270 -1.460253
8.481951 11.871210 -1.384529
10.418065 14.614642 -1.276689
14.261861 20.055092 -1.168968
0.005077 -0.164779 -0.004918
0.005077 -0.164779 -0.004918
0.005077 -0.164779 -0.004918
0.005077 -0.164779 -0.004918
0.005077 -0.164779 -0.004918
0.005077 -0.164779 -0.004918
0.005077 -0.164779 -0.004918
