# This PCD file was generated using the MATLAB® pcwrite function
# from Computer Vision Toolbox®.
# .PCD v.7 - Point Cloud Data file format
VERSION .7
FIELDS x y z
SIZE 4 4 4
TYPE F F F
COUNT 1 1 1
WIDTH 1674
HEIGHT 1
VIEWPOINT 0 0 0 1 0 0 0
POINTS 1674
DATA ascii
5.893048 7.465185 -1.600512
6.656268 8.450468 -1.548476
7.692610 9.784928 -1.489323
9.119761 11.622680 -1.414491
11.373585 14.531043 -1.328590
16.015310 20.514830 -1.259225
0.007854 -0.160656 -0.004650
0.007854 -0.160656 -0.004650
0.007854 -0.160656 -0.004650
0.007854 -0.160656 -0.004650
0.007854 -0.160656 -0.004650
0.007854 -0.160656 -0.004650
0.007854 -0.160656 -0.004650
0.007854 -0.160656 -0.004650
0.007854 -0.160656 -0.004650
0.007854 -0.160656 -0.004650
0.359823 0.290951 -0.345136
0.358365 0.288724 -0.325765
0.358609 0.288839 -0.308690
0.371870 0.305444 -0.302477
0.395130 0.334818 -0.303261
0.415134 0.360186 -0.300012
0.420607 0.366748 -0.285364
0.468364 0.427296 -0.297369
2.906280 3.536947 -1.721769
3.040232 3.704772 -1.672043
3.056707 3.722711 -1.552515
3.336489 4.077232 -1.557697
3.673867 4.503066 -1.566104
4.064415 4.997680 -1.568865
4.898150 6.052938 -1.696507
5.398886 6.683788 -1.658355
5.946517 7.443864 -1.603178
6.711772 8.420103 -1.549938
7.760676 9.754860 -1.491502
9.205779 11.593817 -1.417400
11.494790 14.512783 -1.332959
16.255898 20.578316 -1.268862
0.007850 -0.160425 -0.004643
0.007850 -0.160425 -0.004643
0.007850 -0.160425 -0.004643
0.007850 -0.160425 -0.004643
0.007850 -0.160425 -0.004643
0.007850 -0.160425 -0.004643
0.007850 -0.160425 -0.004643
46.640568 59.053417 10.484268
0.007850 -0.160425 -0.004643
0.007850 -0.160425 -0.004643
0.359201 0.285098 -0.342065
0.364162 0.291029 -0.328708
0.360079 0.285658 -0.307745
0.373416 0.302169 -0.301573
0.395699 0.329970 -0.301542
0.418113 0.358066 -0.300009
0.428182 0.370369 -0.288454
2.741531 3.287480 -1.729630
2.928653 3.521902 -1.722476
3.042392 3.662271 -1.661137
3.073060 3.697861 -1.549545
3.357202 4.053723 -1.556059
3.695807 4.476073 -1.564095
4.107332 4.991226 -1.573997
4.937445 6.029514 -1.697801
5.444279 6.660573 -1.660263
5.988917 7.408255 -1.602900
6.772056 8.395608 -1.552524
7.824982 9.719682 -1.492976
9.289275 11.561231 -1.419929
11.616143 14.493612 -1.337327
16.439445 20.566164 -1.273993
0.007843 -0.160190 -0.004636
0.007843 -0.160190 -0.004636
0.007843 -0.160190 -0.004636
0.007843 -0.160190 -0.004636
0.007843 -0.160190 -0.004636
0.007843 -0.160190 -0.004636
0.007843 -0.160190 -0.004636
0.007843 -0.160190 -0.004636
0.007843 -0.160190 -0.004636
0.007843 -0.160190 -0.004636
0.371393 0.295380 -0.351264
0.373260 0.297360 -0.334597
0.365935 0.287986 -0.310565
0.379419 0.304474 -0.304269
0.398524 0.327967 -0.301539
0.421169 0.355851 -0.300006
0.428918 0.365294 -0.286904
2.764807 3.276270 -1.731839
2.953950 3.509135 -1.724557
0.007811 -0.159972 -0.004629
3.090399 3.674430 -1.547173
3.390543 4.044492 -1.559962
3.709061 4.438420 -1.558521
4.137772 4.967051 -1.574030
4.976506 6.003459 -1.698679
5.485823 6.629973 -1.660681
6.038508 7.381651 -1.604584
6.825102 8.358678 -1.553145
7.889112 9.684076 -1.494450
9.391397 11.551382 -1.425287
11.745193 14.477695 -1.342268
16.634619 20.566591 -1.279988
0.007811 -0.159972 -0.004629
0.007811 -0.159972 -0.004629
0.007811 -0.159972 -0.004629
0.007811 -0.159972 -0.004629
0.007811 -0.159972 -0.004629
0.007811 -0.159972 -0.004629
0.007811 -0.159972 -0.004629
0.007811 -0.159972 -0.004629
0.007811 -0.159972 -0.004629
0.007811 -0.159972 -0.004629
0.373005 0.292111 -0.350238
0.374883 0.294067 -0.333612
0.370782 0.288819 -0.312445
0.379888 0.299703 -0.302466
0.400175 0.324531 -0.300678
0.422982 0.352279 -0.299187
0.432006 0.363010 -0.286901
2.782169 3.257675 -1.730397
2.972625 3.489422 -1.723204
0.007806 -0.159740 -0.004623
0.007806 -0.159740 -0.004623
3.396488 4.002836 -1.551678
3.768418 4.457758 -1.572295
4.172114 4.949461 -1.575916
5.012031 5.977379 -1.699134
5.523613 6.599533 -1.660723
6.086823 7.350593 -1.605616
6.881464 8.328773 -1.554887
7.949790 9.640490 -1.494987
9.489489 11.531359 -1.429705
11.860590 14.448881 -1.345924
16.820091 20.545441 -1.284934
0.007806 -0.159740 -0.004623
0.007806 -0.159740 -0.004623
0.007806 -0.159740 -0.004623
49.025272 60.063931 3.510111
0.007806 -0.159740 -0.004623
0.007806 -0.159740 -0.004623
0.007806 -0.159740 -0.004623
0.007806 -0.159740 -0.004623
0.007806 -0.159740 -0.004623
0.007806 -0.159740 -0.004623
0.377678 0.292950 -0.352279
0.375179 0.289535 -0.331644
0.379991 0.295213 -0.318090
0.382443 0.297849 -0.302463
0.405230 0.325283 -0.302391
0.424737 0.348689 -0.298368
0.437253 0.363716 -0.288445
2.802956 3.243311 -1.731146
2.999523 3.479774 -1.726657
3.052539 3.542691 -1.631630
0.007802 -0.159509 -0.004616
3.421592 3.984972 -1.552255
3.773995 4.410892 -1.563666
4.200172 4.924131 -1.575482
5.048309 5.947827 -1.699174
5.564809 6.568447 -1.661140
6.133601 7.322892 -1.606969
6.933933 8.293906 -1.555785
8.024477 9.620842 -1.498805
9.572196 11.500053 -1.432419
11.984941 14.430034 -1.350576
17.007576 20.539574 -1.290539
0.007802 -0.159509 -0.004616
0.007802 -0.159509 -0.004616
0.007802 -0.159509 -0.004616
0.007802 -0.159509 -0.004616
0.007802 -0.159509 -0.004616
0.007802 -0.159509 -0.004616
0.007802 -0.159509 -0.004616
0.007802 -0.159509 -0.004616
0.007802 -0.159509 -0.004616
0.007802 -0.159509 -0.004616
0.382529 0.293619 -0.354321
0.380041 0.290257 -0.333605
0.384919 0.295942 -0.319969
0.390829 0.302719 -0.306959
0.405766 0.320359 -0.300671
0.428827 0.347921 -0.299181
0.440328 0.361384 -0.288442
2.823052 3.226890 -1.731164
3.022820 3.465615 -1.728050
3.062301 3.510238 -1.625223
3.154294 3.617824 -1.546041
3.433061 3.950717 -1.546739
3.804721 4.393157 -1.565222
4.230602 4.901649 -1.575977
5.088354 5.924947 -1.700885
5.609728 6.544136 -1.663047
6.185393 7.295789 -1.608981
6.990014 8.263291 -1.557526
8.097500 9.591715 -1.501688
9.666564 11.474022 -1.436271
12.100497 14.399476 -1.354231
17.179737 20.498590 -1.294429
0.007797 -0.159278 -0.004610
0.007797 -0.159278 -0.004610
0.007797 -0.159278 -0.004610
0.007797 -0.159278 -0.004610
0.007797 -0.159278 -0.004610
48.579662 58.044720 6.962473
0.007797 -0.159278 -0.004610
0.007797 -0.159278 -0.004610
0.007797 -0.159278 -0.004610
0.007797 -0.159278 -0.004610
0.390632 0.298270 -0.359431
0.390462 0.297689 -0.340476
0.392053 0.299397 -0.323731
0.394614 0.302099 -0.307855
0.410748 0.321124 -0.302384
0.432900 0.347114 -0.299994
0.444494 0.360525 -0.289213
2.843090 3.212772 -1.731911
3.048440 3.454169 -1.730816
3.065643 3.473076 -1.616242
3.190077 3.617949 -1.553241
3.449187 3.922336 -1.543438
3.817566 4.357336 -1.560154
4.255856 4.873020 -1.574615
5.123468 5.898223 -1.701339
5.649541 6.515994 -1.663833
6.235748 7.269408 -1.610989
7.045963 8.232305 -1.559267
8.168769 9.563494 -1.504568
9.752533 11.441366 -1.439176
12.218691 14.371138 -1.358171
17.415272 20.538828 -1.303300
0.007792 -0.159046 -0.004603
0.007792 -0.159046 -0.004603
0.007792 -0.159046 -0.004603
0.007792 -0.159046 -0.004603
0.007792 -0.159046 -0.004603
0.007792 -0.159046 -0.004603
0.007792 -0.159046 -0.004603
0.007792 -0.159046 -0.004603
0.007792 -0.159046 -0.004603
0.007792 -0.159046 -0.004603
0.386503 0.288481 -0.353292
0.392982 0.295767 -0.340472
0.394672 0.297405 -0.323728
0.396034 0.298806 -0.306952
0.408821 0.313517 -0.298948
0.434603 0.343489 -0.299175
0.443887 0.354017 -0.286890
2.862427 3.196619 -1.731928
3.063093 3.429685 -1.727402
3.068670 3.433470 -1.606619
3.227244 3.616656 -1.560443
3.481336 3.912923 -1.547338
3.855573 4.348136 -1.564764
4.289402 4.852414 -1.576037
5.164134 5.871573 -1.702635
5.690277 6.484150 -1.664249
6.280917 7.239292 -1.612015
7.100522 8.199450 -1.560726
8.239583 9.537730 -1.507679
9.832540 11.405260 -1.441512
12.343403 14.349515 -1.362821
17.618189 20.537479 -1.309678
0.007760 -0.158828 -0.004596
0.007760 -0.158828 -0.004596
0.007760 -0.158828 -0.004596
0.007760 -0.158828 -0.004596
0.007760 -0.158828 -0.004596
0.007760 -0.158828 -0.004596
0.007760 -0.158828 -0.004596
0.007760 -0.158828 -0.004596
0.007760 -0.158828 -0.004596
0.007760 -0.158828 -0.004596
0.391456 0.288998 -0.355334
0.392336 0.289668 -0.337523
0.399657 0.298006 -0.325607
0.396477 0.293943 -0.305149
0.412785 0.312729 -0.299803
0.437568 0.341179 -0.299172
0.450519 0.355844 -0.289207
2.881056 3.178447 -1.731217
3.074473 3.400336 -1.721928
3.074436 3.398804 -1.598923
3.235183 3.582394 -1.553881
3.506649 3.893934 -1.547916
3.889005 4.334918 -1.567845
4.328329 4.839694 -1.579777
5.197682 5.842931 -1.702670
5.737396 6.461970 -1.666901
6.333637 7.210078 -1.614027
7.169267 8.180013 -1.564997
8.316681 9.508619 -1.511033
9.927552 11.373994 -1.445176
12.464284 14.317194 -1.366764
17.840876 20.549519 -1.317212
0.007756 -0.158598 -0.004589
0.007756 -0.158598 -0.004589
0.007756 -0.158598 -0.004589
0.007756 -0.158598 -0.004589
0.007756 -0.158598 -0.004589
54.590237 63.000343 7.665815
0.007756 -0.158598 -0.004589
0.007756 -0.158598 -0.004589
0.007756 -0.158598 -0.004589
0.007756 -0.158598 -0.004589
0.393941 0.287079 -0.355330
0.400540 0.294326 -0.342430
0.409133 0.304036 -0.331252
0.407186 0.301432 -0.311445
0.421415 0.317439 -0.304091
0.434343 0.332108 -0.295089
0.453387 0.353599 -0.289204
2.901415 3.163477 -1.731964
3.077010 3.363570 -1.712333
3.077414 3.361338 -1.589941
3.272963 3.582673 -1.561680
3.532983 3.878912 -1.549598
3.891870 4.286519 -1.558703
4.367640 4.828906 -1.583978
5.234669 5.816129 -1.703542
5.777945 6.432065 -1.667686
6.378509 7.179362 -1.615051
7.214352 8.138657 -1.564766
8.392621 9.487832 -1.515082
10.007410 11.336742 -1.447511
12.593294 14.303403 -1.372121
18.066298 20.576504 -1.325407
0.007751 -0.158367 -0.004583
37.282848 42.590813 -0.083985
0.007751 -0.158367 -0.004583
0.007751 -0.158367 -0.004583
0.007751 -0.158367 -0.004583
0.007751 -0.158367 -0.004583
0.007751 -0.158367 -0.004583
0.007751 -0.158367 -0.004583
50.146778 57.078033 12.387220
0.007751 -0.158367 -0.004583
0.390829 0.278618 -0.350214
0.403117 0.292279 -0.342426
0.410611 0.300618 -0.330307
0.412173 0.302035 -0.313241
0.425321 0.316629 -0.304946
0.442053 0.335278 -0.298350
0.459963 0.355402 -0.291521
2.920469 3.146988 -1.731980
3.085393 3.331440 -1.705485
3.082583 3.326804 -1.582245
3.303265 3.574061 -1.565889
3.544122 3.843765 -1.544081
3.910977 4.257079 -1.556182
4.390676 4.795911 -1.581689
5.276480 5.792590 -1.705672
5.816898 6.397969 -1.667728
6.428407 7.151703 -1.617058
7.264699 8.097505 -1.565101
8.468960 9.463530 -1.518899
10.106243 11.316620 -1.452300
12.726240 14.282677 -1.377343
18.391281 20.706341 -1.340518
0.007746 -0.158135 -0.004576
0.007746 -0.158135 -0.004576
0.007746 -0.158135 -0.004576
0.007746 -0.158135 -0.004576
0.007746 -0.158135 -0.004576
55.421650 62.469654 7.678466
0.007746 -0.158135 -0.004576
0.007746 -0.158135 -0.004576
48.334839 54.354836 11.858971
0.007746 -0.158135 -0.004576
0.393407 0.276567 -0.350210
0.408090 0.292759 -0.344387
0.426203 0.312953 -0.340659
0.424382 0.310534 -0.320437
0.426916 0.313023 -0.304084
0.452172 0.341183 -0.303243
0.462996 0.352942 -0.291518
2.948678 3.139612 -1.737108
3.087885 3.294259 -1.695888
3.091809 3.296013 -1.576477
3.303715 3.530492 -1.555735
3.577323 3.835035 -1.548534
3.937058 4.234078 -1.556207
4.426866 4.779524 -1.584499
5.307992 5.759480 -1.704869
5.858434 6.369045 -1.668886
6.476869 7.119644 -1.618413
7.312065 8.055843 -1.565152
8.535060 9.423814 -1.520605
10.199221 11.285036 -1.455959
12.860832 14.267591 -1.382987
0.007742 -0.157904 -0.004569
0.007742 -0.157904 -0.004569
0.007742 -0.157904 -0.004569
0.007742 -0.157904 -0.004569
0.007742 -0.157904 -0.004569
0.007742 -0.157904 -0.004569
0.007742 -0.157904 -0.004569
0.007742 -0.157904 -0.004569
0.007742 -0.157904 -0.004569
0.007742 -0.157904 -0.004569
0.007742 -0.157904 -0.004569
0.398177 0.277120 -0.352251
0.409487 0.289371 -0.343401
0.424172 0.305514 -0.336890
0.425866 0.307026 -0.319534
0.434451 0.316202 -0.307514
0.456257 0.340206 -0.304056
0.472091 0.357388 -0.295382
2.966354 3.121471 -1.736394
3.092585 3.259970 -1.687665
3.098920 3.264371 -1.570065
3.332528 3.520170 -1.559345
3.586042 3.798967 -1.542461
3.968757 4.218797 -1.558777
4.440830 4.738379 -1.579424
5.349816 5.737806 -1.707415
5.899848 6.339874 -1.670043
6.519914 7.083988 -1.618783
7.357850 8.012437 -1.564921
8.603309 9.389581 -1.523013
10.274179 11.236793 -1.457352
12.991648 14.246973 -1.388204
0.007710 -0.157687 -0.004562
0.007710 -0.157687 -0.004562
0.007710 -0.157687 -0.004562
0.007710 -0.157687 -0.004562
0.007710 -0.157687 -0.004562
0.007710 -0.157687 -0.004562
0.007710 -0.157687 -0.004562
0.007710 -0.157687 -0.004562
0.007710 -0.157687 -0.004562
0.007710 -0.157687 -0.004562
0.007710 -0.157687 -0.004562
0.401819 0.276369 -0.353270
0.412047 0.287286 -0.343397
0.433950 0.311175 -0.342535
0.433331 0.310128 -0.323130
0.440802 0.317972 -0.310085
0.462856 0.341805 -0.306500
0.479987 0.360380 -0.298473
2.991423 3.111487 -1.740060
3.093775 3.221040 -1.677382
3.110886 3.238370 -1.566224
3.360069 3.508250 -1.562356
3.610714 3.779326 -1.543036
3.993838 4.196150 -1.558800
4.480274 4.723713 -1.583163
5.382025 5.703386 -1.706613
5.940911 6.307960 -1.670829
6.564109 7.049547 -1.619480
7.410131 7.973346 -1.565816
8.666109 9.349021 -1.524480
10.356977 11.196910 -1.459874
13.121158 14.218643 -1.392997
0.007703 -0.157451 -0.004556
35.602356 38.819096 -1.305074
35.650734 38.842560 -0.079637
35.967270 39.172924 1.156930
0.007703 -0.157451 -0.004556
0.007703 -0.157451 -0.004556
53.072117 57.749565 7.210474
0.007703 -0.157451 -0.004556
0.007703 -0.157451 -0.004556
0.007703 -0.157451 -0.004556
0.007703 -0.157451 -0.004556
0.397387 0.266655 -0.347131
0.417029 0.287671 -0.345358
0.436713 0.308867 -0.342532
0.437288 0.309133 -0.324026
0.443516 0.315698 -0.310081
0.469439 0.343438 -0.308945
0.481796 0.356447 -0.297696
3.008902 3.093115 -1.739346
3.099141 3.188275 -1.669845
3.123932 3.213722 -1.563025
3.381098 3.489121 -1.562374
3.626781 3.751709 -1.540287
3.997799 4.150671 -1.550675
4.508272 4.698124 -1.583189
5.415937 5.674957 -1.707063
5.982202 6.280735 -1.672357
6.614728 7.019495 -1.621487
7.460798 7.935219 -1.566708
0.007699 -0.157220 -0.004549
10.444325 11.157546 -1.462778
13.269909 14.215037 -1.400064
19.160818 20.583336 -1.361427
35.801510 38.587502 -1.304446
35.877159 38.640076 -0.079901
0.007699 -0.157220 -0.004549
0.007699 -0.157220 -0.004549
0.007699 -0.157220 -0.004549
0.007699 -0.157220 -0.004549
0.007699 -0.157220 -0.004549
0.007699 -0.157220 -0.004549
0.007699 -0.157220 -0.004549
0.007699 -0.157220 -0.004549
0.400903 0.265958 -0.348149
0.417127 0.283060 -0.343390
0.441689 0.309269 -0.344411
0.445972 0.313495 -0.328522
0.456067 0.323975 -0.316944
0.477273 0.346335 -0.312206
0.492197 0.362112 -0.302334
3.028837 3.077382 -1.740091
3.101641 3.152809 -1.660933
3.149738 3.202876 -1.566256
3.399388 3.467079 -1.561194
3.651836 3.733851 -1.541415
4.023811 4.129268 -1.551206
4.533465 4.669534 -1.582288
5.449065 5.641593 -1.706678
6.018910 6.243999 -1.672022
6.664055 6.992854 -1.623816
7.519353 7.905467 -1.569286
8.868299 9.349465 -1.540796
10.533056 11.127037 -1.466428
13.409512 14.199980 -1.406134
19.280272 20.480789 -1.361843
36.038773 38.397274 -1.305244
0.007695 -0.156990 -0.004543
0.007695 -0.156990 -0.004543
0.007695 -0.156990 -0.004543
0.007695 -0.156990 -0.004543
0.007695 -0.156990 -0.004543
0.007695 -0.156990 -0.004543
0.007695 -0.156990 -0.004543
0.007695 -0.156990 -0.004543
0.007695 -0.156990 -0.004543
0.401038 0.261341 -0.346100
0.425675 0.287184 -0.348297
0.446880 0.309495 -0.346291
0.453636 0.316309 -0.332119
0.462637 0.325485 -0.319515
0.481406 0.345179 -0.313019
0.497788 0.362138 -0.303878
3.053052 3.065036 -1.743028
3.103837 3.117423 -1.652021
3.169592 3.184412 -1.566273
3.436570 3.463764 -1.568396
3.675467 3.714432 -1.541988
4.049151 4.105612 -1.551230
4.559808 4.642225 -1.581850
5.486367 5.614667 -1.707967
6.063749 6.218082 -1.674297
6.714420 6.962111 -1.625822
7.579174 7.876751 -1.572146
8.920398 9.292668 -1.540152
10.620247 11.086402 -1.469330
13.557616 14.192500 -1.413058
0.007690 -0.156758 -0.004536
0.007690 -0.156758 -0.004536
38.010330 40.010872 -0.083939
0.007690 -0.156758 -0.004536
0.007690 -0.156758 -0.004536
0.007690 -0.156758 -0.004536
0.007690 -0.156758 -0.004536
0.007690 -0.156758 -0.004536
0.007690 -0.156758 -0.004536
0.007690 -0.156758 -0.004536
0.007690 -0.156758 -0.004536
0.407007 0.263043 -0.349165
0.427029 0.283744 -0.347312
0.450753 0.308460 -0.347229
0.455112 0.312670 -0.331215
0.467873 0.325692 -0.321228
0.486809 0.345317 -0.314648
0.503296 0.362199 -0.305421
3.071529 3.047678 -1.743042
3.110937 3.087561 -1.645855
3.190055 3.167745 -1.566931
3.432239 3.418010 -1.557041
3.683042 3.678226 -1.535913
4.072238 4.081106 -1.550742
4.595393 4.624590 -1.584658
5.527592 5.591734 -1.710510
6.103025 6.186185 -1.675079
6.763429 6.932207 -1.627825
7.627989 7.836151 -1.572755
8.966375 9.232848 -1.538799
10.712233 11.054191 -1.473172
13.684012 14.160705 -1.417703
19.860909 20.611433 -1.385834
0.007658 -0.156540 -0.004529
36.748623 38.232826 -0.081091
37.068340 38.537758 1.162165
0.007658 -0.156540 -0.004529
0.007658 -0.156540 -0.004529
56.665340 58.885799 7.510759
0.007658 -0.156540 -0.004529
0.007658 -0.156540 -0.004529
0.007658 -0.156540 -0.004529
0.007658 -0.156540 -0.004529
0.409398 0.260961 -0.349161
0.424700 0.276528 -0.343379
0.457095 0.309943 -0.350050
0.463995 0.316743 -0.335712
0.471891 0.324564 -0.322083
0.496023 0.349346 -0.318726
0.515243 0.368852 -0.310833
3.088602 3.028873 -1.742327
3.116476 3.056372 -1.639002
3.211750 3.152321 -1.568233
3.454060 3.399838 -1.557657
3.688961 3.640672 -1.529282
4.104627 4.066202 -1.553819
4.633652 4.609507 -1.588395
5.561922 5.561508 -1.710960
6.144869 6.156864 -1.676607
6.806822 6.896286 -1.628520
7.699944 7.819480 -1.578144
9.035381 9.197090 -1.541437
10.806973 11.024162 -1.477390
13.798015 14.115022 -1.421067
20.092522 20.613440 -1.393745
34.000839 34.969601 -1.210090
37.075920 38.131741 -0.081561
37.366776 38.403183 1.164310
0.007653 -0.156309 -0.004522
0.007653 -0.156309 -0.004522
0.007653 -0.156309 -0.004522
0.007653 -0.156309 -0.004522
0.007653 -0.156309 -0.004522
53.757442 55.109276 12.546762
0.007653 -0.156309 -0.004522
0.409373 0.256402 -0.347111
0.427171 0.274345 -0.343375
0.459752 0.307572 -0.350046
0.470434 0.318166 -0.338408
0.478431 0.325991 -0.324654
0.498915 0.346754 -0.318722
2.912652 2.815084 -1.747257
3.110773 3.015306 -1.744531
3.121760 3.025226 -1.632149
3.237353 3.140816 -1.571463
3.494505 3.400616 -1.566651
3.712092 3.621026 -1.529855
4.136958 4.051057 -1.556896
4.643269 4.564990 -1.582388
5.591972 5.526890 -1.710154
6.187965 6.128678 -1.678507
6.850006 6.860091 -1.629213
7.745697 7.775324 -1.578190
9.090430 9.146654 -1.541728
10.893351 10.984859 -1.480475
13.925864 14.082753 -1.425853
20.409996 20.700569 -1.407516
0.007649 -0.156079 -0.004516
0.007649 -0.156079 -0.004516
0.007649 -0.156079 -0.004516
0.007649 -0.156079 -0.004516
0.007649 -0.156079 -0.004516
0.007649 -0.156079 -0.004516
0.007649 -0.156079 -0.004516
0.007649 -0.156079 -0.004516
0.007649 -0.156079 -0.004516
0.007649 -0.156079 -0.004516
0.406909 0.249413 -0.343017
0.429644 0.272157 -0.343371
0.469829 0.312724 -0.355691
0.478175 0.320811 -0.342004
0.486273 0.328645 -0.328084
0.509495 0.351941 -0.323616
2.916710 2.785419 -1.739534
3.119781 2.988345 -1.739434
3.125465 2.992796 -1.624609
3.266928 3.133164 -1.576622
3.509519 3.375293 -1.564273
3.731050 3.597145 -1.528765
4.152910 4.019216 -1.553861
4.681308 4.549505 -1.586124
5.631462 5.501825 -1.712277
6.229554 6.098814 -1.680034
6.898563 6.829264 -1.631215
7.805082 7.744988 -1.581048
9.160502 9.111417 -1.544599
10.981038 10.946353 -1.483749
14.058022 14.053746 -1.431066
20.649059 20.703800 -1.415811
0.007644 -0.155846 -0.004509
33.927376 34.083031 -0.074632
0.007644 -0.155846 -0.004509
0.007644 -0.155846 -0.004509
0.007644 -0.155846 -0.004509
0.007644 -0.155846 -0.004509
0.007644 -0.155846 -0.004509
0.007644 -0.155846 -0.004509
0.007644 -0.155846 -0.004509
0.007644 -0.155846 -0.004509
0.417709 0.255852 -0.350171
0.432093 0.269949 -0.343368
0.471263 0.309034 -0.354746
0.484672 0.322108 -0.344700
0.494150 0.331220 -0.331514
0.516350 0.353052 -0.326060
2.938792 2.774065 -1.742641
3.128611 2.961409 -1.734337
3.128101 2.958545 -1.616382
3.300544 3.129291 -1.583709
3.525708 3.351263 -1.562494
3.754568 3.576576 -1.529337
4.161780 3.980512 -1.548279
4.707725 4.520564 -1.585685
5.669042 5.472743 -1.713565
6.266505 6.062044 -1.680070
6.948373 6.799503 -1.633543
7.861548 7.708659 -1.583063
9.222086 9.067271 -1.546062
11.067218 10.905793 -1.486833
14.187125 14.015570 -1.435712
20.908583 20.724712 -1.425451
0.007640 -0.155616 -0.004502
33.602936 33.356216 -0.073770
0.007640 -0.155616 -0.004502
0.007640 -0.155616 -0.004502
0.007640 -0.155616 -0.004502
0.007640 -0.155616 -0.004502
0.007640 -0.155616 -0.004502
0.007640 -0.155616 -0.004502
0.007640 -0.155616 -0.004502
0.007640 -0.155616 -0.004502
0.417685 0.251217 -0.348122
0.427162 0.260289 -0.337470
0.473994 0.306500 -0.354742
0.502712 0.334570 -0.355497
0.497010 0.328551 -0.331510
0.527053 0.358045 -0.330954
2.956124 2.756865 -1.742654
3.127129 2.923441 -1.723397
3.133933 2.928890 -1.610214
3.309159 3.099294 -1.578581
3.555938 3.339938 -1.566700
3.770483 3.549782 -1.527138
4.195870 3.965532 -1.551865
4.738714 4.497767 -1.587100
5.704098 5.443037 -1.714431
6.304970 6.028910 -1.680849
6.997888 6.766797 -1.635546
7.906652 7.663570 -1.583107
9.290685 9.026679 -1.548465
11.150990 10.858470 -1.489353
14.318061 13.983068 -1.440782
21.151371 20.718596 -1.433656
32.689327 32.085144 -1.137596
33.043194 32.421196 -0.072432
0.007608 -0.155398 -0.004495
0.007608 -0.155398 -0.004495
0.007608 -0.155398 -0.004495
0.007608 -0.155398 -0.004495
0.007608 -0.155398 -0.004495
0.007608 -0.155398 -0.004495
0.007608 -0.155398 -0.004495
0.007608 -0.155398 -0.004495
0.412653 0.241864 -0.341982
0.425800 0.254436 -0.334519
0.477890 0.305268 -0.355680
0.506808 0.333196 -0.356394
0.503658 0.329743 -0.334082
0.537807 0.362923 -0.335847
2.989950 2.756806 -1.752722
3.134126 2.895261 -1.717569
3.143547 2.903204 -1.606106
3.340007 3.092354 -1.584381
3.569139 3.313026 -1.563723
3.799989 3.536334 -1.530479
4.220883 3.942935 -1.552394
4.751433 4.457123 -1.582483
5.747413 5.421293 -1.717809
6.350285 6.002374 -1.683494
7.047442 6.736345 -1.637874
7.965630 7.632067 -1.585962
9.356139 8.985855 -1.550631
11.244040 10.823622 -1.493379
14.450537 13.950934 -1.445993
21.429783 20.751736 -1.444449
32.297348 31.334291 -1.117902
0.007603 -0.155166 -0.004489
0.007603 -0.155166 -0.004489
0.007603 -0.155166 -0.004489
0.007603 -0.155166 -0.004489
0.007603 -0.155166 -0.004489
0.007603 -0.155166 -0.004489
0.007603 -0.155166 -0.004489
0.007603 -0.155166 -0.004489
0.007603 -0.155166 -0.004489
0.426025 0.250514 -0.351182
0.435665 0.259527 -0.340409
0.481798 0.304011 -0.356618
0.509595 0.330540 -0.356390
0.511622 0.332127 -0.337511
2.831110 2.572451 -1.759231
3.009304 2.742383 -1.754280
3.140882 2.867094 -1.711739
3.147553 2.872287 -1.599251
3.354533 3.069403 -1.582466
3.580789 3.284762 -1.560147
3.822555 3.516014 -1.531050
4.235998 3.910797 -1.549356
4.775083 4.427282 -1.581578
5.779408 5.388408 -1.717838
6.392670 5.972803 -1.685392
7.095467 6.704186 -1.639873
8.010299 7.586386 -1.586005
9.424260 8.947330 -1.553266
11.335655 10.786704 -1.497217
14.584514 13.919107 -1.451346
21.703495 20.776804 -1.454858
32.118080 30.801361 -1.105753
32.308250 30.972260 -0.070564
0.007598 -0.154935 -0.004482
0.007598 -0.154935 -0.004482
0.007598 -0.154935 -0.004482
0.007598 -0.154935 -0.004482
0.007598 -0.154935 -0.004482
0.007598 -0.154935 -0.004482
0.007598 -0.154935 -0.004482
0.007598 -0.154935 -0.004482
0.419660 0.240011 -0.344019
0.438028 0.257286 -0.340405
0.479337 0.296633 -0.352848
0.518808 0.334036 -0.360886
0.519620 0.334437 -0.340941
2.845433 2.555121 -1.758425
3.028582 2.727833 -1.755839
3.148797 2.840253 -1.706640
3.151325 2.841443 -1.592395
3.357950 3.035961 -1.575406
3.607415 3.270950 -1.563154
3.853335 3.503496 -1.534945
4.269119 3.895954 -1.552940
4.809820 4.408049 -1.584383
5.812609 5.356682 -1.718284
6.426380 5.934845 -1.685049
7.140499 6.668981 -1.641218
8.067564 7.552768 -1.588578
9.499409 8.915188 -1.557073
11.432949 10.754586 -1.501807
14.717157 13.884839 -1.456555
21.965181 20.787010 -1.464400
32.398350 30.714329 -1.109444
0.007592 -0.154701 -0.004475
0.007592 -0.154701 -0.004475
0.007592 -0.154701 -0.004475
0.007592 -0.154701 -0.004475
56.691311 53.701656 7.173595
45.803822 43.324615 7.285592
0.007592 -0.154701 -0.004475
0.007592 -0.154701 -0.004475
0.007592 -0.154701 -0.004475
0.426917 0.242592 -0.348106
0.441644 0.256224 -0.341383
0.484464 0.296555 -0.354727
0.531992 0.341130 -0.368083
0.531605 0.340390 -0.346945
2.860951 2.538958 -1.758435
3.041091 2.706825 -1.753530
3.142931 2.800638 -1.694238
3.161661 2.817084 -1.588972
3.385874 3.025928 -1.579920
3.624272 3.247782 -1.561972
3.864510 3.472315 -1.531082
4.299391 3.878211 -1.555506
4.865746 4.408530 -1.594148
5.845606 5.324742 -1.718730
6.464184 5.900735 -1.685827
7.183912 6.632119 -1.642235
8.126138 7.520092 -1.591431
9.580294 8.887935 -1.561821
0.007587 -0.154469 -0.004469
14.848463 13.848141 -1.461622
22.236444 20.803114 -1.474521
32.607353 30.557894 -1.110714
0.007587 -0.154469 -0.004469
0.007587 -0.154469 -0.004469
0.007587 -0.154469 -0.004469
0.007587 -0.154469 -0.004469
0.007587 -0.154469 -0.004469
46.151611 43.153248 7.300925
0.007587 -0.154469 -0.004469
0.007587 -0.154469 -0.004469
0.007587 -0.154469 -0.004469
0.431671 0.242737 -0.350146
0.441431 0.251559 -0.339414
0.484472 0.291623 -0.352840
0.540057 0.343212 -0.371679
0.538416 0.341298 -0.349517
0.007555 -0.154251 -0.004462
3.062880 2.694570 -1.756634
3.157130 2.780223 -1.692788
3.169567 2.789585 -1.584177
3.412443 3.014408 -1.583792
3.645156 3.228428 -1.562584
3.892955 3.456141 -1.533869
4.322515 3.853677 -1.555524
4.898396 4.385161 -1.596027
5.882285 5.294252 -1.720015
6.501387 5.863912 -1.686233
7.231487 6.599033 -1.644233
8.185950 7.485580 -1.594287
9.643747 8.843783 -1.563749
11.588243 10.651390 -1.505892
14.980760 13.806404 -1.466549
22.594812 20.897137 -1.490313
32.846382 30.428705 -1.113020
0.007555 -0.154251 -0.004462
0.007555 -0.154251 -0.004462
0.007555 -0.154251 -0.004462
0.007555 -0.154251 -0.004462
0.007555 -0.154251 -0.004462
46.178520 42.682041 7.265806
0.007555 -0.154251 -0.004462
0.007555 -0.154251 -0.004462
0.007555 -0.154251 -0.004462
0.444118 0.249784 -0.358324
0.441272 0.246847 -0.337445
0.480608 0.283024 -0.348128
0.542975 0.340268 -0.371676
2.713574 2.342191 -1.753779
2.890864 2.504643 -1.757639
3.068867 2.666634 -1.750458
3.162152 2.750376 -1.686229
3.191973 2.776652 -1.586935
3.429751 2.993097 -1.583162
3.669371 3.210909 -1.564395
3.910847 3.431360 -1.532776
4.356155 3.837401 -1.559108
4.928715 4.361112 -1.597440
5.914964 5.261907 -1.720460
6.547470 5.837288 -1.689248
7.275707 6.560328 -1.645251
8.235568 7.444002 -1.595452
9.705651 8.794813 -1.565209
11.684279 10.612481 -1.510106
15.109232 13.764894 -1.471330
22.986578 21.009424 -1.507937
33.113838 30.313660 -1.116123
0.007551 -0.154020 -0.004455
0.007551 -0.154020 -0.004455
0.007551 -0.154020 -0.004455
0.007551 -0.154020 -0.004455
45.078259 41.198311 5.610110
46.617489 42.578484 7.294667
0.007551 -0.154020 -0.004455
0.007551 -0.154020 -0.004455
0.007551 -0.154020 -0.004455
0.433729 0.235889 -0.348093
0.442265 0.243390 -0.336459
0.487007 0.284087 -0.350949
0.547132 0.338613 -0.372572
0.007546 -0.153788 -0.004449
2.903396 2.485759 -1.756016
3.086399 2.650430 -1.751241
3.163651 2.718611 -1.678207
3.208767 2.758498 -1.586946
3.464593 2.988857 -1.590891
3.681586 3.183586 -1.561416
3.920012 3.398725 -1.528358
4.367583 3.802140 -1.555050
4.963245 4.340787 -1.600245
5.947463 5.229367 -1.720905
6.577458 5.795831 -1.688158
7.321499 6.525280 -1.646921
8.296684 7.412787 -1.598867
9.776046 8.756503 -1.568311
11.801917 10.596324 -1.517337
15.240635 13.725039 -1.476394
23.363470 21.109785 -1.524693
33.390560 30.215792 -1.119709
0.007546 -0.153788 -0.004449
0.007546 -0.153788 -0.004449
0.007546 -0.153788 -0.004449
0.007546 -0.153788 -0.004449
0.007546 -0.153788 -0.004449
0.007546 -0.153788 -0.004449
0.007546 -0.153788 -0.004449
0.007546 -0.153788 -0.004449
0.007546 -0.153788 -0.004449
0.439780 0.237115 -0.351156
0.456172 0.251618 -0.345295
0.488217 0.280373 -0.350004
0.553932 0.339319 -0.375269
2.747471 2.316158 -1.757229
2.923971 2.474172 -1.759290
3.105213 2.635355 -1.752799
3.160728 2.683182 -1.667993
3.224076 2.738998 -1.586270
3.468547 2.956488 -1.584472
3.710668 3.171541 -1.565619
3.953240 3.387926 -1.533360
4.355695 3.746216 -1.542842
5.010750 4.331907 -1.607226
5.985590 5.201845 -1.723024
6.613012 5.759461 -1.688560
7.359778 6.483315 -1.646954
8.356236 7.379792 -1.602000
9.837461 8.709698 -1.570002
11.891644 10.553842 -1.520981
15.373579 13.685476 -1.481601
23.604198 21.082232 -1.532507
33.746048 30.186604 -1.125913
0.007542 -0.153558 -0.004442
47.634056 42.626534 1.385892
47.330257 42.321774 2.865456
44.926807 40.148415 4.124651
0.007542 -0.153558 -0.004442
45.885029 40.946388 7.104980
0.007542 -0.153558 -0.004442
0.007542 -0.153558 -0.004442
0.007542 -0.153558 -0.004442
0.438181 0.231419 -0.348084
0.451981 0.243452 -0.340379
0.489366 0.276646 -0.349058
0.548737 0.329256 -0.369864
0.007509 -0.153340 -0.004435
2.949921 2.467270 -1.765828
3.119806 2.616472 -1.752034
3.172805 2.661496 -1.665812
3.250487 2.729401 -1.591089
3.490613 2.940513 -1.586413
3.728278 3.149124 -1.565033
3.982159 3.373040 -1.536699
4.421476 3.759851 -1.558141
5.032102 4.299402 -1.605853
6.019224 5.170179 -1.723886
6.642509 5.717684 -1.687468
7.402245 6.445071 -1.647969
8.418631 7.348996 -1.605695
9.910511 8.673047 -1.573572
11.987231 10.515983 -1.525380
15.511027 13.648815 -1.487234
23.970707 21.164125 -1.548397
35.306725 31.224979 -1.171952
46.073124 40.779160 -0.097014
0.007509 -0.153340 -0.004435
0.007509 -0.153340 -0.004435
0.007509 -0.153340 -0.004435
44.528435 39.301815 5.455302
0.007509 -0.153340 -0.004435
0.007509 -0.153340 -0.004435
0.007509 -0.153340 -0.004435
0.007509 -0.153340 -0.004435
0.448111 0.235988 -0.354216
0.452953 0.239968 -0.339393
0.489183 0.271761 -0.347170
0.550147 0.325176 -0.368960
2.779754 2.288481 -1.759820
2.970886 2.454826 -1.769103
3.139856 2.602399 -1.754365
3.166559 2.623787 -1.654137
3.273155 2.715305 -1.593847
3.512614 2.924387 -1.588354
3.742905 3.124107 -1.563250
4.018882 3.363572 -1.542810
4.435185 3.726969 -1.555100
5.067173 4.277448 -1.608658
6.058022 5.141109 -1.726006
6.680120 5.681050 -1.688244
7.447484 6.409176 -1.649637
8.483728 7.317557 -1.609673
9.990920 8.642421 -1.578316
12.072291 10.468165 -1.528456
15.650942 13.608290 -1.492870
24.505457 21.388929 -1.574963
34.764172 30.386860 -1.148353
0.007505 -0.153109 -0.004428
0.007505 -0.153109 -0.004428
0.007505 -0.153109 -0.004428
42.166439 36.792915 3.830558
0.007505 -0.153109 -0.004428
46.598389 40.629856 7.141887
0.007505 -0.153109 -0.004428
0.007505 -0.153109 -0.004428
0.007505 -0.153109 -0.004428
0.443907 0.227936 -0.349098
0.451325 0.234110 -0.336441
0.494352 0.271446 -0.349050
0.548917 0.318653 -0.366256
2.796913 2.274599 -1.761545
2.989969 2.441547 -1.771560
3.160293 2.587626 -1.756696
3.178745 2.601568 -1.651957
3.306600 2.711458 -1.602100
3.519332 2.893842 -1.583221
3.766573 3.105874 -1.565059
4.050642 3.350718 -1.547257
4.482942 3.722391 -1.563777
5.092552 4.248479 -1.608677
6.092812 5.110275 -1.727287
6.720990 5.649213 -1.690137
7.490699 6.369070 -1.650652
8.537003 7.278001 -1.611679
10.078813 8.614613 -1.584002
12.166572 10.424139 -1.532479
15.782531 13.564124 -1.497932
24.688496 21.292074 -1.578646
34.268181 29.593336 -1.126382
45.545021 39.368458 -0.095483
0.007500 -0.152877 -0.004422
0.007500 -0.152877 -0.004422
0.007500 -0.152877 -0.004422
0.007500 -0.152877 -0.004422
0.007500 -0.152877 -0.004422
0.007500 -0.152877 -0.004422
0.007500 -0.152877 -0.004422
0.007500 -0.152877 -0.004422
0.448682 0.227889 -0.351139
0.457482 0.235183 -0.339384
0.492741 0.265398 -0.346220
0.551612 0.315758 -0.366252
2.812182 2.259899 -1.762411
3.007596 2.426935 -1.773200
3.180205 2.573267 -1.759026
3.180418 2.571374 -1.644663
3.324458 2.693881 -1.602797
3.558371 2.892303 -1.592879
3.788173 3.086908 -1.566269
4.054684 3.313874 -1.541175
4.493406 3.686743 -1.559718
5.128143 4.228233 -1.611944
6.122967 5.075392 -1.727310
6.758736 5.614548 -1.691284
7.532541 6.329988 -1.651664
8.600604 7.247119 -1.615654
10.148632 8.573591 -1.587100
12.254388 10.377616 -1.535932
15.924695 13.527990 -1.503990
0.007496 -0.152646 -0.004415
33.991093 29.011879 -1.111959
44.759056 38.237541 -0.093683
0.007496 -0.152646 -0.004415
49.157810 41.947567 2.915330
43.310055 36.923782 3.895115
41.772446 35.580322 5.039569
0.007496 -0.152646 -0.004415
42.059753 35.784641 7.684286
0.007496 -0.152646 -0.004415
0.007496 -0.152646 -0.004415
0.444334 0.220004 -0.346021
0.458389 0.231693 -0.338397
0.495150 0.262836 -0.346216
0.562469 0.319799 -0.371649
2.824636 2.242770 -1.761560
3.022391 2.409854 -1.773209
3.181747 2.543236 -1.751298
3.188905 2.547256 -1.641020
3.329307 2.665247 -1.597311
3.585912 2.880607 -1.597391
3.812553 3.070249 -1.568675
4.084824 3.299449 -1.545067
4.547884 3.688569 -1.570940
5.142832 4.190121 -1.608713
6.148469 5.036570 -1.726077
6.794798 5.578370 -1.692057
7.571215 6.288098 -1.652022
8.656581 7.209336 -1.618222
10.236474 8.547503 -1.593017
12.346604 10.334291 -1.539950
0.007491 -0.152416 -0.004409
0.007491 -0.152416 -0.004409
33.719158 28.443678 -1.097876
44.797604 37.825832 -0.093534
0.007491 -0.152416 -0.004409
0.007491 -0.152416 -0.004409
43.396133 36.567383 3.883583
41.771950 35.166187 5.014699
0.007491 -0.152416 -0.004409
0.007491 -0.152416 -0.004409
0.007491 -0.152416 -0.004409
0.007491 -0.152416 -0.004409
0.449089 0.219927 -0.348062
0.464583 0.232687 -0.341340
0.501561 0.263653 -0.349037
0.546035 0.300732 -0.359044
2.845271 2.232548 -1.765858
3.038456 2.393851 -1.774032
3.194389 2.522783 -1.749760
3.195833 2.521956 -1.636647
3.352659 2.652342 -1.600755
3.587341 2.846818 -1.590327
3.798825 3.021574 -1.555516
4.134079 3.300816 -1.556164
4.587691 3.677485 -1.577068
5.175204 4.166970 -1.611052
6.190197 5.011393 -1.729449
6.830660 5.541968 -1.692829
7.617198 6.252325 -1.654015
8.716951 7.174973 -1.621633
0.007459 -0.152198 -0.004401
0.007459 -0.152198 -0.004401
0.007459 -0.152198 -0.004401
0.007459 -0.152198 -0.004401
0.007459 -0.152198 -0.004401
44.204384 36.888229 -0.092132
0.007459 -0.152198 -0.004401
0.007459 -0.152198 -0.004401
46.344662 38.607815 4.127538
42.186779 35.103214 5.039910
0.007459 -0.152198 -0.004401
42.602589 35.409607 7.707849
0.007459 -0.152198 -0.004401
0.007459 -0.152198 -0.004401
0.449868 0.216498 -0.347034
0.466758 0.230270 -0.341335
0.498517 0.256524 -0.345266
0.544502 0.294433 -0.356339
2.858935 2.216403 -1.765864
3.060523 2.381895 -1.778122
3.196942 2.494027 -1.742805
3.203981 2.497846 -1.633003
3.386557 2.647058 -1.609007
3.604530 2.826399 -1.590337
3.842012 3.020619 -1.565704
4.141126 3.265495 -1.551189
4.624559 3.663624 -1.582177
5.199198 4.135250 -1.610606
6.220690 4.974882 -1.729472
6.336710 5.066659 -1.562944
7.658430 6.212446 -1.655025
8.772399 7.133578 -1.623919
0.007453 -0.151962 -0.004395
6.620667 5.338668 -0.819523
0.007453 -0.151962 -0.004395
0.007453 -0.151962 -0.004395
33.208351 27.360447 -1.071268
43.954800 36.238136 -0.091411
0.007453 -0.151962 -0.004395
48.625111 40.058788 2.841380
0.007453 -0.151962 -0.004395
42.493210 34.934090 5.051409
44.049049 36.204350 6.585711
0.007453 -0.151962 -0.004395
0.007453 -0.151962 -0.004395
0.007453 -0.151962 -0.004395
0.453363 0.215187 -0.348052
0.464978 0.224452 -0.338383
0.504997 0.257187 -0.348086
0.558144 0.300522 -0.363535
2.879494 2.205907 -1.770163
3.076458 2.365663 -1.778945
3.195437 2.461258 -1.733529
3.201883 2.465471 -1.624247
3.392427 2.619462 -1.604207
3.625991 2.809470 -1.592276
3.857243 2.996310 -1.564518
4.163676 3.244303 -1.552309
4.647930 3.638448 -1.582701
5.243364 4.121523 -1.616656
6.256771 4.946551 -1.731587
0.007448 -0.151732 -0.004388
6.586317 5.255193 -1.416815
6.610950 5.273254 -1.218780
0.007448 -0.151732 -0.004388
6.522228 5.192266 -0.803497
6.512726 5.182327 -0.605567
0.007448 -0.151732 -0.004388
32.973133 26.847469 -1.058845
43.716057 35.618927 -0.090722
0.007448 -0.151732 -0.004388
0.007448 -0.151732 -0.004388
47.659435 38.771492 4.203536
0.007448 -0.151732 -0.004388
44.268143 35.959515 6.587123
0.007448 -0.151732 -0.004388
0.007448 -0.151732 -0.004388
0.007448 -0.151732 -0.004388
0.451412 0.209676 -0.344979
0.468405 0.223215 -0.339361
0.512741 0.259083 -0.351848
2.738879 2.066233 -1.777627
2.902811 2.197523 -1.776178
3.090451 2.348722 -1.778952
3.202801 2.437849 -1.729668
3.209640 2.441408 -1.620603
3.425343 2.614935 -1.612458
3.653247 2.797149 -1.596787
3.848552 2.952734 -1.553752
4.194521 3.230953 -1.556754
4.672651 3.614335 -1.583734
5.271646 4.096131 -1.618064
6.292058 4.915635 -1.733283
6.655524 5.204610 -1.626451
6.411179 5.051910 -1.372983
0.007443 -0.151500 -0.004381
6.470580 5.094070 -0.989245
6.493173 5.108417 -0.796343
6.500526 5.112269 -0.601739
0.007443 -0.151500 -0.004381
31.769606 25.558199 -1.015737
0.007443 -0.151500 -0.004381
0.007443 -0.151500 -0.004381
44.701702 35.956646 2.586858
47.669273 38.338661 4.185191
41.996693 33.731934 4.945979
44.560143 35.773228 6.599542
0.007443 -0.151500 -0.004381
0.007443 -0.151500 -0.004381
0.007443 -0.151500 -0.004381
0.465510 0.217025 -0.354179
0.471912 0.221879 -0.340339
0.506841 0.249771 -0.346194
2.746026 2.046231 -1.774032
2.917673 2.182169 -1.777042
3.110909 2.335185 -1.782225
3.204675 2.409260 -1.722712
3.215765 2.416176 -1.616228
3.427009 2.583117 -1.605597
3.662741 2.770432 -1.593580
3.896173 2.954628 -1.565736
4.206975 3.200301 -1.553995
4.691200 3.585239 -1.582728
5.308877 4.074768 -1.621793
6.321988 4.878523 -1.733305
6.928513 5.357441 -1.685086
6.428679 5.005320 -1.370386
0.007439 -0.151269 -0.004375
6.468098 5.030931 -0.984331
6.492229 5.046338 -0.792588
6.502024 5.050231 -0.599053
6.561971 5.096133 -0.408842
6.597624 5.120663 -0.213276
43.051380 34.256336 -0.088985
44.561745 35.449341 1.232088
0.007439 -0.151269 -0.004375
0.007439 -0.151269 -0.004375
42.154667 33.449261 4.940861
0.007439 -0.151269 -0.004375
0.007439 -0.151269 -0.004375
0.007439 -0.151269 -0.004375
0.007439 -0.151269 -0.004375
0.452889 0.202777 -0.342924
0.470014 0.216097 -0.337387
0.516095 0.252505 -0.350898
2.759010 2.030180 -1.774038
2.928626 2.162853 -1.775332
3.129441 2.320903 -1.784680
3.208214 2.381323 -1.716530
3.230928 2.397333 -1.616236
3.467718 2.583410 -1.617283
3.712698 2.774755 -1.607739
3.938471 2.950651 -1.575325
4.202024 3.157259 -1.545138
4.714768 3.558822 -1.583252
5.325466 4.038404 -1.619489
0.007407 -0.151051 -0.004368
7.000227 5.349340 -1.694815
6.485416 4.988245 -1.375973
6.509617 5.005367 -1.183674
6.501799 4.995236 -0.984824
6.526028 5.010508 -0.792988
6.522427 5.005579 -0.598218
6.575716 5.043797 -0.407806
0.007407 -0.151051 -0.004368
0.007407 -0.151051 -0.004368
0.007407 -0.151051 -0.004368
0.007407 -0.151051 -0.004368
44.237411 34.722347 3.847092
42.265842 33.142471 4.931188
0.007407 -0.151051 -0.004368
0.007407 -0.151051 -0.004368
0.007407 -0.151051 -0.004368
0.007407 -0.151051 -0.004368
0.464372 0.207864 -0.350079
0.474838 0.215799 -0.339347
0.522558 0.253060 -0.353718
2.768667 2.012315 -1.772242
2.951844 2.154022 -1.781347
3.140723 2.300863 -1.783053
3.209659 2.352865 -1.709574
3.239672 2.374385 -1.613322
3.478942 2.560206 -1.615230
3.717505 2.744282 -1.602603
3.941195 2.916471 -1.569348
4.222495 3.134472 -1.545703
4.732974 3.529524 -1.582246
5.350996 4.009154 -1.619968
5.794374 4.350875 -1.574603
7.034834 5.311645 -1.695584
7.878150 6.019953 -1.663345
6.553201 4.979100 -1.186227
6.532827 4.959234 -0.985079
6.558733 4.975605 -0.793386
6.540969 4.959642 -0.597241
6.616475 5.014760 -0.408500
0.007403 -0.150821 -0.004361
42.621380 33.116943 -0.087725
0.007403 -0.150821 -0.004361
0.007403 -0.150821 -0.004361
0.007403 -0.150821 -0.004361
43.740528 33.898777 5.080294
43.085915 33.363491 6.292954
43.534702 33.698948 7.658298
0.007403 -0.150821 -0.004361
0.007403 -0.150821 -0.004361
0.467757 0.206499 -0.351097
0.481080 0.216539 -0.342289
0.533243 0.256804 -0.359363
2.786732 2.000992 -1.775848
2.970750 2.141674 -1.784786
3.160541 2.287478 -1.786325
3.222533 2.333486 -1.708807
3.252661 2.354825 -1.612598
3.495950 2.541550 -1.615924
3.728107 2.718490 -1.600039
3.987467 2.916128 -1.580732
4.255022 3.120942 -1.550702
4.757140 3.504861 -1.583278
5.364030 3.970257 -1.616734
5.824828 4.321311 -1.575876
7.066145 5.271354 -1.695606
6.555015 4.922278 -1.378304
6.615462 4.967039 -1.192157
6.591948 4.944932 -0.989564
6.619606 4.962420 -0.797184
6.581291 4.930739 -0.598259
0.007398 -0.150588 -0.004355
6.712204 5.024004 -0.214082
0.007398 -0.150588 -0.004355
0.007398 -0.150588 -0.004355
0.007398 -0.150588 -0.004355
0.007398 -0.150588 -0.004355
0.007398 -0.150588 -0.004355
43.492168 33.280159 6.323963
0.007398 -0.150588 -0.004355
0.007398 -0.150588 -0.004355
0.007398 -0.150588 -0.004355
0.467074 0.201984 -0.349046
0.477630 0.209793 -0.338355
0.538369 0.256142 -0.361242
2.799040 1.985174 -1.775852
2.982446 2.123706 -1.783933
3.173072 2.268411 -1.785514
3.225033 2.306211 -1.702623
3.266996 2.336325 -1.612604
3.512869 2.522794 -1.616618
3.737013 2.691518 -1.596831
3.988332 2.880682 -1.574155
4.273765 3.096671 -1.550712
4.790392 3.487059 -1.587366
5.373700 3.928996 -1.612571
5.853547 4.290349 -1.576730
7.095642 5.229688 -1.695254
0.007393 -0.150358 -0.004348
6.577166 4.877421 -1.180076
10.800494 8.103157 -1.612172
6.617251 4.900348 -0.793426
6.604065 4.888230 -0.597708
0.007393 -0.150358 -0.004348
31.585882 23.932539 -0.987905
42.096184 31.935085 -0.086292
0.007393 -0.150358 -0.004348
0.007393 -0.150358 -0.004348
0.007393 -0.150358 -0.004348
44.038868 33.325314 5.069544
0.007393 -0.150358 -0.004348
0.007393 -0.150358 -0.004348
68.964706 52.173878 14.079446
0.007393 -0.150358 -0.004348
0.464969 0.196444 -0.345973
0.485248 0.211515 -0.342280
0.544919 0.256504 -0.364063
2.812709 1.970376 -1.776757
2.999793 2.110033 -1.786513
3.188808 2.250920 -1.786337
3.219959 2.273433 -1.692570
0.007389 -0.150127 -0.004342
3.515152 2.492020 -1.610443
3.769935 2.682764 -1.603914
4.005703 2.857950 -1.574164
4.323633 3.094634 -1.561808
4.812757 3.460854 -1.587886
5.397788 3.897342 -1.612587
5.881340 4.257022 -1.577166
7.132115 5.191340 -1.696395
6.620770 4.853000 -1.379979
6.589466 4.825480 -1.177001
10.865224 8.054336 -1.614793
6.646187 4.862470 -0.793445
6.659299 4.868501 -0.600010
31.495018 23.596535 -1.904810
31.524284 23.600328 -0.981831
42.125813 31.565023 -0.086147
0.007389 -0.150127 -0.004342
0.007389 -0.150127 -0.004342
45.643085 34.146774 3.898509
44.333599 33.137020 5.080517
0.007389 -0.150127 -0.004342
0.007389 -0.150127 -0.004342
68.499519 51.184566 13.921797
0.007389 -0.150127 -0.004342
0.473882 0.199095 -0.351082
0.480400 0.203688 -0.337363
0.538817 0.247194 -0.358408
2.826646 1.954990 -1.777661
3.014595 2.093560 -1.787377
3.205470 2.234968 -1.787975
3.222442 2.245754 -1.686387
3.298811 2.300750 -1.614077
3.518215 2.463035 -1.604954
3.798805 2.669668 -1.609067
4.005064 2.820754 -1.566988
4.305220 3.042478 -1.548515
4.857372 3.449821 -1.595541
5.420974 3.866486 -1.612600
5.900307 4.218723 -1.575506
7.164286 5.151649 -1.696789
6.678770 4.835201 -1.385890
6.635406 4.800787 -1.180114
0.007356 -0.149908 -0.004334
0.007356 -0.149908 -0.004334
0.007356 -0.149908 -0.004334
31.838648 23.561283 -1.917155
0.007356 -0.149908 -0.004334
42.381325 31.377394 -0.086442
0.007356 -0.149908 -0.004334
0.007356 -0.149908 -0.004334
0.007356 -0.149908 -0.004334
44.554668 32.904350 5.083828
0.007356 -0.149908 -0.004334
0.007356 -0.149908 -0.004334
68.030502 50.225048 13.767068
0.007356 -0.149908 -0.004334
0.470346 0.192546 -0.346986
0.486607 0.204285 -0.340305
0.538253 0.242264 -0.356520
2.837274 1.937895 -1.776765
3.025992 2.075365 -1.786523
3.211798 2.211339 -1.783898
3.219818 2.215402 -1.677881
3.321831 2.288602 -1.618464
3.551365 2.456376 -1.613204
3.811899 2.645783 -1.607788
4.039015 2.810354 -1.573583
4.359135 3.044069 -1.561273
4.899831 3.438095 -1.602686
5.433001 3.827445 -1.609364
5.923744 4.183806 -1.575102
7.194662 5.110613 -1.696808
6.734299 4.816880 -1.391473
6.689264 4.781618 -1.184635
10.987451 7.947446 -1.618859
13.418799 9.732760 -1.584715
17.744884 12.915184 -1.579266
31.612486 23.111589 -1.895603
31.646439 23.118574 -0.977353
0.007352 -0.149677 -0.004328
0.007352 -0.149677 -0.004328
0.007352 -0.149677 -0.004328
0.007352 -0.149677 -0.004328
44.668530 32.592522 5.075087
0.007352 -0.149677 -0.004328
0.007352 -0.149677 -0.004328
0.007352 -0.149677 -0.004328
0.007352 -0.149677 -0.004328
0.473692 0.191119 -0.348004
0.488633 0.201752 -0.340300
0.541905 0.240464 -0.357457
2.850658 1.922840 -1.777668
3.038725 2.058172 -1.786527
3.225319 2.193080 -1.783903
3.227388 2.192756 -1.674791
3.335805 2.269717 -1.618470
3.566282 2.436159 -1.613210
3.818715 2.617393 -1.603936
4.063696 2.792934 -1.576584
4.396093 3.032735 -1.567933
4.939160 3.423719 -1.608811
5.447895 3.790679 -1.607056
5.946967 4.148768 -1.574697
7.226367 5.070542 -1.697200
6.796213 4.802740 -1.398364
6.800694 4.803978 -1.199287
11.048286 7.894899 -1.621007
13.505999 9.677942 -1.588346
17.897177 12.869518 -1.586170
31.647196 22.857965 -1.889837
31.834743 22.976397 -0.979144
36.588715 26.419786 -0.074871
0.007348 -0.149447 -0.004321
0.007348 -0.149447 -0.004321
45.281284 32.668831 3.818096
0.007348 -0.149447 -0.004321
43.309406 31.190742 6.162040
0.007348 -0.149447 -0.004321
0.007348 -0.149447 -0.004321
0.007348 -0.149447 -0.004321
0.478486 0.190588 -0.350045
0.487855 0.197074 -0.338330
0.542767 0.236483 -0.356510
2.861436 1.905121 -1.776772
3.057240 2.045134 -1.789965
3.230244 2.167783 -1.779010
3.236722 2.170620 -1.672475
3.360235 2.258343 -1.623587
3.563230 2.402097 -1.604973
3.839188 2.598953 -1.605872
4.083648 2.771991 -1.577789
4.396122 2.993458 -1.561291
4.958073 3.394391 -1.608312
5.472732 3.759713 -1.607533
5.965247 4.110210 -1.573036
7.259470 5.031437 -1.697965
8.208599 5.759082 -1.681189
9.396032 6.611752 -1.648764
11.118334 7.845784 -1.624332
13.589852 9.616579 -1.591411
18.045267 12.814703 -1.592504
32.026379 22.845070 -1.904390
32.064655 22.863129 -0.982221
0.007343 -0.149216 -0.004315
0.007343 -0.149216 -0.004315
0.007343 -0.149216 -0.004315
43.044506 30.660316 3.613622
0.007343 -0.149216 -0.004315
0.007343 -0.149216 -0.004315
0.007343 -0.149216 -0.004315
0.007343 -0.149216 -0.004315
0.007343 -0.149216 -0.004315
0.478955 0.187178 -0.349016
0.489780 0.194619 -0.338325
0.544900 0.233716 -0.356505
2.887411 1.899742 -1.785777
3.072752 2.029862 -1.791685
3.235656 2.144692 -1.774932
3.239079 2.145312 -1.667063
3.369461 2.235996 -1.621401
3.581997 2.385701 -1.607039
3.868829 2.586933 -1.611667
4.105056 2.752020 -1.579592
4.388483 2.951388 -1.552430
4.973616 3.362714 -1.606793
5.500774 3.733867 -1.609400
5.999202 4.082842 -1.575562
7.290748 4.990983 -1.698356
8.259100 5.726051 -1.684810
9.441654 6.565238 -1.650195
11.177297 7.794256 -1.626477
13.679815 9.566267 -1.595604
18.203491 12.775347 -1.600116
32.087322 22.618944 -1.900539
32.282921 22.739887 -0.984950
0.007338 -0.148984 -0.004308
0.007338 -0.148984 -0.004308
0.007338 -0.148984 -0.004308
43.670120 30.741613 3.651543
65.823875 46.378616 7.388067
42.750114 30.043488 6.032265
66.060417 46.490116 11.230494
0.007338 -0.148984 -0.004308
0.007338 -0.148984 -0.004308
0.479487 0.183704 -0.347989
0.493180 0.193073 -0.339303
0.536977 0.223736 -0.349908
2.902058 1.885406 -1.787580
3.085235 2.012408 -1.791689
3.240225 2.119441 -1.770039
3.246180 2.122664 -1.663972
3.399902 2.228591 -1.629440
3.600025 2.366838 -1.608418
3.861213 2.548599 -1.602025
4.109147 2.719863 -1.574809
4.430383 2.942086 -1.560752
5.007988 3.344269 -1.611388
5.536461 3.710371 -1.613126
6.032213 4.053077 -1.577671
7.321095 4.947950 -1.698375
8.313715 5.693456 -1.689086
9.505576 6.526504 -1.654443
11.240677 7.742656 -1.629093
13.769676 9.511699 -1.599610
18.340187 12.709883 -1.605450
32.312603 22.500778 -1.906224
32.535194 22.638983 -0.988717
42.471100 29.576382 -0.085621
0.007306 -0.148766 -0.004301
65.131493 45.384422 3.576434
