# This PCD file was generated using the MATLAB® pcwrite function
# from Computer Vision Toolbox®.
# .PCD v.7 - Point Cloud Data file format
VERSION .7
FIELDS x y z
SIZE 4 4 4
TYPE F F F
COUNT 1 1 1
WIDTH 1685
HEIGHT 1
VIEWPOINT 0 0 0 1 0 0 0
POINTS 1685
DATA ascii
1.776048 3.803958 -1.699214
1.896596 4.071880 -1.690953
2.021849 4.347983 -1.672478
2.180014 4.697074 -1.664290
2.347696 5.069204 -1.646639
2.551271 5.518443 -1.632648
2.638005 5.709261 -1.527659
2.798805 6.062071 -1.453129
3.098389 6.722964 -1.425030
3.778628 8.331613 -1.529716
4.256043 9.401670 -1.473502
4.849580 10.726686 -1.394039
4.902360 10.835269 -1.125589
4.908568 10.844355 -0.845043
4.897737 10.810113 -0.562738
5.060315 11.164297 -0.290429
8.472772 18.799742 -0.001451
12.463864 27.710442 0.708562
12.498978 27.763641 1.426427
12.503730 27.762011 2.139057
11.601967 25.724056 2.645802
0.004273 -0.161037 -0.003995
11.572855 25.624500 3.971492
11.098441 24.544704 4.448910
11.276188 24.917858 5.179961
0.241349 0.364464 -0.345681
0.246177 0.374699 -0.334068
0.271199 0.429785 -0.348502
0.299667 0.492238 -0.363754
0.362922 0.631328 -0.415456
1.601046 3.364386 -1.726445
1.688405 3.553948 -1.707051
1.799586 3.795620 -1.699927
1.916251 4.050882 -1.686836
2.052432 4.346875 -1.676303
2.207109 4.682962 -1.663678
2.377739 5.055864 -1.646623
2.580678 5.496876 -1.630604
2.649104 5.644644 -1.514736
2.834555 6.046121 -1.453109
3.103649 6.630178 -1.409467
3.832259 8.320775 -1.531635
4.310159 9.375480 -1.473197
4.919466 10.715152 -1.396094
4.955651 10.785363 -1.123332
4.969301 10.810733 -0.844594
4.967343 10.796572 -0.563451
0.004266 -0.160819 -0.003990
5.230996 11.363278 -0.002412
6.706264 14.602749 0.374467
6.710714 14.599304 0.754086
6.723866 14.621810 1.133537
6.724346 14.609643 1.511995
11.784790 25.709032 3.323808
11.438512 24.937773 3.875721
11.347600 24.715931 4.491481
11.191731 24.352192 5.076271
0.242201 0.358617 -0.342615
0.247802 0.370351 -0.332104
0.273849 0.426854 -0.347557
0.304903 0.493996 -0.365542
0.371229 0.637680 -0.419726
1.619772 3.352049 -1.724806
1.708988 3.542754 -1.706267
1.822293 3.785449 -1.699913
1.945153 4.050281 -1.690924
2.079925 4.338690 -1.677567
2.234125 4.668700 -1.663066
2.407680 5.042346 -1.646605
2.621302 5.499755 -1.635649
2.666106 5.594230 -1.505500
2.885819 6.063698 -1.460986
3.142645 6.612461 -1.409446
3.880958 8.298841 -1.531610
4.369874 9.361582 -1.474838
4.985253 10.694149 -1.396990
5.024339 10.769595 -1.124600
5.039808 10.798531 -0.845817
5.036965 10.782589 -0.564164
5.216970 11.163948 -0.291844
0.004258 -0.160601 -0.003985
6.786876 14.555103 0.374273
6.789624 14.548011 0.753471
0.004258 -0.160601 -0.003985
0.004258 -0.160601 -0.003985
0.004258 -0.160601 -0.003985
0.004258 -0.160601 -0.003985
11.381020 24.414091 4.448711
11.326716 24.275167 5.073740
0.245182 0.357461 -0.342609
0.255997 0.380226 -0.338954
0.277212 0.425513 -0.347551
0.304899 0.484379 -0.361051
0.383471 0.652161 -0.428274
1.641471 3.346228 -1.726419
1.731810 3.536454 -1.707795
1.844975 3.775157 -1.699899
1.964532 4.029048 -1.686807
2.104959 4.325183 -1.676912
2.264302 4.661211 -1.664837
2.435917 5.025174 -1.645486
2.650507 5.477825 -1.633606
2.674357 5.526204 -1.491656
2.923223 6.050784 -1.461798
3.134696 6.494923 -1.388703
3.931226 8.280213 -1.532234
4.427062 9.341925 -1.475646
5.071067 10.715963 -1.403447
5.095525 10.758812 -1.126425
5.107784 10.780454 -0.846621
5.108242 10.771781 -0.565062
0.004252 -0.160386 -0.003981
0.004252 -0.160386 -0.003981
0.004252 -0.160386 -0.003981
0.004252 -0.160386 -0.003981
15.187714 32.247383 2.503232
12.924364 27.392210 2.839110
11.716097 24.793613 3.223241
11.534490 24.396269 3.812327
13.780917 29.154861 5.321997
12.924279 27.307934 5.719317
0.249617 0.359394 -0.344643
0.255385 0.371112 -0.334051
0.279064 0.420957 -0.345667
0.309348 0.484472 -0.361941
0.385807 0.645286 -0.425701
1.661598 3.336971 -1.726406
1.755402 3.531677 -1.710093
1.868359 3.766407 -1.700612
1.990202 4.021321 -1.688159
2.132334 4.316671 -1.678177
2.290330 4.644902 -1.663629
2.465707 5.011329 -1.645469
2.689538 5.476707 -1.637638
2.690253 5.475834 -1.482421
2.962257 6.041178 -1.463440
3.173740 6.478799 -1.389052
3.983902 8.266626 -1.533829
4.486697 9.327293 -1.477287
5.134401 10.688668 -1.403649
5.163357 10.740376 -1.127508
5.180024 10.770982 -0.848123
5.178718 10.758716 -0.565868
5.413702 11.244589 -0.295381
5.423025 11.259399 -0.002319
0.004245 -0.160168 -0.003976
30.364584 63.709908 3.303239
13.292621 27.783270 2.163800
0.004245 -0.160168 -0.003976
11.858537 24.724257 3.223073
11.606503 24.184952 3.789823
12.313734 25.646460 4.697405
12.065937 25.105036 5.274710
0.253338 0.359743 -0.345657
0.260678 0.374589 -0.336983
0.285448 0.425955 -0.349416
0.314609 0.486154 -0.363730
0.384950 0.631891 -0.419707
1.680717 3.324024 -1.724766
1.774209 3.516783 -1.707768
1.890090 3.754161 -1.699871
2.014956 4.009708 -1.688145
2.159669 4.307985 -1.679441
2.320432 4.637058 -1.665400
2.497143 4.998608 -1.646003
2.708451 5.433526 -1.629520
2.707483 5.426755 -1.473646
3.004896 6.036079 -1.466329
3.212160 6.458354 -1.388661
4.033132 8.245600 -1.534128
4.545403 9.306141 -1.478093
5.197541 10.660989 -1.403850
5.256135 10.773571 -1.133971
5.287915 10.830245 -0.855053
5.248360 10.743402 -0.566581
5.495690 11.247744 -0.296227
5.514028 11.275954 -0.002279
0.004238 -0.159949 -0.003971
16.640358 34.325134 1.786685
15.857419 32.673782 2.550504
0.004238 -0.159949 -0.003971
0.004238 -0.159949 -0.003971
0.004238 -0.159949 -0.003971
12.099133 24.814846 4.558909
12.333578 25.288385 5.327766
0.259420 0.364665 -0.349730
0.266127 0.377980 -0.339915
0.285024 0.416551 -0.344716
0.321548 0.490942 -0.367312
0.387890 0.626652 -0.417989
1.699102 3.311259 -1.723127
1.795942 3.506449 -1.707754
1.913397 3.745154 -1.700584
2.038060 3.996603 -1.687446
2.184495 4.294036 -1.678786
2.346300 4.620452 -1.664193
2.525923 4.982684 -1.645435
2.726062 5.388565 -1.620896
0.004231 -0.159735 -0.003966
3.048893 6.038789 -1.470881
3.255963 6.454699 -1.391601
4.086322 8.228898 -1.535398
4.601500 9.283656 -1.478622
5.260705 10.628466 -1.403587
5.308592 10.717417 -1.131342
5.326528 10.749686 -0.851124
5.323381 10.733894 -0.567664
5.594533 11.284458 -0.297949
5.606913 11.299989 -0.002238
0.004231 -0.159735 -0.003966
16.913963 34.383427 1.794807
15.509646 31.487598 2.465178
13.327637 27.022795 2.824435
7.118700 14.342858 1.887307
7.109298 14.311357 2.263969
12.126845 24.520489 4.517433
12.249955 24.749876 5.229629
0.258526 0.355740 -0.344625
0.266814 0.372043 -0.336971
0.288232 0.415196 -0.344710
0.319625 0.478169 -0.361026
0.398011 0.635992 -0.423970
1.722481 3.310161 -1.727180
1.813086 3.490008 -1.704659
1.935806 3.734327 -1.700570
2.064556 3.992157 -1.690167
2.210081 4.281651 -1.678771
2.375422 4.610537 -1.665368
2.562256 4.984255 -1.650378
2.757076 5.371314 -1.620372
2.760184 5.375314 -1.468080
3.097582 6.047665 -1.477095
3.300951 6.450173 -1.394541
3.302393 6.523173 -1.227278
3.301130 6.517877 -1.049526
0.004224 -0.159516 -0.003962
5.376209 10.702164 -1.132796
5.394364 10.734368 -0.852208
5.391150 10.718610 -0.568377
0.004224 -0.159516 -0.003962
0.004224 -0.159516 -0.003962
17.191154 34.473892 0.899015
17.015461 34.090790 1.784709
16.006351 32.045849 2.515719
0.004224 -0.159516 -0.003962
12.796782 25.542776 3.357459
0.004224 -0.159516 -0.003962
12.874155 25.665789 4.740763
12.416683 24.726728 5.239698
0.259189 0.349880 -0.341559
0.266726 0.364507 -0.333047
0.291526 0.413772 -0.344704
0.327278 0.484546 -0.365505
0.400967 0.630706 -0.422253
1.743018 3.300143 -1.727167
1.834875 3.481417 -1.705417
1.955661 3.718386 -1.698375
2.089953 3.981776 -1.690836
2.235587 4.269114 -1.678756
2.402816 4.597045 -1.665352
2.587492 4.958930 -1.647054
0.004217 -0.159298 -0.003957
0.004217 -0.159298 -0.003957
3.129012 6.018978 -1.474582
3.344501 6.439518 -1.396370
3.294804 6.412544 -1.210411
3.296273 6.409910 -1.035601
3.319724 6.454007 -0.866728
0.004217 -0.159298 -0.003957
3.335901 6.475077 -0.522051
3.330700 6.462059 -0.348480
0.004217 -0.159298 -0.003957
0.004217 -0.159298 -0.003957
0.004217 -0.159298 -0.003957
0.004217 -0.159298 -0.003957
17.474339 34.483841 2.714588
16.019114 31.571453 3.317085
13.578279 26.724430 3.522192
0.004217 -0.159298 -0.003957
12.358054 24.266727 4.497117
12.701566 24.935730 5.299055
0.263745 0.351640 -0.343593
0.275356 0.374037 -0.339897
0.295721 0.413856 -0.345637
0.326223 0.473287 -0.360116
0.402340 0.622114 -0.418824
1.763468 3.289999 -1.727153
1.863947 3.485519 -1.712337
1.983682 3.716930 -1.702724
2.114453 3.969565 -1.690821
2.262634 4.257722 -1.679380
2.431824 4.584671 -1.665931
2.622152 4.952310 -1.649792
0.004210 -0.159080 -0.003952
2.846886 5.384270 -1.479104
3.174491 6.017979 -1.478718
3.388020 6.428568 -1.398199
3.334569 6.394908 -1.210714
3.334223 6.388740 -1.035302
3.334516 6.386660 -0.860452
3.326765 6.365988 -0.686044
3.330737 6.368326 -0.515207
3.324524 6.353467 -0.343815
3.333967 6.366544 -0.173003
3.336152 6.365374 -0.002913
3.338127 6.366611 0.167223
0.004210 -0.159080 -0.003952
0.004210 -0.159080 -0.003952
0.004210 -0.159080 -0.003952
0.004210 -0.159080 -0.003952
0.004210 -0.159080 -0.003952
0.004210 -0.159080 -0.003952
3.397455 6.449802 1.396860
0.266669 0.350365 -0.343587
0.275997 0.368041 -0.336953
0.298181 0.410818 -0.344692
0.332311 0.476410 -0.362801
0.395205 0.597553 -0.406842
1.780993 3.277113 -1.725515
1.879775 3.465154 -1.707701
2.003359 3.700746 -1.700528
2.138292 3.959626 -1.691491
2.287132 4.243208 -1.678725
2.459066 4.570860 -1.665915
2.651477 4.939561 -1.650326
2.884239 5.383257 -1.638036
2.890310 5.392730 -1.485538
3.205268 5.993487 -1.477037
3.398367 6.359263 -1.387449
3.413800 6.456573 -1.225596
3.407003 6.440714 -1.046405
3.414910 6.450592 -0.871320
3.404442 6.424848 -0.694186
3.407385 6.427894 -0.521313
3.399519 6.407240 -0.347602
3.397150 6.397226 -0.174274
3.389954 6.380664 -0.002888
3.377429 6.351099 0.167337
3.375022 6.341078 0.338565
0.004201 -0.158858 -0.003947
0.004201 -0.158858 -0.003947
0.004201 -0.158858 -0.003947
3.370538 6.316520 1.022815
0.004201 -0.158858 -0.003947
0.004201 -0.158858 -0.003947
0.271993 0.353643 -0.346641
0.278218 0.365146 -0.335967
0.302278 0.410906 -0.345624
0.330158 0.463653 -0.356515
0.400378 0.597110 -0.407691
1.801572 3.268681 -1.726315
1.900604 3.454537 -1.707688
2.023770 3.686104 -1.699059
2.164556 3.952498 -1.693527
2.315048 4.235260 -1.680629
2.488875 4.561948 -1.667685
2.685225 4.932980 -1.653064
2.924192 5.382236 -1.642574
2.936712 5.403811 -1.492893
3.245143 5.983840 -1.479095
3.468854 6.402434 -1.400750
4.340440 8.137171 -1.540459
4.883005 9.171498 -1.482102
5.607346 10.547906 -1.413166
5.681019 10.679719 -1.143618
3.463732 6.443781 -0.524077
3.460430 6.432059 -0.349904
3.464535 6.434478 -0.175730
3.466543 6.435671 -0.002855
3.462249 6.422084 0.169740
3.456991 6.406678 0.343071
3.453360 6.397208 0.515154
3.451825 6.388905 0.687515
3.454809 6.389216 0.862699
3.448359 6.374354 1.035095
3.418111 6.311700 1.199095
3.415413 6.301284 1.373553
0.272506 0.347749 -0.343575
0.280411 0.362240 -0.334982
0.309696 0.417205 -0.350312
0.339587 0.473033 -0.362789
0.407273 0.599834 -0.410251
1.816978 3.250450 -1.722236
1.922212 3.445421 -1.708445
2.046731 3.676293 -1.699773
2.187288 3.938569 -1.692829
2.340272 4.222117 -1.680614
2.514204 4.544443 -1.666479
2.717191 4.922790 -1.654701
2.967842 5.387751 -1.649136
2.989735 5.426543 -1.503474
3.288713 5.980849 -1.482815
3.540830 6.446724 -1.414419
4.387142 8.110572 -1.540111
4.942163 9.154012 -1.483743
5.677217 10.531524 -1.415221
5.733886 10.629518 -1.141732
0.004188 -0.158425 -0.003938
0.004188 -0.158425 -0.003938
6.932947 12.860713 -0.344159
0.004188 -0.158425 -0.003938
6.967656 12.910089 0.342057
18.313942 34.176025 1.816451
0.004188 -0.158425 -0.003938
0.004188 -0.158425 -0.003938
3.516740 6.415031 0.868767
3.507329 6.394823 1.041524
3.503663 6.382659 1.215991
3.499800 6.370132 1.392474
0.281919 0.358540 -0.351729
0.285881 0.365470 -0.337915
0.307975 0.406326 -0.344674
0.339812 0.465015 -0.359194
0.419315 0.612037 -0.417942
1.839733 3.244692 -1.724663
1.942899 3.434551 -1.708432
2.070532 3.667989 -1.701214
2.207935 3.919167 -1.690079
2.365415 4.208827 -1.680599
2.541188 4.530146 -1.666462
2.748164 4.908540 -1.655234
2.996935 5.365741 -1.647600
3.041340 5.443200 -1.512672
3.318500 5.949461 -1.479887
3.606167 6.474236 -1.424758
4.437407 8.090661 -1.541058
5.000992 9.131785 -1.484828
0.004180 -0.158206 -0.003933
0.004180 -0.158206 -0.003933
3.630483 6.570218 -0.537261
3.601419 6.513647 -0.356271
3.620835 6.544249 -0.179609
7.092844 12.968018 -0.001690
0.004180 -0.158206 -0.003933
0.004180 -0.158206 -0.003933
16.752380 30.792618 2.462241
14.702665 26.982819 2.880375
13.618730 24.971497 3.342735
13.440216 24.621981 3.962030
0.004180 -0.158206 -0.003933
13.272995 24.284344 5.240453
0.280852 0.349551 -0.346623
0.289791 0.365538 -0.338888
0.313826 0.409379 -0.347483
0.347791 0.471082 -0.363673
0.413332 0.590817 -0.407671
1.860140 3.235903 -1.725463
1.965922 3.426462 -1.709959
2.094287 3.659535 -1.702654
2.236764 3.916538 -1.694167
2.393207 4.200380 -1.682503
2.569039 4.517381 -1.667042
2.777260 4.892898 -1.655218
3.031425 5.353739 -1.649101
3.093175 5.461674 -1.522331
3.356289 5.937970 -1.481530
3.651642 6.469770 -1.428069
4.489991 8.071400 -1.542329
5.061912 9.117023 -1.487025
5.805441 10.471969 -1.416086
0.004174 -0.157992 -0.003928
3.674850 6.559973 -0.538075
3.637993 6.487171 -0.355971
0.004174 -0.157992 -0.003928
0.004174 -0.157992 -0.003928
17.092686 31.029495 0.827153
18.414736 33.429249 1.788115
17.146952 31.091316 2.493919
15.630774 28.316427 3.031359
14.035562 25.389210 3.409092
13.741807 24.834347 4.008628
13.501420 24.387526 4.602644
13.314799 24.028770 5.201973
0.283667 0.348216 -0.346617
0.288502 0.356532 -0.333985
0.316133 0.406320 -0.346539
0.351276 0.469371 -0.363667
0.429899 0.610816 -0.419640
1.879618 3.225393 -1.725450
1.986773 3.417303 -1.710717
2.113477 3.642781 -1.700459
2.258347 3.900571 -1.692786
2.416409 4.183486 -1.681209
2.598658 4.507777 -1.668813
2.805304 4.875400 -1.654649
3.065886 5.341530 -1.650601
3.147223 5.483140 -1.532912
3.386611 5.907960 -1.479017
3.731061 6.520346 -1.443587
4.539627 8.053390 -1.543601
5.119959 9.096673 -1.488388
0.004167 -0.157773 -0.003924
3.697422 6.515382 -0.714302
3.686374 6.490112 -0.534157
0.004167 -0.157773 -0.003924
3.661810 6.437951 -0.177862
19.543795 35.049538 0.002300
17.279940 30.958416 0.827884
17.295687 30.961988 1.661821
15.862265 28.359529 2.282867
15.882484 28.373180 3.047440
14.073071 25.112188 3.382873
14.095448 25.132296 4.069439
13.749474 24.491758 4.637437
14.382399 25.616901 5.561528
0.291704 0.355777 -0.352731
0.294085 0.359614 -0.336917
0.323789 0.412380 -0.351226
0.350605 0.459729 -0.359175
0.427346 0.595881 -0.412790
1.899942 3.216368 -1.726250
2.009728 3.408930 -1.712244
2.135964 3.630442 -1.700444
2.284412 3.892675 -1.694822
2.444865 4.174284 -1.683113
2.626239 4.492539 -1.668796
2.842703 4.874504 -1.659591
3.098426 5.323518 -1.650583
3.200664 5.502472 -1.543032
3.410846 5.869896 -1.474427
3.788755 6.533237 -1.450966
4.590127 8.030039 -1.544223
0.004160 -0.157555 -0.003919
3.736246 6.497743 -0.893666
3.723257 6.469290 -0.711684
0.004160 -0.157555 -0.003919
0.004160 -0.157555 -0.003919
3.695909 6.407659 -0.177610
19.857731 35.135521 0.002424
3.763932 6.520757 0.175216
19.111601 33.755478 1.817455
15.662548 27.623255 2.231065
19.019524 33.552479 3.613061
0.004160 -0.157555 -0.003919
15.178535 26.711735 4.337852
14.494975 25.481140 4.839372
14.259095 25.043915 5.455971
0.287003 0.340869 -0.343545
0.299633 0.362704 -0.339849
0.324442 0.406147 -0.348404
3.376750 5.771722 -3.427277
0.429879 0.590513 -0.411073
1.917484 3.202451 -1.724611
2.025608 3.389536 -1.708378
2.158632 3.619956 -1.701158
2.303002 3.871556 -1.691389
2.470679 4.162046 -1.683738
2.653873 4.479261 -1.669375
2.875400 4.864990 -1.661778
3.136627 5.317614 -1.654109
3.258289 5.528135 -1.554994
3.413382 5.794413 -1.460696
3.797848 6.460429 -1.439846
3.775830 6.486527 -1.257846
3.754067 6.445702 -1.069894
3.775445 6.478120 -0.893878
3.752438 6.432432 -0.709994
0.004152 -0.157337 -0.003914
3.738238 6.399839 -0.354609
0.004152 -0.157337 -0.003914
0.004152 -0.157337 -0.003914
0.004152 -0.157337 -0.003914
0.004152 -0.157337 -0.003914
0.004152 -0.157337 -0.003914
16.171026 28.121664 3.040328
15.178025 26.363884 3.574219
14.647077 25.426178 4.143694
14.428355 25.024281 4.768685
14.397917 24.951496 5.453813
0.292432 0.343924 -0.346599
0.302626 0.361218 -0.339844
0.327676 0.404515 -0.348398
3.411681 5.754005 -3.428155
0.434179 0.588274 -0.411067
1.940104 3.196027 -1.727037
2.047822 3.381270 -1.709906
2.184956 3.615784 -1.704780
2.330581 3.864589 -1.694109
2.493570 4.144732 -1.682443
2.684333 4.470780 -1.671741
2.905125 4.848116 -1.661762
3.171934 5.306422 -1.656115
3.316339 5.551059 -1.566495
3.451530 5.779403 -1.461923
3.838947 6.441448 -1.440564
3.801174 6.442710 -1.253614
3.803994 6.442468 -1.072931
3.819488 6.466872 -0.895247
3.790249 6.410981 -0.709973
3.775710 6.380649 -0.530475
3.778875 6.383664 -0.354867
0.004146 -0.157122 -0.003909
0.004146 -0.157122 -0.003909
0.004146 -0.157122 -0.003909
19.678492 33.841682 1.834268
0.004146 -0.157122 -0.003909
16.286396 27.935997 3.030725
15.560453 26.673357 3.628023
15.014110 25.710901 4.204233
14.550544 24.892492 4.759990
14.450256 24.710457 5.419410
0.300580 0.351342 -0.352713
0.303908 0.356641 -0.337879
0.326523 0.395178 -0.343698
3.448442 5.737021 -3.429930
0.436622 0.582884 -0.409349
1.959347 3.185058 -1.727025
2.065946 3.364541 -1.707581
2.208495 3.606616 -1.706220
2.352715 3.849741 -1.693411
2.521146 4.135471 -1.684348
2.708949 4.452214 -1.670534
2.936772 4.836545 -1.663398
3.203279 5.288328 -1.656097
3.376728 5.579111 -1.579379
3.476643 5.746816 -1.458581
0.004139 -0.156904 -0.003905
3.857116 6.449298 -1.259099
3.946698 6.600353 -1.102104
3.985871 6.662232 -0.924643
3.836133 6.400686 -0.711250
3.818274 6.367681 -0.531151
3.806487 6.342443 -0.353825
3.822751 6.367810 -0.178194
3.855281 6.418297 -0.002663
3.832180 6.373796 0.173083
14.942178 25.318090 1.378109
15.112301 25.588240 2.088366
16.328863 27.650917 3.009765
19.234299 32.574718 4.441820
14.827332 25.054131 4.111225
0.004139 -0.156904 -0.003905
14.533208 24.525553 5.397237
0.293792 0.333610 -0.341488
0.304119 0.350685 -0.334935
0.332303 0.398156 -0.346509
3.501272 5.751785 -3.449647
0.439952 0.579051 -0.408488
1.977612 3.172413 -1.726199
2.092129 3.364321 -1.712961
2.230108 3.594102 -1.706206
2.375725 3.836396 -1.693397
2.544800 4.119513 -1.683692
2.739334 4.443374 -1.672901
2.961496 4.813206 -1.661177
3.236525 5.273392 -1.657092
3.427595 5.589942 -1.587655
3.511559 5.726357 -1.458561
3.977018 6.501995 -1.463462
4.791276 7.947059 -1.548661
3.988484 6.582894 -1.102916
3.944956 6.506771 -0.906555
3.886838 6.403430 -0.713826
3.851660 6.338992 -0.530574
3.842640 6.321348 -0.353805
3.861221 6.347677 -0.178219
3.900162 6.408293 -0.002640
3.883860 6.378361 0.173803
0.004161 -0.156676 -0.003900
19.567080 32.744732 2.679130
16.550360 27.649736 3.020262
16.094578 26.873711 3.680038
15.275137 25.477409 4.194614
14.901352 24.830736 4.780568
14.746376 24.561638 5.423617
0.297573 0.333580 -0.342502
0.293643 0.326670 -0.320237
0.327388 0.382780 -0.338054
0.366448 0.447475 -0.357350
0.435914 0.562722 -0.400783
1.998245 3.162449 -1.726999
2.112021 3.350536 -1.712177
2.251335 3.579474 -1.705465
2.404178 3.830544 -1.696800
2.572052 4.107852 -1.684957
2.770459 4.433845 -1.675266
2.994842 4.802399 -1.663363
3.270636 5.257679 -1.658086
3.500798 5.634751 -1.605607
3.552418 5.715742 -1.461034
4.015395 6.476882 -1.463071
4.842237 7.923850 -1.549607
4.035492 6.571290 -1.104841
3.960880 6.444339 -0.901206
3.932808 6.392481 -0.715103
3.904469 6.340255 -0.532501
3.888169 6.310703 -0.354434
3.899684 6.324925 -0.178198
0.004155 -0.156461 -0.003896
0.004155 -0.156461 -0.003896
0.004155 -0.156461 -0.003896
0.004155 -0.156461 -0.003896
16.808414 27.706594 3.037274
16.884523 27.822428 3.822949
15.247605 25.089987 4.145915
14.927687 24.541237 4.742011
15.577820 25.607695 5.673491
0.298581 0.329156 -0.340456
0.295525 0.323732 -0.319252
0.306638 0.341882 -0.313643
0.333718 0.386030 -0.322357
0.394825 0.486371 -0.359719
2.015761 3.149936 -1.726173
2.129265 3.333844 -1.709852
2.270181 3.563922 -1.703997
2.426376 3.817322 -1.696787
2.594810 4.092077 -1.684302
2.797023 4.420205 -1.675846
3.027460 4.794074 -1.666102
3.303792 5.244553 -1.659587
3.557408 5.655236 -1.616648
3.588147 5.703380 -1.462678
4.052168 6.457007 -1.463421
4.893735 7.904552 -1.551203
4.040054 6.494741 -1.095924
4.005980 6.433578 -0.902807
3.989016 6.400634 -0.718421
3.971709 6.369762 -0.536656
3.945020 6.320906 -0.356178
3.945118 6.318695 -0.178593
0.004147 -0.156243 -0.003891
0.004147 -0.156243 -0.003891
16.917778 27.579958 1.516603
17.246166 28.096937 2.316245
16.999138 27.681917 3.044600
17.172808 27.945040 3.852798
16.800407 27.314600 4.526938
15.112354 24.544647 4.758301
15.795132 25.641354 5.700242
0.303093 0.330660 -0.342490
0.300021 0.325289 -0.321206
0.004140 -0.156024 -0.003886
0.004140 -0.156024 -0.003886
0.338798 0.387361 -0.305826
2.037614 3.143205 -1.728600
2.146375 3.317073 -1.707528
2.288598 3.546293 -1.701802
2.450147 3.805141 -1.697456
2.622912 4.081704 -1.686206
2.824059 4.403789 -1.675829
3.056889 4.778462 -1.666636
3.336758 5.226778 -1.660074
3.624563 5.687235 -1.631373
3.642375 5.711556 -1.470137
4.102691 6.451508 -1.467469
4.941707 7.882429 -1.552151
4.064728 6.449701 -1.092289
4.074909 6.463834 -0.909966
4.070393 6.451459 -0.726375
4.088674 6.476164 -0.547213
4.031446 6.378284 -0.360519
3.991719 6.311456 -0.178987
39.249897 63.448509 0.008921
19.083529 30.742012 0.845451
16.977852 27.311216 1.507420
17.084173 27.473145 2.273103
17.211977 27.658840 3.053237
17.198885 27.616709 3.821699
17.114122 27.458908 4.567422
15.200216 24.360968 4.740191
16.275057 26.075304 5.817436
0.307862 0.331964 -0.344524
0.302012 0.322213 -0.320220
0.312420 0.338751 -0.313632
0.325801 0.359826 -0.308889
0.004133 -0.155806 -0.003881
2.064854 3.143713 -1.735092
2.168866 3.307669 -1.709055
2.318382 3.545552 -1.707605
2.471597 3.787621 -1.696074
2.645201 4.063578 -1.684911
2.857338 4.399048 -1.679982
3.088125 4.763771 -1.667721
3.365589 5.204461 -1.659044
3.656029 5.663243 -1.630432
3.707285 5.742767 -1.482998
4.133276 6.416393 -1.464858
0.004133 -0.155806 -0.003881
4.111124 6.437515 -1.094213
6.487074 10.243989 -1.432691
6.599157 10.415817 -1.164175
0.004133 -0.155806 -0.003881
4.066931 6.349447 -0.360220
4.054336 6.326937 -0.180026
22.432421 35.715752 0.003459
19.573820 31.120182 0.859097
17.292398 27.463993 1.521332
17.042099 27.043657 2.246045
17.440376 27.669317 3.065408
17.268610 27.374537 3.801997
17.340025 27.467630 4.585330
16.015654 25.348089 4.948964
15.397840 24.345631 5.453158
0.311483 0.331935 -0.345538
0.302817 0.317817 -0.318255
0.313287 0.334258 -0.311748
0.322940 0.349176 -0.303500
0.344130 0.382319 -0.304958
0.351758 0.394202 -0.293359
2.188157 3.295768 -1.709042
2.329666 3.516664 -1.700320
2.495550 3.777195 -1.697427
2.670444 4.050145 -1.685536
2.885524 4.386012 -1.681157
3.122688 4.758071 -1.671561
3.396363 5.185268 -1.659027
3.685285 5.638085 -1.629032
3.783130 5.787630 -1.499598
4.158339 6.372861 -1.460398
4.166877 6.447324 -1.284887
5.690368 8.860598 -1.500074
6.544977 10.207904 -1.432662
6.891965 10.749506 -1.204941
0.004127 -0.155591 -0.003877
4.128737 6.367429 -0.362427
0.004127 -0.155591 -0.003877
22.763674 35.798199 0.003592
17.950294 28.173180 0.780597
17.309748 27.141611 1.509059
17.370872 27.228123 2.269331
17.732410 27.777275 3.088561
17.546986 27.464487 3.828358
17.681749 27.666611 4.634729
17.874310 27.948647 5.473892
15.542692 24.263536 5.454706
0.311517 0.326033 -0.342473
0.307388 0.319242 -0.320208
0.317994 0.335664 -0.313620
0.327751 0.350562 -0.305288
0.345253 0.377525 -0.303241
0.356980 0.395427 -0.294979
2.216929 3.297359 -1.715964
2.356757 3.512856 -1.704669
2.522855 3.768909 -1.700147
2.696617 4.038147 -1.686801
2.913641 4.372795 -1.682331
3.151767 4.739737 -1.671544
3.432253 5.174031 -1.661540
3.722697 5.621297 -1.630394
3.855346 5.822914 -1.514120
4.191639 6.340101 -1.458527
5.088451 7.807472 -1.554344
5.742621 8.825300 -1.499768
6.615146 10.187073 -1.434948
7.832338 12.082147 -1.356592
9.115251 14.077041 -1.182551
8.152639 12.568788 -0.705813
9.049339 13.958473 -0.390095
23.086441 35.834648 0.003724
18.230577 28.253153 0.785770
17.913301 27.737841 1.547849
17.373198 26.876541 2.248705
19.618656 30.348488 3.386087
18.013943 27.842825 3.895203
18.060705 27.894646 4.690545
18.221119 28.122845 5.528825
15.638161 24.104605 5.439202
0.311536 0.320082 -0.339407
0.307349 0.313264 -0.317264
0.318965 0.331049 -0.311736
0.328813 0.345862 -0.303488
0.348331 0.375782 -0.303236
0.363121 0.398206 -0.297412
2.238325 3.285952 -1.716720
2.379845 3.502612 -1.706110
2.543329 3.751427 -1.698765
2.718614 4.019640 -1.685506
2.936524 4.351418 -1.680530
3.182994 4.726607 -1.673180
3.463869 5.156063 -1.662027
3.762227 5.609822 -1.633140
3.843724 5.732739 -1.496651
3.841085 5.724313 -1.325325
5.143031 7.789024 -1.556586
5.802762 8.805668 -1.501965
6.692504 10.172951 -1.438391
7.916620 12.054152 -1.358596
9.228393 14.073172 -1.186546
8.264855 12.577485 -0.708931
9.144500 13.928242 -0.390655
8.341191 12.680998 -0.001116
18.637234 28.512022 0.796092
18.051603 27.601097 1.546052
17.471790 26.689468 2.241503
17.438702 26.629023 2.983537
17.992485 27.459373 3.856190
18.288740 27.893412 4.707898
18.621063 28.392967 5.601930
19.017981 28.980099 6.557547
0.312303 0.315707 -0.337361
0.308027 0.308863 -0.315299
0.323607 0.332458 -0.313608
0.333560 0.347251 -0.305277
0.353350 0.377032 -0.304940
0.368288 0.399401 -0.299032
2.275740 3.301431 -1.730577
2.397765 3.484443 -1.703914
2.564720 3.735417 -1.698067
2.742574 4.004180 -1.685491
2.961336 4.333104 -1.679919
3.221579 4.724512 -1.678672
3.493311 5.134694 -1.661504
3.802842 5.599713 -1.636347
3.859130 5.680724 -1.489153
3.866068 5.686930 -1.321976
3.855232 5.726301 -1.157537
3.851326 5.715993 -0.989051
3.863878 5.733031 -0.824635
3.866545 5.732750 -0.659518
9.331975 14.053473 -1.189290
8.373029 12.588225 -0.712052
0.004106 -0.154940 -0.003863
8.363186 12.554515 -0.001097
18.686884 28.240852 0.791486
17.956039 27.109957 1.524426
17.843224 26.918648 2.269269
20.050394 30.245981 3.400207
18.121473 27.310919 3.849980
18.135502 27.311981 4.627704
18.868202 28.400921 5.625380
19.187380 28.873756 6.558364
0.316964 0.316951 -0.339395
0.313678 0.311638 -0.318232
0.326502 0.330783 -0.313602
0.334534 0.342526 -0.303477
0.353469 0.370648 -0.302368
0.372500 0.399048 -0.299840
0.377398 0.406021 -0.285092
2.420315 3.471967 -1.704627
2.588087 3.722412 -1.698737
2.772440 3.995993 -1.688675
2.992087 4.322071 -1.682284
3.256001 4.715748 -1.681961
3.523495 5.112532 -1.660979
3.842354 5.587702 -1.639093
3.903511 5.674944 -1.493289
3.898525 5.663219 -1.321587
3.876936 5.683869 -1.153632
3.868605 5.669243 -0.984862
3.885493 5.690414 -0.821836
0.004099 -0.154722 -0.003858
0.004099 -0.154722 -0.003858
0.004099 -0.154722 -0.003858
0.004099 -0.154722 -0.003858
3.891963 5.683132 -0.002568
3.898412 5.688536 0.160467
0.004099 -0.154722 -0.003858
3.917237 5.710385 0.490480
3.912915 5.699598 0.654186
18.603907 27.682266 3.917529
18.756477 27.900661 4.745114
19.021118 28.275761 5.622209
19.179752 28.491943 6.497653
0.318712 0.313935 -0.338369
0.312443 0.304272 -0.314308
0.324332 0.321804 -0.308903
0.336394 0.339354 -0.302574
0.353462 0.364356 -0.299796
0.374637 0.395616 -0.299020
0.004091 -0.154503 -0.003853
2.442162 3.459775 -1.705341
2.610323 3.707704 -1.698722
2.797323 3.981796 -1.689300
3.017784 4.305036 -1.682268
3.289333 4.705151 -1.684699
3.563468 5.106848 -1.665517
3.873117 5.562528 -1.638152
3.965486 5.694759 -1.504071
3.952835 5.671854 -1.328596
3.909322 5.660077 -1.153288
3.904225 5.650426 -0.985399
3.915709 5.663269 -0.821122
0.004091 -0.154503 -0.003853
0.004091 -0.154503 -0.003853
0.004091 -0.154503 -0.003853
0.004091 -0.154503 -0.003853
0.004091 -0.154503 -0.003853
0.004091 -0.154503 -0.003853
0.004091 -0.154503 -0.003853
0.004091 -0.154503 -0.003853
0.004091 -0.154503 -0.003853
0.004091 -0.154503 -0.003853
0.004091 -0.154503 -0.003853
3.931529 5.644589 1.148187
3.937138 5.648654 1.318334
0.318509 0.308072 -0.335304
0.316060 0.304155 -0.315282
0.329046 0.323093 -0.310774
0.340210 0.339127 -0.303464
0.359474 0.367032 -0.302356
0.376859 0.392124 -0.298201
0.384872 0.403658 -0.285851
2.467119 3.452076 -1.708236
2.633167 3.692417 -1.698708
2.819967 3.964314 -1.688645
3.051994 4.300459 -1.687015
3.314806 4.681063 -1.683029
3.587118 5.076941 -1.662462
3.908011 5.541326 -1.638593
0.004084 -0.154285 -0.003848
4.358825 6.189815 -1.452134
3.958246 5.660596 -1.157804
3.955254 5.651992 -0.989549
3.954702 5.649115 -0.822261
3.942739 5.627349 -0.655195
3.945408 5.627061 -0.491807
3.939292 5.616057 -0.328248
3.943302 5.617756 -0.164778
3.953075 5.627865 -0.002531
0.004084 -0.154285 -0.003848
3.940376 5.603062 0.322711
0.004084 -0.154285 -0.003848
0.004084 -0.154285 -0.003848
0.004084 -0.154285 -0.003848
0.004084 -0.154285 -0.003848
0.004084 -0.154285 -0.003848
0.004084 -0.154285 -0.003848
0.320243 0.305000 -0.334278
0.319740 0.303947 -0.316255
0.331887 0.321384 -0.310769
0.340078 0.332930 -0.300767
0.361446 0.363713 -0.301495
0.379998 0.390192 -0.298195
0.387087 0.400085 -0.285074
2.485691 3.435008 -1.706768
2.655230 3.677452 -1.698693
2.843604 3.948274 -1.688630
3.074307 4.278372 -1.685213
3.339264 4.657422 -1.681359
3.624842 5.067595 -1.665987
3.948477 5.530200 -1.641800
0.004078 -0.154070 -0.003844
4.445699 6.239909 -1.469131
5.388549 7.664173 -1.561647
6.070724 8.651608 -1.504610
7.019971 10.022067 -1.444724
0.004078 -0.154070 -0.003844
3.997857 5.632433 -0.494153
0.004078 -0.154070 -0.003844
0.004078 -0.154070 -0.003844
0.004078 -0.154070 -0.003844
3.984836 5.599063 0.159917
3.985926 5.598617 0.323759
3.981350 5.587834 0.485922
3.979257 5.582832 0.648659
3.985016 5.586973 0.814493
3.982961 5.579862 0.978381
3.976560 5.568660 1.142058
3.971098 5.556658 1.307622
0.321812 0.302038 -0.333252
0.323293 0.303833 -0.317229
0.336541 0.322661 -0.312640
0.345844 0.335663 -0.303452
0.364312 0.361929 -0.301488
0.384063 0.389799 -0.299002
0.391224 0.399670 -0.285838
2.510990 3.428967 -1.710390
2.676538 3.662831 -1.698679
2.869700 3.937256 -1.690536
3.105542 4.270787 -1.688770
3.363845 4.635828 -1.680242
3.648358 5.039633 -1.663440
3.975635 5.501967 -1.639939
4.371773 6.063957 -1.617431
4.594296 6.376051 -1.506103
5.439962 7.645584 -1.563891
6.125392 8.625988 -1.505975
7.090244 10.002558 -1.447474
4.034029 5.618021 -0.659236
0.004071 -0.153852 -0.003839
8.237897 11.626332 -0.671324
0.004071 -0.153852 -0.003839
4.049261 5.627446 -0.002483
0.004071 -0.153852 -0.003839
0.004071 -0.153852 -0.003839
4.037328 5.600085 0.488878
4.034064 5.593409 0.652401
4.035221 5.590919 0.818234
4.027388 5.575632 0.981465
4.019761 5.562789 1.145322
4.016431 5.553956 1.312088
0.325426 0.301833 -0.334266
0.326906 0.303631 -0.318202
0.334158 0.313745 -0.307940
0.344545 0.328082 -0.299859
0.367353 0.360005 -0.301482
0.387269 0.387760 -0.298996
0.393354 0.396160 -0.285062
2.544029 3.431002 -1.718374
2.701272 3.650220 -1.700032
2.897176 3.925071 -1.692440
3.133898 4.255669 -1.689945
3.396597 4.622327 -1.682428
3.685774 5.027635 -1.666458
4.012437 5.483316 -1.641301
4.410751 6.039022 -1.617825
0.004062 -0.153630 -0.003834
5.482446 7.611200 -1.563219
6.177293 8.589788 -1.505947
7.151967 9.966735 -1.448139
8.516473 11.889999 -1.376894
10.564371 14.776726 -1.279066
8.575514 11.960641 -0.693001
8.379767 11.675482 -0.337532
54.424828 76.650261 0.014440
0.004062 -0.153630 -0.003834
19.978163 28.005781 1.612893
0.004062 -0.153630 -0.003834
4.134774 5.661475 0.663032
0.004062 -0.153630 -0.003834
0.004062 -0.153630 -0.003834
0.004062 -0.153630 -0.003834
0.004062 -0.153630 -0.003834
0.330100 0.302937 -0.336300
0.326570 0.297676 -0.315258
0.335894 0.310563 -0.306996
0.349453 0.329174 -0.301646
0.370398 0.358066 -0.301477
0.389294 0.384279 -0.298177
0.400883 0.400057 -0.288138
0.421147 0.427884 -0.283041
2.722016 3.633343 -1.699334
2.923496 3.911157 -1.693704
3.162214 4.240373 -1.691120
3.427369 4.607646 -1.684064
3.723179 5.015373 -1.669477
4.045930 5.461977 -1.641743
4.446298 6.013802 -1.617805
4.971320 6.737798 -1.602609
5.524896 7.573999 -1.562222
6.235545 8.565650 -1.507867
7.224533 9.942206 -1.450655
8.602743 11.860620 -1.379268
10.683730 14.763013 -1.283059
8.584319 11.822167 -0.687955
0.004055 -0.153412 -0.003829
0.004055 -0.153412 -0.003829
0.004055 -0.153412 -0.003829
20.200605 27.965040 1.617461
19.747082 27.324108 2.368822
4.218106 5.707357 0.671058
0.004055 -0.153412 -0.003829
4.157629 5.617111 0.996834
0.004055 -0.153412 -0.003829
0.004055 -0.153412 -0.003829
0.334737 0.304061 -0.338334
0.330191 0.297453 -0.316232
0.343747 0.316025 -0.311683
0.352219 0.327401 -0.301641
0.373333 0.356171 -0.301471
0.391319 0.380799 -0.297358
0.400798 0.393499 -0.285820
0.438707 0.445293 -0.292487
2.742637 3.616353 -1.698636
2.947936 3.896056 -1.694329
3.193033 4.230077 -1.694081
3.454693 4.588103 -1.684047
3.751713 4.992562 -1.668953
4.082735 5.445153 -1.643568
4.481657 5.988368 -1.617785
5.016659 6.717283 -1.604436
5.572718 7.547143 -1.563170
6.286737 8.531497 -1.508118
7.294106 9.916826 -1.452941
8.695041 11.843442 -1.382941
10.803282 14.748420 -1.287051
8.575629 11.666101 -0.681797
0.004049 -0.153197 -0.003824
0.004049 -0.153197 -0.003824
38.139519 52.338589 1.515425
20.565212 28.128197 1.633723
20.309605 27.766987 2.417164
4.217751 5.636549 0.665678
0.004049 -0.153197 -0.003824
4.173226 5.569325 0.992672
4.181348 5.576389 1.162586
4.184589 5.576777 1.334017
0.335310 0.299590 -0.336288
0.333792 0.297190 -0.317205
0.343301 0.310006 -0.308862
0.357095 0.328494 -0.303429
0.375164 0.352794 -0.300609
0.394360 0.378774 -0.297351
0.401744 0.388452 -0.284273
0.437696 0.436989 -0.289572
2.768713 3.606817 -1.701357
2.970018 3.877743 -1.693674
3.218179 4.211885 -1.694065
3.494422 4.585425 -1.690090
3.792695 4.986712 -1.673997
4.116013 5.423394 -1.644009
4.516918 5.962745 -1.617765
5.063080 6.698050 -1.606634
5.620381 7.519987 -1.564117
6.334222 8.492244 -1.507535
7.367157 9.895789 -1.455921
8.780362 11.815968 -1.385502
0.004042 -0.152979 -0.003820
15.924532 21.536133 -1.253117
0.004042 -0.152979 -0.003820
40.603153 55.098564 0.009908
0.004042 -0.152979 -0.003820
35.769817 48.451855 2.822480
0.004042 -0.152979 -0.003820
0.004042 -0.152979 -0.003820
4.220088 5.566445 0.828550
4.210781 5.551854 0.993806
4.215400 5.554079 1.162929
4.216303 5.551274 1.333666
0.345083 0.307578 -0.343421
0.338434 0.298301 -0.319158
0.346988 0.309682 -0.309794
0.356651 0.322364 -0.300732
0.376993 0.349421 -0.299748
0.398512 0.378213 -0.298159
0.405941 0.387855 -0.285037
0.447756 0.443673 -0.293928
2.791391 3.592582 -1.702026
3.003345 3.874525 -1.699418
3.251212 4.204269 -1.698217
3.515875 4.557792 -1.687319
3.812938 4.952655 -1.669930
4.146832 5.398314 -1.643530
4.555502 5.941608 -1.618991
5.103579 6.670640 -1.606982
5.671474 7.497303 -1.566036
6.386200 8.459105 -1.508065
7.429545 9.859882 -1.456817
0.004034 -0.152760 -0.003815
11.066710 14.748623 -1.297818
16.128817 21.551891 -1.259273
0.004034 -0.152760 -0.003815
0.004034 -0.152760 -0.003815
35.500912 47.543697 1.388611
37.826759 50.632980 2.962027
0.004034 -0.152760 -0.003815
4.339989 5.663169 0.674467
4.250529 5.539139 0.828104
0.004034 -0.152760 -0.003815
4.244599 5.525238 1.161974
4.251393 5.530325 1.334426
0.349762 0.308571 -0.345455
0.338920 0.293801 -0.317193
0.350713 0.309338 -0.310727
0.359368 0.320546 -0.300726
0.382043 0.350380 -0.301452
0.399344 0.373226 -0.296526
0.413472 0.391649 -0.288113
0.447815 0.436864 -0.291741
2.812884 3.576712 -1.702012
3.024168 3.854405 -1.698124
3.280813 4.191844 -1.700583
3.548697 4.545418 -1.690057
3.853883 4.946330 -1.674974
4.182189 5.379273 -1.644893
4.596368 5.923359 -1.621048
5.140354 6.638288 -1.606220
5.730764 7.485338 -1.570222
6.441529 8.430396 -1.509428
7.494157 9.826767 -1.458177
8.926988 11.727416 -1.386915
0.004028 -0.152545 -0.003810
9.021944 11.841279 -0.700524
0.004028 -0.152545 -0.003810
35.961952 47.621395 0.008403
0.004028 -0.152545 -0.003810
40.953644 54.176758 3.182811
0.004028 -0.152545 -0.003810
4.375749 5.641532 0.674859
0.004028 -0.152545 -0.003810
0.004028 -0.152545 -0.003810
4.286674 5.513558 1.164591
4.275703 5.495046 1.331850
0.350320 0.304051 -0.343409
0.342541 0.293477 -0.318167
0.349072 0.301925 -0.306967
0.364238 0.321558 -0.302514
0.383819 0.346973 -0.300591
0.404650 0.373997 -0.298146
0.412142 0.383641 -0.285025
0.445556 0.427117 -0.288099
2.833797 3.558734 -1.701314
3.047161 3.837195 -1.698109
3.304577 4.171633 -1.699972
3.574108 4.521488 -1.688938
3.879605 4.919714 -1.673438
4.217249 5.357732 -1.645795
4.634673 5.899374 -1.621859
5.187667 6.617319 -1.608417
5.778166 7.457216 -1.571170
6.494668 8.395480 -1.509957
7.553802 9.786911 -1.458610
8.978287 11.653934 -1.384286
0.004021 -0.152327 -0.003806
16.561253 21.607105 -1.273254
0.004021 -0.152327 -0.003806
36.280769 47.455441 0.008545
0.004021 -0.152327 -0.003806
21.398027 27.894844 1.648529
38.105724 49.763256 4.400347
0.004021 -0.152327 -0.003806
0.004021 -0.152327 -0.003806
0.004021 -0.152327 -0.003806
0.004021 -0.152327 -0.003806
0.004021 -0.152327 -0.003806
0.350925 0.299486 -0.341364
0.349432 0.297216 -0.322078
0.354988 0.304293 -0.309777
0.365930 0.318215 -0.301611
0.385651 0.343496 -0.299729
0.404332 0.367567 -0.295701
0.416422 0.382887 -0.285790
0.459213 0.437986 -0.294637
2.858525 3.547083 -1.703351
3.070729 3.819309 -1.698094
3.335944 4.159765 -1.702932
3.609159 4.511752 -1.692778
3.917884 4.907598 -1.676962
4.253648 5.339796 -1.647620
4.671766 5.875953 -1.622669
5.227700 6.589171 -1.608765
5.830351 7.432476 -1.573088
6.548556 8.364519 -1.511043
7.622245 9.754820 -1.460431
9.066291 11.624440 -1.387030
0.004014 -0.152109 -0.003801
0.004014 -0.152109 -0.003801
0.004014 -0.152109 -0.003801
34.719536 44.867390 0.008044
36.496422 47.138550 1.395499
21.558956 27.761482 1.648233
36.105328 46.583115 4.138109
4.456508 5.607863 0.676946
4.466936 5.617325 0.850735
4.441211 5.582124 1.016741
4.456450 5.597796 1.192549
4.455701 5.592802 1.367106
0.353502 0.297700 -0.341358
0.354121 0.298182 -0.324031
0.355409 0.299690 -0.307893
0.369726 0.317756 -0.302502
0.388487 0.341509 -0.299724
0.409538 0.368350 -0.297321
0.416070 0.376357 -0.283472
0.459147 0.431165 -0.292449
2.880898 3.532307 -1.704020
3.100501 3.810783 -1.701918
3.363045 4.143767 -1.704107
3.637091 4.492675 -1.693312
3.950486 4.889797 -1.678463
4.287551 5.318553 -1.648523
4.714813 5.860016 -1.625557
5.269998 6.563872 -1.609853
5.877503 7.403743 -1.574036
6.602269 8.333212 -1.512128
7.693721 9.729882 -1.463180
9.109400 11.540936 -1.383289
9.918148 12.575185 -1.128510
0.004006 -0.151891 -0.003796
0.004006 -0.151891 -0.003796
0.004006 -0.151891 -0.003796
34.418598 43.919743 1.306201
36.602211 46.683395 2.780626
0.004006 -0.151891 -0.003796
42.356533 53.991154 6.423959
40.898052 52.090191 7.768840
35.009022 44.551853 7.988099
0.004006 -0.151891 -0.003796
0.004006 -0.151891 -0.003796
0.358210 0.298606 -0.343392
0.358852 0.299121 -0.325984
0.357994 0.297881 -0.307887
0.371307 0.314457 -0.301599
0.393574 0.342356 -0.301428
0.412515 0.366228 -0.297315
0.419093 0.374194 -0.283466
2.727209 3.295835 -1.718251
2.905534 3.520349 -1.706057
3.124421 3.794625 -1.702543
3.393612 4.132087 -1.707068
3.669705 4.479465 -1.696050
3.978213 4.865726 -1.677940
4.326169 5.303197 -1.651268
4.751741 5.836115 -1.626368
5.313437 6.539867 -1.611311
5.926938 7.377810 -1.575631
6.657083 8.303133 -1.513492
7.754106 9.690400 -1.463845
9.181425 11.494856 -1.383996
11.636334 14.605268 -1.313741
12.920340 16.222752 -0.971936
12.844693 16.115534 -0.480551
0.004000 -0.151676 -0.003791
0.004000 -0.151676 -0.003791
0.004000 -0.151676 -0.003791
36.579781 46.088551 4.131498
36.098389 45.448215 5.434408
34.331532 43.185909 6.473400
35.405708 44.526962 8.019998
35.302952 44.366295 9.342901
0.004000 -0.151676 -0.003791
0.364011 0.300820 -0.346445
0.364702 0.301387 -0.328916
0.362790 0.298823 -0.309759
0.373986 0.312559 -0.301593
0.393014 0.336083 -0.298857
0.417773 0.366947 -0.298935
0.424420 0.374905 -0.285001
2.737699 3.268700 -1.712422
2.927775 3.505293 -1.706727
3.151783 3.782749 -1.705087
3.413424 4.106788 -1.704672
3.696265 4.458527 -1.696033
4.009422 4.846031 -1.678935
4.359897 5.281508 -1.652171
4.790975 5.815032 -1.628010
5.354266 6.512506 -1.612028
5.973835 7.348484 -1.576579
6.711755 8.272703 -1.514855
7.818016 9.655215 -1.465205
9.269333 11.468572 -1.387113
0.003993 -0.151457 -0.003787
9.651708 11.935653 -0.721679
9.813390 12.129673 -0.365339
9.814254 12.126619 -0.000418
0.003993 -0.151457 -0.003787
0.003993 -0.151457 -0.003787
22.048046 27.390306 2.470656
22.077763 27.408302 3.298121
35.969105 44.720886 6.733705
0.003993 -0.151457 -0.003787
0.003993 -0.151457 -0.003787
35.388641 43.920662 10.657598
0.366583 0.298955 -0.346439
0.369493 0.302241 -0.330869
0.373126 0.306594 -0.316323
0.375506 0.309248 -0.300690
0.396928 0.335461 -0.299706
0.418452 0.361935 -0.297303
0.429762 0.375573 -0.286536
2.760805 3.257482 -1.714589
2.952289 3.493022 -1.708764
3.175549 3.766279 -1.705712
3.433042 4.081398 -1.702275
3.723946 4.438942 -1.696568
4.036870 4.821632 -1.678411
4.393530 5.259620 -1.653074
4.828900 5.792182 -1.629236
5.401182 6.492528 -1.614596
6.018093 7.315785 -1.576879
6.766286 8.241919 -1.516218
7.884249 9.622711 -1.467027
9.342257 11.423071 -1.388005
0.003986 -0.151239 -0.003782
9.736134 11.898848 -0.722757
0.003986 -0.151239 -0.003782
9.875902 12.059336 -0.000385
0.003986 -0.151239 -0.003782
24.269442 29.821177 1.802973
38.039589 46.814110 4.235442
22.281036 27.336819 3.304899
24.259972 29.757954 4.507970
24.246010 29.730721 5.412560
0.003986 -0.151239 -0.003782
0.003986 -0.151239 -0.003782
0.369241 0.297022 -0.346433
0.371046 0.298934 -0.329883
0.376937 0.305989 -0.317255
0.378244 0.307268 -0.300684
0.402012 0.336219 -0.301410
0.419152 0.356861 -0.295671
0.432865 0.373260 -0.286530
2.785076 3.247566 -1.717484
2.971443 3.472806 -1.707382
3.204036 3.755536 -1.708897
3.466978 4.073639 -1.707021
3.755929 4.422986 -1.698754
4.071517 4.806060 -1.680924
4.425503 5.233739 -1.653055
4.864245 5.766083 -1.629632
5.439274 6.461603 -1.614574
6.069716 7.289427 -1.578797
6.823412 8.211141 -1.517859
7.950788 9.586841 -1.468617
9.445941 11.410951 -1.393160
10.029894 12.121925 -1.108473
9.952768 12.019075 -0.733385
8.811005 10.618791 -0.323742
9.948061 12.000851 -0.000348
9.927919 11.967849 0.363313
0.003977 -0.151017 -0.003777
0.003977 -0.151017 -0.003777
37.436459 45.498432 5.516891
22.454508 27.208822 4.142888
0.003977 -0.151017 -0.003777
0.003977 -0.151017 -0.003777
0.003977 -0.151017 -0.003777
0.372822 0.296525 -0.347447
0.382425 0.307860 -0.337712
0.382839 0.308204 -0.320065
0.386473 0.312280 -0.305163
0.403649 0.332746 -0.300549
0.424315 0.357577 -0.297291
0.436954 0.372503 -0.287294
2.810523 3.238918 -1.721106
2.998786 3.465108 -1.711470
3.225226 3.735830 -1.708242
3.487566 4.049469 -1.705220
3.781374 4.402217 -1.698738
4.099959 4.782812 -1.680906
4.462896 5.218200 -1.655801
4.905672 5.747276 -1.632104
5.483501 6.438017 -1.616402
6.117376 7.263319 -1.580393
6.863608 8.165561 -1.516444
8.011304 9.550264 -1.469746
0.003971 -0.150802 -0.003772
8.913759 10.632573 -0.978821
8.891238 10.597902 -0.651100
0.003971 -0.150802 -0.003772
8.944473 10.651217 -0.000683
0.003971 -0.150802 -0.003772
0.003971 -0.150802 -0.003772
24.662970 29.591442 2.706422
37.864918 45.483387 5.541408
0.003971 -0.150802 -0.003772
36.378410 43.646835 8.010431
35.469883 42.523487 9.125187
0.003971 -0.150802 -0.003772
0.380887 0.301219 -0.352540
0.386178 0.307234 -0.338685
0.385475 0.306240 -0.320059
0.383390 0.303431 -0.300672
0.405255 0.329272 -0.299688
0.424956 0.352488 -0.295659
0.438760 0.368804 -0.286518
2.829963 3.222942 -1.721092
3.018950 3.446082 -1.710772
3.249937 3.720358 -1.709507
3.519023 4.038366 -1.708776
3.809509 4.381444 -1.699272
4.129504 4.760876 -1.681395
4.494649 5.191914 -1.655782
4.927955 5.703386 -1.627930
5.527514 6.411674 -1.617859
6.162435 7.231295 -1.581017
6.919112 8.132596 -1.517807
8.075863 9.514947 -1.471337
9.623514 11.360237 -1.399950
8.962148 10.561450 -0.977119
8.923417 10.511589 -0.648936
8.938124 10.521820 -0.323815
9.010885 10.601336 -0.000649
0.003964 -0.150584 -0.003767
0.003964 -0.150584 -0.003767
24.878517 29.492401 2.710844
24.864386 29.455187 3.611657
22.836672 27.031353 4.155605
24.877697 29.440809 5.437897
36.597359 43.353344 9.349012
0.003964 -0.150584 -0.003767
0.380234 0.295257 -0.349475
0.387756 0.303850 -0.337700
0.388171 0.304191 -0.320053
0.390680 0.306852 -0.304254
0.405661 0.324412 -0.297971
0.430197 0.353065 -0.297279
0.444206 0.369252 -0.288052
2.840880 3.196910 -1.715989
3.044433 3.434637 -1.713492
3.277062 3.707637 -1.712052
3.549214 4.025579 -1.711737
3.841744 4.367037 -1.702010
4.160185 4.740244 -1.682390
4.534113 5.176597 -1.658988
4.968119 5.684998 -1.630403
5.567825 6.385480 -1.618948
6.209880 7.199417 -1.581964
6.976849 8.105017 -1.520004
8.145814 9.482346 -1.473622
0.003956 -0.150366 -0.003763
8.993959 10.474946 -0.973889
8.986424 10.458770 -0.648902
8.985148 10.453707 -0.323278
9.072577 10.549584 -0.000617
0.003956 -0.150366 -0.003763
24.980810 29.289494 1.805356
0.003956 -0.150366 -0.003763
38.491642 45.168262 5.556736
0.003956 -0.150366 -0.003763
0.003956 -0.150366 -0.003763
25.080063 29.326023 6.363317
37.667839 44.092312 10.957001
0.384936 0.295984 -0.351509
0.395922 0.308542 -0.342590
0.395348 0.307557 -0.323801
0.389721 0.300826 -0.301557
0.408375 0.322309 -0.297965
0.433084 0.350825 -0.297273
0.444762 0.364122 -0.286505
2.864923 3.186417 -1.718884
3.064990 3.417311 -1.713478
3.294915 3.682643 -1.709477
3.566428 3.996029 -1.708150
3.865141 4.342196 -1.700892
4.187795 4.714276 -1.681866
4.570653 5.155779 -1.660812
5.008709 5.660757 -1.632043
5.610301 6.357088 -1.620035
6.257158 7.172421 -1.583560
7.031921 8.074036 -1.521645
8.201961 9.440030 -1.474056
9.032948 10.404884 -1.296465
9.000389 10.359626 -0.968015
9.030406 10.387441 -0.647665
9.060261 10.418796 -0.323751
9.148250 10.514169 -0.000579
9.161074 10.521798 0.325909
0.003950 -0.150151 -0.003758
0.003950 -0.150151 -0.003758
0.003950 -0.150151 -0.003758
0.003950 -0.150151 -0.003758
0.003950 -0.150151 -0.003758
0.003950 -0.150151 -0.003758
37.164753 42.981155 10.736157
0.389908 0.296475 -0.353543
0.393013 0.299772 -0.337688
0.401515 0.309452 -0.326611
0.402986 0.310843 -0.309624
0.414702 0.324220 -0.300525
0.436033 0.348494 -0.297267
0.446599 0.360329 -0.285729
2.880980 3.165405 -1.716690
3.089785 3.403595 -1.715515
3.320634 3.668172 -1.711382
3.602728 3.990104 -1.714087
3.895460 4.323809 -1.702528
4.219520 4.694742 -1.683367
4.598547 5.126721 -1.659872
5.044873 5.637403 -1.633270
5.651486 6.329401 -1.621123
6.309454 7.143323 -1.585477
7.081840 8.033973 -1.521897
8.266812 9.397580 -1.475182
9.913256 11.292171 -1.412447
12.595004 14.383916 -1.343996
9.124065 10.370214 -0.649857
9.205266 10.460338 -0.326614
9.238808 10.491739 -0.000536
0.003943 -0.149933 -0.003753
0.003943 -0.149933 -0.003753
0.003943 -0.149933 -0.003753
0.003943 -0.149933 -0.003753
0.003943 -0.149933 -0.003753
0.003943 -0.149933 -0.003753
36.481697 41.728077 9.133765
0.003943 -0.149933 -0.003753
0.386726 0.288063 -0.348438
0.400114 0.303066 -0.341599
0.408711 0.312760 -0.330359
0.409082 0.312864 -0.312309
0.418609 0.323427 -0.301374
0.436401 0.343548 -0.295635
0.450659 0.359463 -0.286493
2.902433 3.151824 -1.718130
3.108285 3.385136 -1.714818
3.343773 3.650677 -1.712007
3.618910 3.960959 -1.710500
3.925424 4.308034 -1.704715
4.248591 4.672093 -1.683856
4.633031 5.107078 -1.661697
5.085841 5.617349 -1.635743
5.692561 6.301466 -1.622211
6.355215 7.114213 -1.586750
7.136465 8.005028 -1.523816
8.326459 9.359053 -1.476311
9.999214 11.262430 -1.415565
12.707412 14.349720 -1.347292
13.175943 14.874215 -0.930915
9.317545 10.466084 -0.328374
13.109303 14.783032 0.000825
0.003936 -0.149714 -0.003748
0.003936 -0.149714 -0.003748
0.003936 -0.149714 -0.003748
0.003936 -0.149714 -0.003748
