# This PCD file was generated using the MATLAB® pcwrite function
# from Computer Vision Toolbox®.
# .PCD v.7 - Point Cloud Data file format
VERSION .7
FIELDS x y z
SIZE 4 4 4
TYPE F F F
COUNT 1 1 1
WIDTH 1686
HEIGHT 1
VIEWPOINT 0 0 0 1 0 0 0
POINTS 1686
DATA ascii
2.298550 3.569233 -1.716617
2.450227 3.812330 -1.705296
2.617166 4.081406 -1.691184
2.828122 4.419847 -1.687430
2.943490 4.602894 -1.613755
2.974449 4.650916 -1.489198
3.357883 5.267183 -1.521726
3.555583 5.584454 -1.446174
3.612641 5.671868 -1.303003
3.533062 5.594458 -1.119903
3.533349 5.592348 -0.959462
3.528533 5.579731 -0.797588
3.521641 5.563733 -0.638032
3.530571 5.575734 -0.482257
3.524991 5.561914 -0.324891
3.531191 5.569456 -0.167979
3.535389 5.571540 -0.011962
3.540871 5.575652 0.144283
0.007523 -0.152633 -0.004144
0.007523 -0.152633 -0.004144
0.007523 -0.152633 -0.004144
0.007523 -0.152633 -0.004144
0.007523 -0.152633 -0.004144
0.007523 -0.152633 -0.004144
0.007523 -0.152633 -0.004144
0.309260 0.334019 -0.344526
0.302555 0.322778 -0.319267
0.311063 0.336292 -0.310903
0.323461 0.355798 -0.305461
0.007494 -0.152426 -0.004138
2.066892 3.155959 -1.744633
2.173817 3.324796 -1.720965
2.317296 3.553442 -1.715167
2.474284 3.802041 -1.706680
2.641730 4.068600 -1.691838
2.856600 4.409106 -1.689237
0.007494 -0.152426 -0.004138
3.003238 4.637785 -1.490230
3.383929 5.242029 -1.519890
3.579219 5.551528 -1.442848
4.069761 6.329553 -1.454671
3.619182 5.662075 -1.136902
3.611305 5.646813 -0.971829
3.613917 5.646233 -0.809554
3.604994 5.627090 -0.647267
3.606717 5.627333 -0.488232
3.599036 5.610235 -0.328729
3.588401 5.590644 -0.169167
3.579938 5.572351 -0.012009
3.571677 5.554382 0.144220
3.569977 5.549175 0.301523
3.566326 5.538614 0.457349
3.566082 5.535743 0.613935
0.007494 -0.152426 -0.004138
3.567981 5.529386 0.930232
3.575482 5.538881 1.091407
3.576580 5.535944 1.252975
0.311151 0.331042 -0.343501
0.305258 0.321283 -0.319263
0.314810 0.336251 -0.311841
0.327323 0.355698 -0.306358
0.346553 0.385824 -0.306069
0.356269 0.400753 -0.296121
2.195731 3.315603 -1.722520
2.335206 3.533595 -1.712259
2.496659 3.785974 -1.706005
2.665676 4.051522 -1.691209
2.880508 4.387514 -1.687458
0.007493 -0.152204 -0.004132
3.034665 4.625061 -1.491772
3.417889 5.225417 -1.520835
3.627549 5.551309 -1.448304
4.102890 6.294910 -1.452460
5.044807 7.854324 -1.569596
5.696765 8.883111 -1.517454
6.188012 9.658999 -1.371837
6.257874 9.761760 -1.111358
3.667504 5.648303 -0.491799
3.657713 5.630255 -0.331041
3.662942 5.633782 -0.171041
3.659737 5.623994 -0.012129
3.657861 5.618505 0.146405
3.656059 5.610909 0.305954
3.650142 5.596863 0.463776
3.651884 5.594887 0.622720
3.647345 5.585250 0.782378
3.639774 5.568616 0.940149
3.612238 5.520579 1.092030
3.603874 5.504973 1.250746
0.313981 0.329442 -0.343497
0.310844 0.324128 -0.322204
0.318647 0.336121 -0.312779
0.329341 0.352496 -0.305454
0.347692 0.381030 -0.304350
0.357465 0.395871 -0.294486
2.218214 3.305885 -1.724076
2.363391 3.531333 -1.717378
2.519256 3.771793 -1.706017
2.689803 4.036368 -1.691222
2.906562 4.371119 -1.687472
3.058281 4.603917 -1.631513
3.077745 4.632195 -1.499419
3.446646 5.202646 -1.519926
3.683605 5.569085 -1.457939
4.154682 6.296964 -1.458070
5.093201 7.826203 -1.569953
5.757120 8.863802 -1.519732
0.007493 -0.151990 -0.004127
0.007493 -0.151990 -0.004127
0.007493 -0.151990 -0.004127
6.311757 9.705030 -0.563535
9.596025 14.833639 -0.438065
0.007493 -0.151990 -0.004127
0.007493 -0.151990 -0.004127
15.598886 24.165070 1.308956
0.007493 -0.151990 -0.004127
0.007493 -0.151990 -0.004127
3.713549 5.616262 0.789488
3.703676 5.596178 0.948134
3.692907 5.576974 1.106821
3.693808 5.573687 1.270599
0.315736 0.326492 -0.342472
0.310675 0.318254 -0.319256
0.322303 0.336070 -0.313716
0.332137 0.350902 -0.305451
0.350757 0.379281 -0.304347
0.362566 0.397120 -0.296114
2.243476 3.302999 -1.728723
2.378448 3.508546 -1.713009
2.542808 3.759068 -1.706715
2.718994 4.029025 -1.694446
2.932531 4.354579 -1.687486
3.106493 4.618724 -1.642598
3.124163 4.643850 -1.508592
3.486928 5.197665 -1.524114
3.751582 5.599860 -1.471339
0.007464 -0.151783 -0.004121
5.145101 7.809536 -1.572266
5.811000 8.834122 -1.520326
3.873988 5.832364 -0.844522
3.856555 5.800553 -0.673850
3.822816 5.743579 -0.503470
0.007464 -0.151783 -0.004121
9.575469 14.614031 -0.433343
15.949850 24.431335 -0.038622
20.775141 31.858215 0.836807
0.007464 -0.151783 -0.004121
15.951607 24.383661 2.007358
17.350098 26.514093 2.925728
16.975155 25.926399 3.597045
15.998560 24.405521 4.079181
15.952678 24.315229 4.758583
15.253489 23.232290 5.221272
0.313846 0.317671 -0.337357
0.312492 0.315201 -0.318270
0.323236 0.331448 -0.311831
0.335099 0.349177 -0.305447
0.353879 0.377445 -0.304344
0.372710 0.405970 -0.301820
2.270971 3.300682 -1.734143
2.397018 3.489961 -1.710831
2.567294 3.747758 -1.708098
2.747853 4.019412 -1.697029
2.964420 4.345346 -1.690490
3.155010 4.633144 -1.653684
3.169541 4.651353 -1.516748
3.522987 5.185901 -1.526448
3.798568 5.599662 -1.476793
4.232926 6.253436 -1.459232
5.192165 7.779158 -1.572295
5.869069 8.810748 -1.522043
3.925678 5.834486 -0.848057
3.905929 5.799506 -0.676317
3.855557 5.720089 -0.503347
3.826903 5.671650 -0.337117
0.007464 -0.151569 -0.004116
0.007464 -0.151569 -0.004116
20.756853 31.419037 0.828344
0.007464 -0.151569 -0.004116
20.563032 31.085613 2.566304
17.527208 26.450766 2.929657
17.557909 26.475920 3.687078
15.871222 23.906610 4.011186
15.922376 23.964739 4.707946
15.540130 23.366541 5.271588
0.314630 0.313242 -0.335309
0.316099 0.315092 -0.319248
0.326004 0.329838 -0.311827
0.337953 0.347493 -0.305444
0.354895 0.372638 -0.302624
0.372894 0.399513 -0.299370
0.379834 0.409542 -0.286266
2.427196 3.490321 -1.717408
2.591758 3.736308 -1.709481
2.772848 4.005364 -1.697683
2.992324 4.331643 -1.691699
3.205892 4.650352 -1.665876
3.220721 4.668705 -1.527956
3.556851 5.170652 -1.527855
0.007434 -0.151359 -0.004110
4.291527 6.261919 -1.466706
5.244224 7.759291 -1.574283
3.935989 5.780582 -1.012624
3.901869 5.724321 -0.835658
3.871840 5.674328 -0.664671
3.895869 5.708052 -0.504218
3.868043 5.661451 -0.337804
0.007434 -0.151359 -0.004110
22.841766 34.187603 -0.052957
22.852268 34.175846 0.904341
0.007434 -0.151359 -0.004110
19.046183 28.421675 2.355932
17.841156 26.591738 2.956333
20.730362 30.899403 4.316563
16.241339 24.162846 4.069327
15.737196 23.388912 4.612892
16.377737 24.327841 5.508102
0.318245 0.313106 -0.336327
0.321676 0.317862 -0.322190
0.328748 0.328204 -0.311823
0.339836 0.344318 -0.304541
0.359911 0.373845 -0.304337
0.377064 0.399128 -0.300183
0.007434 -0.151144 -0.004104
2.447058 3.475006 -1.716688
2.615120 3.723144 -1.710178
2.799887 3.994314 -1.699623
3.021260 4.319357 -1.693506
3.259242 4.670327 -1.679176
3.272160 4.685615 -1.539163
3.576490 5.134231 -1.523236
3.933426 5.658174 -1.503173
4.004672 5.758852 -1.357170
3.937210 5.711623 -1.172287
0.007434 -0.151144 -0.004104
3.924510 5.685543 -0.833334
3.891945 5.632385 -0.662432
3.911684 5.659310 -0.501966
3.890237 5.622786 -0.336867
3.894550 5.624571 -0.174014
23.189621 34.279930 -0.053413
20.025702 29.557066 0.785019
17.814684 26.254704 1.443215
17.825289 26.259277 2.185628
18.230867 26.838919 2.995113
17.810604 26.195459 3.676063
17.922884 26.350431 4.452859
16.210726 23.798615 4.711301
16.228302 23.805450 5.411233
0.321867 0.312943 -0.337346
0.318507 0.307612 -0.316296
0.328525 0.322183 -0.308997
0.341660 0.341130 -0.303638
0.360896 0.369033 -0.302618
0.379181 0.395694 -0.299363
0.385213 0.404121 -0.285486
2.465769 3.458039 -1.715237
2.636292 3.706733 -1.709502
2.824721 3.979948 -1.700276
3.050125 4.306880 -1.695312
3.299922 4.670799 -1.685833
3.316291 4.690918 -1.546810
3.617783 5.129882 -1.527886
3.976693 5.650233 -1.506954
0.007434 -0.150929 -0.004099
0.007434 -0.150929 -0.004099
3.957221 5.666617 -1.000872
3.953546 5.656563 -0.832415
3.915044 5.595343 -0.660756
3.933779 5.620477 -0.500565
3.916627 5.590672 -0.336312
3.927681 5.602334 -0.174032
0.007434 -0.150929 -0.004099
0.007434 -0.150929 -0.004099
17.926760 26.094353 1.439936
17.808001 25.909475 2.164957
18.222752 26.495525 2.968415
18.051516 26.224081 3.694357
17.751577 25.774809 4.373000
15.995645 23.190691 4.609493
16.494678 23.900135 5.453825
0.325497 0.312755 -0.338365
0.323082 0.308892 -0.318255
0.335227 0.326356 -0.312757
0.345471 0.340876 -0.304534
0.363859 0.367198 -0.302614
0.384452 0.396692 -0.300991
0.388376 0.402145 -0.285483
2.489639 3.448640 -1.717435
2.659103 3.691291 -1.709512
2.848418 3.963880 -1.700287
3.076786 4.291078 -1.695923
3.330614 4.654568 -1.686955
3.380398 4.724507 -1.563614
3.595863 5.031829 -1.505658
4.012107 5.628426 -1.507391
4.014017 5.626610 -1.337456
3.977526 5.627419 -1.164485
3.999464 5.654745 -1.002856
3.996984 5.648709 -0.834541
3.949152 5.574631 -0.660962
3.961109 5.587466 -0.499732
0.007405 -0.150723 -0.004093
0.007405 -0.150723 -0.004093
0.007405 -0.150723 -0.004093
0.007405 -0.150723 -0.004093
18.131880 26.069998 1.444194
18.083504 25.979368 2.179527
18.643255 26.767263 3.010859
18.337435 26.314489 3.721618
18.299801 26.239288 4.469489
16.857056 24.138687 4.816370
16.193287 23.172098 5.309498
0.324290 0.305423 -0.334272
0.326791 0.308658 -0.319233
0.338035 0.324614 -0.312753
0.348360 0.339075 -0.304530
0.368900 0.368321 -0.304327
0.386546 0.393231 -0.300172
0.394814 0.404632 -0.287799
2.514551 3.440616 -1.720362
2.680060 3.674638 -1.708835
2.874199 3.950781 -1.701582
3.106647 4.279813 -1.698327
3.361476 4.640300 -1.688628
3.426104 4.730579 -1.571769
3.646801 5.041577 -1.514478
4.057736 5.625425 -1.512425
4.429936 6.151242 -1.464177
4.046628 5.654210 -1.174628
4.152699 5.804170 -1.032629
4.056250 5.661034 -0.839715
3.988676 5.559546 -0.661921
3.989458 5.558303 -0.499181
3.985627 5.548332 -0.336538
4.006143 5.575326 -0.174603
4.046115 5.628010 -0.012533
0.007405 -0.150508 -0.004088
18.296076 25.985224 1.445186
18.319284 25.997818 2.189714
18.050238 25.602970 2.891556
18.930689 26.838449 3.810499
18.600252 26.346338 4.505542
18.939476 26.818590 5.368941
16.319170 23.067640 5.306836
0.328807 0.306677 -0.336312
0.328338 0.305656 -0.318248
0.338622 0.320085 -0.310867
0.347992 0.332995 -0.301828
0.369765 0.363485 -0.302607
0.388609 0.389763 -0.299353
0.396814 0.401162 -0.287022
2.542695 3.436989 -1.725479
2.704163 3.662472 -1.710217
2.899931 3.937525 -1.702878
3.132067 4.262117 -1.698339
3.395644 4.630549 -1.691963
3.493261 4.766264 -1.589591
3.655205 4.990622 -1.505687
4.104334 5.619072 -1.517042
4.900893 6.735380 -1.606184
4.158433 5.744734 -1.197506
4.177740 5.767492 -1.030401
0.007375 -0.150299 -0.004082
4.026175 5.545603 -0.662877
4.027963 5.543670 -0.499908
4.026569 5.539334 -0.337318
4.043605 5.558983 -0.174815
4.104653 5.640819 -0.012603
4.053977 5.566816 0.150119
18.622723 26.129309 1.458977
18.228107 25.552118 2.160962
18.044577 25.273331 2.866333
18.810678 26.342222 3.755451
19.070002 26.686579 4.581888
19.241842 26.907324 5.409070
20.138037 28.156353 6.497036
0.331478 0.304966 -0.336308
0.327973 0.299692 -0.315298
0.342421 0.319761 -0.311805
0.353958 0.335542 -0.304523
0.373864 0.363017 -0.303462
0.392753 0.389254 -0.300165
0.402212 0.402058 -0.288565
0.423516 0.431396 -0.284289
2.727152 3.648637 -1.710912
2.926280 3.923588 -1.704173
3.163703 4.251480 -1.701341
3.423055 4.611180 -1.691975
3.546027 4.778727 -1.600291
3.672210 4.952381 -1.500602
4.145420 5.606735 -1.519986
4.983986 6.767942 -1.620366
4.210456 5.744338 -1.202423
4.172593 5.688810 -1.020874
4.122802 5.614506 -0.839749
4.072564 5.539721 -0.664964
4.066416 5.528779 -0.500633
4.054368 5.507505 -0.336857
4.079672 5.538433 -0.174930
0.007375 -0.150084 -0.004076
4.115730 5.581966 0.151157
18.801342 26.051250 1.460693
18.576815 25.727610 2.184588
19.230165 26.617241 3.030370
18.925531 26.172529 3.747073
19.337263 26.734386 4.608836
19.649546 27.147430 5.479461
19.779190 27.306219 6.328415
0.338120 0.308889 -0.340394
0.332605 0.300886 -0.317259
0.346148 0.319468 -0.312742
0.356747 0.333755 -0.304519
0.375740 0.359646 -0.302600
0.396905 0.388716 -0.300977
0.405372 0.399987 -0.288561
0.438874 0.445797 -0.292313
2.748931 3.633132 -1.710921
2.953008 3.911542 -1.706111
3.191206 4.236551 -1.702548
3.451503 4.593218 -1.692541
3.606149 4.802313 -1.614552
3.707198 4.939289 -1.502933
4.175001 5.578303 -1.518748
4.558708 6.100838 -1.470568
5.582666 7.574599 -1.580993
4.188687 5.640887 -1.016679
4.174465 5.616704 -0.843514
4.127372 5.547116 -0.668556
4.123563 5.539503 -0.503630
0.007376 -0.149869 -0.004071
4.116991 5.521610 -0.175141
0.007376 -0.149869 -0.004071
0.007376 -0.149869 -0.004071
18.929377 25.912273 1.458876
18.765156 25.675537 2.189158
21.190561 28.992199 3.313225
19.025116 25.992870 3.736865
19.460014 26.579805 4.601290
19.715483 26.909840 5.454260
20.693972 28.231325 6.568943
0.340724 0.307190 -0.340389
0.335168 0.299219 -0.317254
0.345700 0.313452 -0.309915
0.358430 0.330505 -0.303615
0.379709 0.359187 -0.303454
0.398916 0.385211 -0.300158
0.406332 0.394926 -0.287011
0.442285 0.443521 -0.292309
2.771746 3.619023 -1.711615
2.990882 3.914592 -1.714473
3.220878 4.224527 -1.704950
3.482143 4.578193 -1.694214
3.670072 4.830040 -1.630338
3.737557 4.919712 -1.503410
4.209025 5.556030 -1.519181
4.462858 5.896036 -1.428472
4.266312 5.680095 -1.199190
4.231248 5.629746 -1.018940
4.228657 5.621721 -0.847748
4.283566 5.692254 -0.688332
4.217489 5.599653 -0.511025
4.149836 5.502913 -0.339373
4.155427 5.506165 -0.175400
0.007346 -0.149659 -0.004065
20.855961 28.243477 0.771100
19.515444 26.397358 1.492272
18.744282 25.337597 2.169465
18.763586 25.344156 2.910075
19.400059 26.188913 3.780685
19.404228 26.183880 4.552079
21.464777 28.958817 5.892202
31.305416 42.275539 9.862842
0.344365 0.306858 -0.341408
0.338763 0.298936 -0.318232
0.350458 0.314549 -0.311793
0.361194 0.328695 -0.303612
0.380450 0.354339 -0.301734
0.399876 0.380156 -0.298522
0.408361 0.391357 -0.286235
0.441237 0.435240 -0.289387
2.797388 3.607306 -1.713683
3.017575 3.902130 -1.716410
3.249390 4.210771 -1.706755
3.506640 4.553097 -1.692566
3.740216 4.864953 -1.648669
3.769830 4.900842 -1.504350
4.250930 5.542215 -1.522125
0.007345 -0.149441 -0.004059
4.282148 5.631913 -1.194306
4.290162 5.638258 -1.024853
7.418321 9.861519 -1.473746
4.328913 5.683774 -0.690229
0.007345 -0.149441 -0.004059
4.222729 5.533767 -0.342638
4.212901 5.516149 -0.176441
0.007345 -0.149441 -0.004059
20.943695 28.022243 0.768230
19.620035 26.220852 1.488551
19.454868 25.978662 2.233805
20.218189 26.983334 3.110951
19.450222 25.941801 3.761055
19.462772 25.938549 4.529357
21.372334 28.477097 5.820004
0.007345 -0.149441 -0.004059
0.346026 0.303689 -0.340382
0.342448 0.298568 -0.319210
0.351082 0.309895 -0.309907
0.362932 0.325366 -0.302708
0.384512 0.353779 -0.302588
0.402904 0.378097 -0.298519
0.410445 0.387709 -0.285458
0.449152 0.438819 -0.292302
2.816672 3.588397 -1.712318
3.032405 3.872315 -1.711279
3.275158 4.191685 -1.706766
3.539386 4.540771 -1.695345
3.812921 4.900097 -1.667510
3.822246 4.910400 -1.513633
4.272995 5.503877 -1.518376
4.377996 5.638592 -1.379682
4.331699 5.627228 -1.198569
6.499166 8.519003 -1.539487
7.503676 9.852600 -1.478934
8.947645 11.770017 -1.412385
4.311820 5.587225 -0.514321
4.265921 5.521685 -0.343419
0.007316 -0.149235 -0.004053
0.007316 -0.149235 -0.004053
0.007316 -0.149235 -0.004053
20.149656 26.600798 1.516676
19.695997 25.987768 2.244135
20.407381 26.911432 3.115993
19.932274 26.260969 3.823949
20.039619 26.392529 4.628053
35.173119 46.407986 9.508801
0.007316 -0.149235 -0.004053
0.345505 0.297831 -0.337311
0.345025 0.296849 -0.319206
0.356886 0.312335 -0.312726
0.364556 0.322098 -0.301804
0.386303 0.350376 -0.301727
0.404825 0.374574 -0.297700
0.412385 0.384117 -0.284681
0.450247 0.433511 -0.290839
2.840392 3.575373 -1.713699
3.054337 3.853547 -1.710645
3.305869 4.180624 -1.709766
3.567465 4.522115 -1.695910
3.852441 4.892171 -1.672102
3.893756 4.944262 -1.530331
4.287616 5.456139 -1.512117
5.201035 6.647113 -1.626426
5.786373 7.478749 -1.588270
6.535746 8.464375 -1.536424
7.579065 9.833271 -1.482479
7.948187 10.311885 -1.245480
0.007316 -0.149020 -0.004048
0.007316 -0.149020 -0.004048
8.755891 11.353731 -0.357200
56.676857 74.330940 -0.118145
0.007316 -0.149020 -0.004048
20.099688 26.217800 1.501344
21.391861 27.902273 2.419236
20.894802 27.229357 3.166326
20.282705 26.406765 3.861791
20.475624 26.648670 4.693084
22.026066 28.656590 5.907350
30.113022 39.206120 9.268969
0.353278 0.302909 -0.342418
0.351805 0.300640 -0.323129
0.357371 0.307724 -0.310840
0.377033 0.332997 -0.309896
0.388063 0.346967 -0.300865
0.408941 0.373942 -0.298512
0.417684 0.384917 -0.286224
0.453584 0.431165 -0.290836
2.866334 3.565172 -1.716452
3.078443 3.837661 -1.711296
3.331867 4.163297 -1.710374
3.596597 4.504807 -1.697027
3.887281 4.877841 -1.674658
3.965778 4.977471 -1.547029
4.311384 5.420802 -1.509203
0.007316 -0.148805 -0.004043
5.836139 7.453424 -1.589924
6.580335 8.420613 -1.535325
7.658101 9.818133 -1.486727
8.006955 10.264672 -1.245322
0.007316 -0.148805 -0.004043
8.905218 11.420529 -0.702548
8.774334 11.241664 -0.355329
0.007316 -0.148805 -0.004043
0.007316 -0.148805 -0.004043
20.438799 26.345703 1.515230
21.478432 27.682720 2.410782
21.300138 27.430635 3.203639
20.884464 26.871681 3.946757
20.966091 26.966484 4.769704
36.245899 46.699013 9.652344
0.007316 -0.148805 -0.004043
0.356915 0.302484 -0.343437
0.356503 0.301614 -0.325089
0.361069 0.307310 -0.311777
0.369953 0.318387 -0.301797
0.394206 0.349252 -0.303435
0.410807 0.370391 -0.297692
0.419599 0.381302 -0.285447
0.461486 0.434681 -0.293751
2.893400 3.556281 -1.719890
3.098995 3.817151 -1.710019
3.361279 4.150324 -1.712775
3.625655 4.487322 -1.698145
3.922065 4.863268 -1.677214
4.035901 5.006945 -1.562800
4.344538 5.397702 -1.509635
5.287311 6.598173 -1.629071
5.882154 7.423102 -1.590598
6.627047 8.379745 -1.534787
7.732341 9.796142 -1.490038
8.098473 10.259582 -1.250246
0.007287 -0.148599 -0.004037
8.901649 11.279525 -0.697132
8.780704 11.115564 -0.353017
0.007287 -0.148599 -0.004037
42.104584 53.837646 1.501490
20.562521 26.191793 1.513058
20.352526 25.912338 2.267183
0.007287 -0.148599 -0.004037
21.187513 26.940823 3.974485
20.794540 26.427626 4.695671
0.007287 -0.148599 -0.004037
0.007287 -0.148599 -0.004037
0.361603 0.303375 -0.345477
0.360144 0.301177 -0.326066
0.361489 0.302700 -0.309891
0.371519 0.315099 -0.300893
0.394823 0.344391 -0.301715
0.416025 0.371138 -0.299320
0.423774 0.380582 -0.286216
2.727170 3.303359 -1.726274
2.913494 3.538350 -1.719211
3.129941 3.809914 -1.714525
3.389486 4.135659 -1.714578
3.651079 4.465139 -1.697602
3.960407 4.853015 -1.681297
0.007286 -0.148381 -0.004031
0.007286 -0.148381 -0.004031
4.018295 4.916560 -1.229533
5.930468 7.395607 -1.591925
6.671103 8.335523 -1.533688
7.812710 9.781429 -1.494519
9.314170 11.682576 -1.427020
0.007286 -0.148381 -0.004031
0.007286 -0.148381 -0.004031
8.783428 10.986629 -0.350605
42.149651 53.299927 -0.087565
0.007286 -0.148381 -0.004031
21.246033 26.747633 1.551982
21.075903 26.521633 2.330698
0.007286 -0.148381 -0.004031
21.463684 26.971523 3.996925
0.007286 -0.148381 -0.004031
33.464329 42.091099 8.780885
0.007286 -0.148381 -0.004031
0.364183 0.301542 -0.345473
0.364893 0.302083 -0.328026
0.362971 0.299485 -0.308946
0.374150 0.313201 -0.300889
0.396529 0.340954 -0.300854
0.421369 0.371778 -0.300947
0.429105 0.381276 -0.287759
2.750439 3.292227 -1.728469
2.935293 3.521271 -1.719218
3.155003 3.795051 -1.715817
3.415250 4.117833 -1.715185
3.679517 4.445165 -1.698165
3.989098 4.830403 -1.681308
4.031371 4.879463 -1.538257
4.034832 4.879995 -1.381682
4.039609 4.882177 -1.226935
4.031971 4.917582 -1.075160
4.034663 4.917146 -0.921613
4.042956 4.925562 -0.769093
4.048588 4.928816 -0.617471
11.979909 14.881392 -1.371437
8.743624 10.814455 -0.675013
8.784939 10.858028 -0.348192
0.007257 -0.148174 -0.004025
36.700394 45.808010 1.288938
38.998154 48.649067 2.831797
21.264671 26.435545 2.334037
38.246429 47.636322 5.629779
36.877747 45.907787 6.821537
0.007257 -0.148174 -0.004025
0.007257 -0.148174 -0.004025
0.007257 -0.148174 -0.004025
0.367926 0.300973 -0.346491
0.370810 0.304238 -0.330967
0.375566 0.309958 -0.317412
0.385825 0.322361 -0.308082
0.400453 0.340322 -0.301707
0.423187 0.368173 -0.300128
0.434536 0.381848 -0.289301
2.767831 3.273696 -1.727015
2.958694 3.507497 -1.720597
3.178810 3.778563 -1.716467
3.439729 4.098370 -1.715193
3.709512 4.428663 -1.699836
4.018876 4.809131 -1.681827
4.071214 4.870047 -1.542440
4.061572 4.856148 -1.381274
4.070071 4.862878 -1.227691
4.044579 4.872322 -1.070598
4.047564 4.874053 -0.917973
0.007257 -0.147960 -0.004020
0.007257 -0.147960 -0.004020
0.007257 -0.147960 -0.004020
4.056000 4.871229 -0.312708
0.007257 -0.147960 -0.004020
0.007257 -0.147960 -0.004020
0.007257 -0.147960 -0.004020
4.083450 4.893692 0.290313
4.102468 4.913440 0.443182
4.108359 4.918705 0.596011
0.007257 -0.147960 -0.004020
0.007257 -0.147960 -0.004020
0.007257 -0.147960 -0.004020
0.007257 -0.147960 -0.004020
0.374749 0.304499 -0.350576
0.374430 0.303767 -0.331945
0.379221 0.309476 -0.318349
0.383940 0.314917 -0.304479
0.404385 0.339665 -0.302561
0.423820 0.363149 -0.298492
0.433958 0.375373 -0.286977
2.786299 3.256529 -1.726291
2.983222 3.495029 -1.722662
3.202533 3.761927 -1.717116
3.461651 4.075805 -1.714005
3.739408 4.411961 -1.701506
4.057112 4.798159 -1.685908
4.120961 4.872380 -1.550330
4.109735 4.854924 -1.387558
4.109660 4.851075 -1.230684
4.078729 4.857595 -1.072242
4.066367 4.838661 -0.915737
4.072148 4.843804 -0.763722
0.007258 -0.147745 -0.004015
0.007258 -0.147745 -0.004015
4.068770 4.830216 -0.311571
0.007258 -0.147745 -0.004015
4.082137 4.839125 -0.011968
4.087156 4.843329 0.137687
0.007258 -0.147745 -0.004015
0.007258 -0.147745 -0.004015
0.007258 -0.147745 -0.004015
0.007258 -0.147745 -0.004015
4.089997 4.829918 0.892652
4.111341 4.852190 1.050524
4.116730 4.856799 1.207759
0.373020 0.297208 -0.346482
0.375976 0.300446 -0.330959
0.384154 0.310199 -0.320227
0.390068 0.317022 -0.307174
0.407250 0.337514 -0.302557
0.429073 0.363775 -0.300120
0.438219 0.374471 -0.287747
2.811140 3.245945 -1.729215
3.005310 3.479503 -1.723354
3.228055 3.746050 -1.718409
3.492708 4.062820 -1.717004
3.769233 4.395066 -1.703175
4.087572 4.775767 -1.686428
0.007229 -0.147539 -0.004009
4.568052 5.349229 -1.531446
5.500294 6.467849 -1.635116
4.109568 4.835118 -1.072580
4.108812 4.832258 -0.918836
4.111763 4.832108 -0.765609
4.105985 4.821391 -0.612986
4.104662 4.817855 -0.462179
4.100725 4.809358 -0.311773
4.105987 4.812045 -0.161354
4.108157 4.812735 -0.011973
0.007229 -0.147539 -0.004009
0.007229 -0.147539 -0.004009
0.007229 -0.147539 -0.004009
0.007229 -0.147539 -0.004009
0.007229 -0.147539 -0.004009
0.007229 -0.147539 -0.004009
0.007229 -0.147539 -0.004009
0.007229 -0.147539 -0.004009
0.376669 0.296632 -0.347501
0.387458 0.309240 -0.338809
0.387910 0.309592 -0.321164
0.391565 0.313646 -0.306270
0.406550 0.331253 -0.299979
0.430832 0.360152 -0.299300
0.441216 0.372196 -0.287743
2.834193 3.234252 -1.731409
3.029736 3.466731 -1.725419
3.257667 3.736376 -1.722270
3.509495 4.034128 -1.713422
3.792825 4.370617 -1.702076
4.118285 4.755385 -1.687455
4.489744 5.196292 -1.665769
4.747958 5.499873 -1.580811
5.543295 6.442376 -1.636622
6.173916 7.255511 -1.599205
0.007228 -0.147320 -0.004003
4.167025 4.840664 -0.770541
4.153631 4.820883 -0.615820
4.144670 4.808212 -0.463467
0.007228 -0.147320 -0.004003
4.157513 4.816216 -0.162244
4.155846 4.812295 -0.012020
4.139997 4.789658 0.137490
4.142387 4.788850 0.288287
4.137856 4.781525 0.437670
4.140925 4.781515 0.588098
4.148042 4.786311 0.741125
4.134202 4.767909 0.889873
4.135511 4.765810 1.042138
4.134349 4.760777 1.195968
0.379128 0.294779 -0.347496
0.389967 0.307323 -0.338805
0.393921 0.311654 -0.323983
0.395278 0.313080 -0.307165
0.408022 0.327851 -0.299117
0.431369 0.355131 -0.297664
0.446564 0.372724 -0.289285
2.843364 3.207263 -1.725574
3.051682 3.450936 -1.726111
3.279963 3.717836 -1.722277
3.547040 4.030141 -1.720008
3.824948 4.356308 -1.704852
4.147653 4.733347 -1.687973
4.527634 5.177269 -1.668098
0.007198 -0.147111 -0.003997
5.584887 6.415130 -1.637753
6.223990 7.231787 -1.601507
6.993075 8.138473 -1.540835
8.218394 9.587980 -1.507096
4.173539 4.788772 -0.614698
0.007198 -0.147111 -0.003997
0.007198 -0.147111 -0.003997
0.007198 -0.147111 -0.003997
0.007198 -0.147111 -0.003997
4.195432 4.798076 0.138404
4.191350 4.789598 0.289729
4.184198 4.779226 0.439579
4.187236 4.779154 0.590655
4.184032 4.771729 0.742495
4.177330 4.760200 0.892899
4.175162 4.755750 1.045026
4.172676 4.749175 1.198902
0.386279 0.297948 -0.351582
0.396134 0.309173 -0.341747
0.396609 0.309563 -0.323978
0.400391 0.313630 -0.308961
0.413163 0.328423 -0.300828
0.435508 0.354207 -0.298476
0.444834 0.364717 -0.286189
2.864411 3.192024 -1.726309
3.070494 3.430180 -1.724743
3.308282 3.706343 -1.725495
3.567277 4.005574 -1.718220
3.850292 4.332352 -1.704307
4.179430 4.714064 -1.689508
4.560695 5.154337 -1.669035
5.040728 5.710911 -1.655701
5.623825 6.384647 -1.638140
6.268874 7.193934 -1.601526
7.047175 8.103168 -1.541978
8.289209 9.551515 -1.509232
4.199669 4.758934 -0.614144
0.007198 -0.146896 -0.003992
0.007198 -0.146896 -0.003992
0.007198 -0.146896 -0.003992
36.108372 42.001732 -0.073056
0.007198 -0.146896 -0.003992
0.007198 -0.146896 -0.003992
0.007198 -0.146896 -0.003992
4.279017 4.829292 0.599628
0.007198 -0.146896 -0.003992
0.007198 -0.146896 -0.003992
4.227734 4.760362 1.051131
4.218679 4.746220 1.204043
0.388724 0.296032 -0.351577
0.394101 0.301929 -0.337815
0.404913 0.314279 -0.328680
0.405265 0.314344 -0.310755
0.413527 0.323559 -0.299109
0.435895 0.349257 -0.296840
0.447661 0.362479 -0.286184
2.884779 3.177146 -1.727043
3.094064 3.417501 -1.726807
3.332848 3.690359 -1.726786
3.598604 3.993891 -1.721816
3.882753 4.319764 -1.707635
4.206038 4.688735 -1.689008
4.586349 5.124666 -1.667653
5.079440 5.687974 -1.657385
5.665124 6.356884 -1.639271
6.316122 7.166576 -1.603173
7.096928 8.068484 -1.542838
8.352236 9.515914 -1.510894
0.007169 -0.146690 -0.003986
0.007169 -0.146690 -0.003986
13.406754 15.339518 -0.984560
13.332124 15.241907 -0.501976
0.007169 -0.146690 -0.003986
22.779324 26.122629 0.759801
0.007169 -0.146690 -0.003986
38.775593 44.525204 4.057970
4.325850 4.825923 0.602185
0.007169 -0.146690 -0.003986
0.007169 -0.146690 -0.003986
0.007169 -0.146690 -0.003986
0.007169 -0.146690 -0.003986
0.385615 0.287567 -0.346461
0.405835 0.310408 -0.345665
0.409858 0.314850 -0.330558
0.410236 0.314944 -0.312550
0.418598 0.324149 -0.300820
0.442441 0.351048 -0.299284
0.454198 0.364307 -0.288499
2.903832 3.160745 -1.727047
3.117605 3.402180 -1.728184
3.356113 3.672799 -1.727434
3.626125 3.977673 -1.723616
3.900265 4.286815 -1.703767
4.229944 4.660357 -1.687489
4.623933 5.104955 -1.669982
5.117788 5.662428 -1.658651
5.711347 6.332300 -1.641521
6.367155 7.140791 -1.605476
7.153292 8.035491 -1.544542
8.412892 9.473960 -1.511854
10.122658 11.422268 -1.457039
0.007169 -0.146475 -0.003981
10.317873 11.632289 -0.753578
13.399296 15.141180 -0.501232
13.416792 15.149875 -0.029384
0.007169 -0.146475 -0.003981
0.007169 -0.146475 -0.003981
22.988913 26.020081 2.387568
4.369658 4.816916 0.604193
4.349523 4.792106 0.756719
4.339826 4.777427 0.909425
4.362972 4.800088 1.070420
0.007169 -0.146475 -0.003981
0.393843 0.291968 -0.351568
0.403907 0.303023 -0.341734
0.418436 0.319284 -0.335260
0.415333 0.315438 -0.314345
0.422480 0.323338 -0.301674
0.446489 0.350109 -0.300095
0.458444 0.363242 -0.289269
2.921563 3.142839 -1.726321
3.142938 3.390056 -1.730934
3.381768 3.657926 -1.729366
3.648503 3.955569 -1.723024
3.938448 4.278923 -1.709310
4.261341 4.640528 -1.689023
4.655320 5.079970 -1.670454
5.153992 5.638426 -1.659915
5.751298 6.305002 -1.642651
6.414133 7.107621 -1.606472
7.206755 8.001885 -1.545963
8.482885 9.439074 -1.514221
10.208170 11.381724 -1.459515
0.007168 -0.146256 -0.003975
0.007168 -0.146256 -0.003975
9.998014 11.127246 -0.372555
13.531043 15.102656 -0.029470
0.007168 -0.146256 -0.003975
25.258631 28.294254 1.721961
0.007168 -0.146256 -0.003975
4.406517 4.803156 0.605469
4.376532 4.765797 0.756481
4.375926 4.761524 0.911073
4.373404 4.756782 1.066230
4.369103 4.748365 1.222779
0.391702 0.284885 -0.347475
0.407564 0.302317 -0.342711
0.425691 0.322450 -0.339019
0.420275 0.316029 -0.316140
0.429987 0.326539 -0.305101
0.451748 0.350501 -0.301722
0.462493 0.362302 -0.290037
2.944141 3.130385 -1.728513
3.160711 3.369372 -1.729566
3.408663 3.644303 -1.731942
3.683513 3.947547 -1.728413
3.958685 4.250729 -1.707102
4.291387 4.619066 -1.690049
4.682696 5.050468 -1.669535
5.193412 5.613852 -1.661600
5.794665 6.276895 -1.644154
6.461047 7.079348 -1.608118
7.266697 7.975326 -1.548788
8.546788 9.403720 -1.516115
10.293509 11.348610 -1.462551
9.892962 10.892901 -1.058829
0.007139 -0.146050 -0.003969
9.982560 10.980499 -0.369644
10.048364 11.045677 -0.022808
32.001125 35.500080 1.048043
0.007139 -0.146050 -0.003969
0.007139 -0.146050 -0.003969
0.007139 -0.146050 -0.003969
4.406003 4.742285 0.756703
4.401431 4.733608 0.910513
4.408939 4.738374 1.067831
4.398473 4.724883 1.223139
0.399992 0.289185 -0.352582
0.414866 0.305314 -0.346634
0.428465 0.320177 -0.339015
0.427790 0.319083 -0.319734
0.437603 0.329585 -0.308528
0.457049 0.350859 -0.303349
0.474158 0.369371 -0.295445
2.963509 3.113134 -1.728517
3.184650 3.355556 -1.731628
3.436141 3.629894 -1.734517
3.697417 3.914593 -1.723633
3.995535 4.240933 -1.712091
4.326042 4.600953 -1.692601
4.715117 5.026580 -1.670470
5.229061 5.587026 -1.662445
5.839451 6.252431 -1.646402
6.510345 7.048504 -1.609766
7.333187 7.955683 -1.553016
8.621855 9.373777 -1.519418
9.776001 10.641244 -1.380110
0.007139 -0.145836 -0.003964
0.007139 -0.145836 -0.003964
9.966335 10.831088 -0.366684
10.099113 10.973167 -0.022807
0.007139 -0.145836 -0.003964
0.007139 -0.145836 -0.003964
25.673128 28.079899 2.615629
0.007139 -0.145836 -0.003964
4.438875 4.720761 0.757385
4.425399 4.704085 0.909679
4.430290 4.705912 1.066215
4.441826 4.714986 1.227177
0.398995 0.283321 -0.349510
0.413908 0.299311 -0.343684
0.434685 0.321856 -0.341834
0.434061 0.320816 -0.322429
0.437807 0.324726 -0.306808
0.464811 0.353855 -0.306608
0.478357 0.368248 -0.296214
2.986647 3.102281 -1.731438
3.209804 3.342961 -1.734377
3.459686 3.613703 -1.735806
3.731625 3.906808 -1.729021
4.014181 4.211057 -1.709328
4.355058 4.579851 -1.693624
4.750042 5.005348 -1.672332
5.266241 5.563779 -1.664127
5.875022 6.220016 -1.646412
6.556913 7.017018 -1.611086
7.391666 7.926772 -1.555559
8.689859 9.338942 -1.521782
9.852669 10.601253 -1.382204
0.007110 -0.145629 -0.003958
10.097834 10.856606 -0.718951
0.007110 -0.145629 -0.003958
10.170965 10.924003 -0.022845
0.007110 -0.145629 -0.003958
0.007110 -0.145629 -0.003958
0.007110 -0.145629 -0.003958
4.588275 4.832700 0.618643
0.007110 -0.145629 -0.003958
0.007110 -0.145629 -0.003958
0.007110 -0.145629 -0.003958
0.007110 -0.145629 -0.003958
0.400201 0.280078 -0.348483
0.415205 0.295972 -0.342698
0.442169 0.324786 -0.345595
0.437862 0.319950 -0.323324
0.447853 0.330404 -0.311951
0.472627 0.356779 -0.309867
0.486310 0.371152 -0.299303
3.002764 3.082573 -1.729982
3.231089 3.326064 -1.735067
3.481903 3.593386 -1.735810
3.750364 3.879280 -1.726633
4.045717 4.195182 -1.712102
4.385599 4.557038 -1.694649
4.783121 4.980206 -1.673267
5.304969 5.536089 -1.665392
5.920662 6.193961 -1.648660
6.606121 6.990734 -1.613384
7.454080 7.901820 -1.558943
8.753394 9.302249 -1.523675
10.538953 11.222668 -1.469401
10.369415 11.031507 -1.089006
10.203044 10.844013 -0.721939
10.193376 10.829397 -0.370447
10.237143 10.868521 -0.022872
0.007110 -0.145415 -0.003953
0.007110 -0.145415 -0.003953
0.007110 -0.145415 -0.003953
4.614980 4.802783 0.618268
4.631317 4.816713 0.780581
4.637029 4.819210 0.941388
0.007110 -0.145415 -0.003953
0.007110 -0.145415 -0.003953
0.401626 0.276632 -0.347457
0.421436 0.297496 -0.345639
0.443721 0.321122 -0.344649
0.446770 0.324038 -0.327817
0.455588 0.333263 -0.315379
0.478096 0.356892 -0.311494
0.495648 0.375230 -0.303164
3.026929 3.070401 -1.732904
3.255461 3.311214 -1.737129
3.498158 3.568027 -1.733244
3.783890 3.869005 -1.731423
4.075325 4.175581 -1.713769
4.413883 4.533391 -1.695164
4.821857 4.962771 -1.676519
5.341912 5.512355 -1.667072
5.962427 6.165779 -1.650161
6.660319 6.962081 -1.616013
7.524648 7.882338 -1.563734
8.817651 9.256180 -1.524868
10.629874 11.181664 -1.472440
0.007110 -0.145196 -0.003947
9.040051 9.475780 -0.636038
9.130296 9.568196 -0.330142
10.307690 10.813765 -0.022905
0.007110 -0.145196 -0.003947
0.007110 -0.145196 -0.003947
0.007110 -0.145196 -0.003947
44.630981 47.225582 5.984838
0.007110 -0.145196 -0.003947
0.007110 -0.145196 -0.003947
4.650095 4.774549 1.098692
4.643724 4.764201 1.259527
0.403968 0.274637 -0.347452
0.427490 0.299189 -0.348580
0.446293 0.318885 -0.344644
0.451847 0.324386 -0.329613
0.462072 0.334824 -0.317948
0.485983 0.359682 -0.314753
0.499801 0.374046 -0.303933
3.046636 3.054531 -1.733635
3.276573 3.294039 -1.737819
3.525958 3.554952 -1.736459
3.808223 3.848807 -1.732025
4.108030 4.160663 -1.717096
4.443382 4.510979 -1.696187
4.856513 4.940835 -1.678380
5.378044 5.483682 -1.667918
6.003773 6.134846 -1.651290
6.707967 6.933673 -1.617983
7.573390 7.842054 -1.564309
8.876746 9.214321 -1.526055
9.169250 9.515927 -1.263075
0.007080 -0.144990 -0.003941
9.086669 9.418232 -0.635576
9.152917 9.480996 -0.328984
9.226695 9.551568 -0.020830
0.007080 -0.144990 -0.003941
0.007080 -0.144990 -0.003941
0.007080 -0.144990 -0.003941
45.307926 47.377258 6.037689
0.007080 -0.144990 -0.003941
0.007080 -0.144990 -0.003941
0.007080 -0.144990 -0.003941
0.007080 -0.144990 -0.003941
0.401678 0.267519 -0.343358
0.420469 0.286832 -0.340721
0.452714 0.320317 -0.347464
0.457080 0.324530 -0.331408
0.469881 0.337541 -0.321375
0.490238 0.358367 -0.315564
0.513104 0.381978 -0.310114
3.064243 3.035324 -1.732908
3.298180 3.276162 -1.738508
3.543880 3.530147 -1.734535
3.833147 3.827796 -1.732627
4.132128 4.135108 -1.716547
4.473581 4.487604 -1.697211
4.887894 4.913612 -1.678850
5.415376 5.456189 -1.669181
6.047687 6.106475 -1.653163
6.755253 6.899757 -1.619303
7.646605 7.824450 -1.569659
8.941648 9.171844 -1.527714
10.793873 11.095078 -1.477189
0.007081 -0.144775 -0.003936
9.145906 9.367361 -0.635785
9.172372 9.387942 -0.327681
9.288112 9.501310 -0.020856
0.007081 -0.144775 -0.003936
0.007081 -0.144775 -0.003936
0.007081 -0.144775 -0.003936
0.007081 -0.144775 -0.003936
38.834541 40.091301 6.463231
0.007081 -0.144775 -0.003936
39.138763 40.347530 9.174440
0.007081 -0.144775 -0.003936
0.413600 0.275340 -0.351532
0.428986 0.290918 -0.345625
0.460264 0.323024 -0.351223
0.465973 0.328562 -0.335901
0.473809 0.336465 -0.322228
0.498104 0.361119 -0.318823
0.523804 0.387205 -0.314748
3.079329 3.015765 -1.731449
3.315886 3.256619 -1.737822
3.576201 3.522792 -1.740321
3.860540 3.812073 -1.735022
4.154593 4.110878 -1.715997
4.508778 4.472529 -1.700777
4.918747 4.889320 -1.679782
5.449615 5.431296 -1.670440
6.085481 6.078187 -1.654288
6.795618 6.861041 -1.619312
7.699185 7.790474 -1.571355
8.997843 9.123383 -1.528198
0.007051 -0.144566 -0.003930
9.282992 9.406757 -0.951882
9.221327 9.336364 -0.637235
9.228138 9.339777 -0.327793
9.326380 9.433863 -0.020842
0.007051 -0.144566 -0.003930
0.007051 -0.144566 -0.003930
38.800114 39.653976 3.811703
45.024139 46.021858 5.929555
0.007051 -0.144566 -0.003930
0.007051 -0.144566 -0.003930
0.007051 -0.144566 -0.003930
0.007051 -0.144566 -0.003930
0.408701 0.265903 -0.345393
0.427738 0.285036 -0.342674
0.465321 0.323218 -0.353101
0.479837 0.337678 -0.343993
0.480375 0.337856 -0.324798
0.503548 0.361101 -0.320450
2.905522 2.805250 -1.737400
3.105265 3.006213 -1.735829
3.343293 3.245773 -1.741943
3.590576 3.495660 -1.737110
3.884565 3.791410 -1.735623
4.181691 4.089900 -1.717108
4.532522 4.444009 -1.699764
4.953056 4.866729 -1.681641
5.489429 5.406116 -1.672539
6.127756 6.047854 -1.655787
6.833193 6.821879 -1.618994
7.753000 7.754801 -1.573052
9.052146 9.076150 -1.528680
9.387500 9.411066 -1.270278
9.340541 9.356318 -0.952181
9.296454 9.307854 -0.638780
9.311938 9.316744 -0.328836
9.427588 9.427376 -0.020941
0.007050 -0.144347 -0.003924
0.007050 -0.144347 -0.003924
39.096905 39.500122 3.818334
0.007050 -0.144347 -0.003924
0.007050 -0.144347 -0.003924
0.007050 -0.144347 -0.003924
39.945797 40.257515 9.255684
0.007050 -0.144347 -0.003924
0.418371 0.271053 -0.351523
0.426588 0.279035 -0.339724
0.465605 0.318206 -0.351215
0.483935 0.336346 -0.344888
0.488306 0.340378 -0.328226
0.514149 0.366215 -0.325340
2.916436 2.781687 -1.733535
3.127832 2.991968 -1.738021
3.365364 3.229393 -1.743317
3.625429 3.487980 -1.743538
3.914535 3.775323 -1.738617
4.211387 4.071466 -1.719326
4.566448 4.424164 -1.702313
4.987272 4.843914 -1.683500
5.522629 5.376085 -1.672963
6.168807 6.018320 -1.657286
6.879900 6.787124 -1.620311
7.799674 7.711740 -1.573344
9.113602 9.029652 -1.529868
10.976300 10.898079 -1.475927
0.007050 -0.144132 -0.003919
9.412842 9.313769 -0.642911
9.460923 9.355204 -0.332083
13.779202 13.689045 -0.028681
13.937576 13.837957 0.429267
0.007050 -0.144132 -0.003919
57.285515 57.282871 5.564351
0.007050 -0.144132 -0.003919
0.007050 -0.144132 -0.003919
42.006474 41.887188 8.269920
40.131310 39.981426 9.244987
0.007050 -0.144132 -0.003919
0.417102 0.265249 -0.348451
0.433942 0.281746 -0.343647
0.469473 0.317007 -0.352151
0.493003 0.340107 -0.349382
0.493621 0.340360 -0.329937
0.517173 0.363418 -0.325336
2.934531 2.766417 -1.734309
3.141828 2.970229 -1.735831
3.390625 3.214932 -1.746064
3.640886 3.461984 -1.740970
3.927525 3.743587 -1.734432
4.237633 4.048035 -1.719883
4.598139 4.403520 -1.704353
5.016757 4.814528 -1.683506
5.564975 5.353144 -1.675898
6.209403 5.986051 -1.658412
6.921043 6.749089 -1.620647
7.854477 7.674019 -1.575040
9.177453 8.988556 -1.531757
11.055125 10.850475 -1.478015
0.007021 -0.143926 -0.003913
9.421710 9.214670 -0.639862
9.485587 9.271310 -0.331069
13.859487 13.606019 -0.028703
0.007021 -0.143926 -0.003913
0.007021 -0.143926 -0.003913
58.214302 57.527000 5.621214
0.007021 -0.143926 -0.003913
42.157047 41.571629 6.854685
39.899769 39.308960 7.808649
0.007021 -0.143926 -0.003913
38.609558 37.990841 10.148237
0.414603 0.258192 -0.344357
0.430248 0.273306 -0.338733
0.477234 0.319430 -0.355911
0.503513 0.344952 -0.354776
0.500332 0.341475 -0.332506
0.533078 0.373485 -0.333489
2.954356 2.751807 -1.735856
3.165536 2.957022 -1.738752
3.413908 3.199569 -1.748125
3.668932 3.447218 -1.744185
3.961395 3.731181 -1.739220
4.264411 4.026529 -1.720993
4.627772 4.379149 -1.705375
5.035431 4.776316 -1.680265
5.597895 5.322665 -1.676322
6.248766 5.954612 -1.659537
6.968781 6.715130 -1.622290
7.897897 7.627584 -1.574770
9.242707 8.945411 -1.533646
0.007021 -0.143711 -0.003908
0.007021 -0.143711 -0.003908
9.732090 9.409532 -0.657008
9.766603 9.436494 -0.338819
13.975425 13.562780 -0.028791
0.007021 -0.143711 -0.003908
0.007021 -0.143711 -0.003908
0.007021 -0.143711 -0.003908
43.002338 41.937798 5.531716
0.007021 -0.143711 -0.003908
40.992733 39.926693 7.977383
0.007021 -0.143711 -0.003908
0.007021 -0.143711 -0.003908
0.425514 0.264451 -0.351508
0.435112 0.273502 -0.340692
0.478615 0.315696 -0.354965
0.502442 0.338558 -0.352071
0.506912 0.342711 -0.335075
0.571381 0.405020 -0.355510
2.973589 2.737580 -1.737403
3.186788 2.943456 -1.740941
3.433066 3.180123 -1.748126
3.688906 3.426950 -1.744186
3.974712 3.701304 -1.735633
4.291079 4.004856 -1.722103
4.661235 4.361584 -1.708431
5.074825 4.758343 -1.683977
5.633898 5.297050 -1.677999
6.288298 5.925373 -1.661033
7.003846 6.671055 -1.621317
7.953792 7.593335 -1.577026
9.301920 8.899284 -1.534830
0.006992 -0.143505 -0.003902
9.731256 9.306544 -0.969424
9.794019 9.360627 -0.657499
9.794044 9.357082 -0.337949
9.820502 9.375864 -0.021304
0.006992 -0.143505 -0.003902
0.006992 -0.143505 -0.003902
0.006992 -0.143505 -0.003902
0.006992 -0.143505 -0.003902
0.006992 -0.143505 -0.003902
0.006992 -0.143505 -0.003902
0.006992 -0.143505 -0.003902
0.006992 -0.143505 -0.003902
0.426522 0.261125 -0.350481
0.429888 0.264065 -0.334796
0.481149 0.313268 -0.354960
0.514147 0.344673 -0.358365
0.514897 0.345046 -0.338502
2.842027 2.580517 -1.760313
2.988259 2.719915 -1.736628
3.204475 2.925322 -1.740941
3.458912 3.167074 -1.751559
3.698415 3.395432 -1.739045
4.014657 3.695789 -1.743410
4.316260 3.981691 -1.722659
4.684258 4.332274 -1.707415
5.116989 4.742770 -1.688617
5.673078 5.270567 -1.680095
6.332668 5.896400 -1.663276
7.045991 6.636251 -1.622303
8.006710 7.555961 -1.578720
9.367929 8.862673 -1.537419
0.006991 -0.143287 -0.003896
9.962382 9.420680 -0.986909
9.849726 9.308888 -0.657701
9.852812 9.305009 -0.338107
9.873632 9.318113 -0.021313
0.006991 -0.143287 -0.003896
0.006991 -0.143287 -0.003896
0.006991 -0.143287 -0.003896
0.006991 -0.143287 -0.003896
44.844639 42.727058 7.170399
39.472767 37.563496 7.596339
43.394409 41.280270 9.772970
0.006991 -0.143287 -0.003896
0.426417 0.256474 -0.348431
0.438582 0.267768 -0.339700
0.478734 0.305797 -0.351191
0.520892 0.345559 -0.361059
0.526928 0.350945 -0.344503
2.849720 2.556832 -1.755418
3.010523 2.707485 -1.739721
3.223937 2.907805 -1.741671
3.477860 3.147367 -1.751558
3.734445 3.388030 -1.746116
4.033165 3.668241 -1.741617
4.338506 3.955724 -1.722106
4.716334 4.310008 -1.709454
5.149230 4.717519 -1.690010
5.701265 5.235414 -1.679262
6.371565 5.864171 -1.664399
7.083165 6.591910 -1.621657
8.052268 7.511400 -1.579009
9.436959 8.822313 -1.540011
11.426714 10.706158 -1.493707
10.022972 9.368979 -0.987488
9.962050 9.304252 -0.661447
9.939067 9.275617 -0.339148
0.006991 -0.143072 -0.003891
0.006991 -0.143072 -0.003891
0.006991 -0.143072 -0.003891
0.006991 -0.143072 -0.003891
0.006991 -0.143072 -0.003891
0.006991 -0.143072 -0.003891
41.247055 38.807922 7.894713
42.447479 39.912628 9.507483
43.160961 40.556454 11.093943
0.421184 0.247193 -0.342292
0.438415 0.263105 -0.337732
0.482568 0.304493 -0.352127
0.532783 0.351367 -0.367352
0.529758 0.348160 -0.344498
2.863848 2.539387 -1.754601
3.033594 2.696680 -1.743586
3.248220 2.895826 -1.745320
3.506325 3.136550 -1.756364
3.754689 3.366743 -1.746116
4.061982 3.651749 -1.744609
4.369014 3.937516 -1.724876
4.743264 4.284377 -1.709965
5.172815 4.684084 -1.688622
5.744973 5.214800 -1.683031
6.408869 5.830361 -1.665149
7.131834 6.560779 -1.623951
8.101903 7.470642 -1.580140
9.501369 8.780391 -1.542131
11.523740 10.673240 -1.498240
0.006962 -0.142866 -0.003885
0.006962 -0.142866 -0.003885
10.025145 9.248650 -0.340236
0.006962 -0.142866 -0.003885
0.006962 -0.142866 -0.003885
0.006962 -0.142866 -0.003885
58.718475 54.774940 5.514575
0.006962 -0.142866 -0.003885
0.006962 -0.142866 -0.003885
43.047031 40.042610 8.195018
42.350826 39.363884 9.434713
43.434471 40.345493 11.104179
0.433483 0.254385 -0.350466
0.444558 0.264391 -0.340672
0.481235 0.298351 -0.349298
0.535623 0.348548 -0.367347
0.545794 0.357646 -0.353073
2.885898 2.529327 -1.758678
3.049873 2.679432 -1.743586
3.266990 2.878602 -1.746049
3.522352 3.114021 -1.754990
3.783134 3.353056 -1.749972
4.086543 3.631167 -1.745806
4.393796 3.913867 -1.725431
4.768637 4.257271 -1.709967
5.207641 4.661107 -1.690942
5.777126 5.183251 -1.683452
6.444573 5.794992 -1.665527
7.176024 6.525276 -1.625263
8.158611 7.436313 -1.582675
9.568536 8.740730 -1.544719
11.626567 10.644969 -1.503525
0.006963 -0.142651 -0.003880
0.006963 -0.142651 -0.003880
0.006963 -0.142651 -0.003880
12.514913 11.444129 -0.025663
0.006963 -0.142651 -0.003880
0.006963 -0.142651 -0.003880
0.006963 -0.142651 -0.003880
0.006963 -0.142651 -0.003880
0.006963 -0.142651 -0.003880
0.006963 -0.142651 -0.003880
42.810837 39.335510 9.486453
43.682384 40.110077 11.108167
0.428142 0.245148 -0.344327
0.444299 0.259713 -0.338703
0.487668 0.299416 -0.352118
0.544985 0.351747 -0.371840
2.726193 2.353293 -1.756711
2.898522 2.510460 -1.757045
3.064688 2.660843 -1.742811
3.289816 2.865042 -1.748968
3.543808 3.096496 -1.756363
3.801784 3.330211 -1.749330
4.108153 3.607845 -1.745806
4.418463 3.890073 -1.725985
4.806709 4.241762 -1.714549
5.238039 4.633947 -1.691871
5.813425 5.155458 -1.685128
6.487289 5.766017 -1.667766
7.220047 6.489484 -1.626575
8.210792 7.397559 -1.584366
9.629690 8.695212 -1.546369
11.713343 10.601071 -1.506738
15.221932 13.815810 -1.474226
0.006934 -0.142445 -0.003874
0.006934 -0.142445 -0.003874
0.006934 -0.142445 -0.003874
0.006934 -0.142445 -0.003874
0.006934 -0.142445 -0.003874
0.006934 -0.142445 -0.003874
0.006934 -0.142445 -0.003874
0.006934 -0.142445 -0.003874
0.006934 -0.142445 -0.003874
43.025391 39.078396 9.483825
0.006934 -0.142445 -0.003874
0.430359 0.242929 -0.344322
0.444034 0.255061 -0.336735
0.481040 0.288543 -0.345524
0.543848 0.345253 -0.369136
2.740484 2.337814 -1.756709
2.912374 2.492763 -1.756228
3.080735 2.643411 -1.742809
3.309802 2.848818 -1.750426
3.560964 3.075044 -1.755675
3.825877 3.312337 -1.751257
4.135327 3.589528 -1.748199
4.440141 3.863553 -1.725432
4.826097 4.209108 -1.712514
5.279840 4.617022 -1.696508
5.846674 5.124800 -1.685966
6.525552 5.732812 -1.668888
7.259525 6.449434 -1.626906
8.270115 7.365110 -1.587461
9.699451 8.657293 -1.549425
11.794107 10.551187 -1.509197
12.878366 11.530456 -1.241254
0.006933 -0.142227 -0.003868
0.006933 -0.142227 -0.003868
0.006933 -0.142227 -0.003868
12.775926 11.407999 0.373832
0.006933 -0.142227 -0.003868
57.550121 51.851307 5.319448
59.458771 53.536850 7.365627
0.006933 -0.142227 -0.003868
44.676487 40.145477 8.371646
0.006933 -0.142227 -0.003868
44.137833 39.601810 11.106956
0.431340 0.239480 -0.343294
0.448941 0.255003 -0.338693
0.486194 0.288300 -0.347401
0.542728 0.338701 -0.366432
2.760501 2.326606 -1.760139
2.923873 2.472061 -1.753779
3.099927 2.627818 -1.744354
3.328853 2.830645 -1.751155
3.584171 3.057896 -1.757734
3.844857 3.288595 -1.750613
4.160209 3.567752 -1.749395
4.469547 3.842549 -1.727647
4.854671 4.183263 -1.713532
5.316672 4.593685 -1.699292
5.886538 5.098127 -1.688478
6.566092 5.699521 -1.670382
7.302855 6.410519 -1.627890
8.318852 7.320198 -1.588309
9.766189 8.613188 -1.551777
11.877997 10.499983 -1.511843
0.006932 -0.142008 -0.003863
0.006932 -0.142008 -0.003863
12.650792 11.172055 -0.419523
12.673089 11.187752 -0.025625
12.811296 11.303054 0.372857
0.006932 -0.142008 -0.003863
0.006932 -0.142008 -0.003863
0.006932 -0.142008 -0.003863
0.006932 -0.142008 -0.003863
54.451241 48.379932 10.150279
0.006932 -0.142008 -0.003863
0.006932 -0.142008 -0.003863
0.430971 0.234966 -0.341245
0.452516 0.253822 -0.339670
0.488668 0.285751 -0.347397
0.552166 0.341751 -0.370926
2.774658 2.310936 -1.760137
2.945660 2.461493 -1.757855
3.117182 2.611409 -1.745126
3.350062 2.815395 -1.753343
3.595447 3.031246 -1.754300
3.863096 3.265418 -1.749970
4.181466 3.544011 -1.749395
4.489499 3.814482 -1.726539
4.882350 4.158073 -1.714550
5.349639 4.568421 -1.701147
5.919505 5.067023 -1.689316
6.599572 5.661911 -1.670384
7.347779 6.375207 -1.629528
8.374969 7.284320 -1.590842
9.832708 8.571630 -1.554363
11.961314 10.451556 -1.514676
15.646457 13.711915 -1.491742
0.006903 -0.141802 -0.003857
12.756073 11.135151 -0.420855
12.757504 11.132173 -0.025669
0.006903 -0.141802 -0.003857
0.006903 -0.141802 -0.003857
0.006903 -0.141802 -0.003857
0.006903 -0.141802 -0.003857
0.006903 -0.141802 -0.003857
0.006903 -0.141802 -0.003857
0.006903 -0.141802 -0.003857
0.006903 -0.141802 -0.003857
0.436988 0.236131 -0.344307
0.449537 0.246868 -0.335738
0.491085 0.283177 -0.347391
0.549544 0.334105 -0.367322
2.787335 2.293985 -1.759276
2.963331 2.447161 -1.759485
3.132965 2.593684 -1.745124
3.365605 2.795096 -1.752611
3.617874 3.014472 -1.756358
3.892622 3.252115 -1.754467
4.199709 3.517637 -1.748197
4.522302 3.797685 -1.730415
4.915724 4.137796 -1.717603
5.385427 4.545492 -1.703928
5.953769 5.036993 -1.690572
6.641718 5.631848 -1.672622
7.388079 6.335692 -1.630183
8.421976 7.240199 -1.591688
9.900568 8.530904 -1.557183
0.006903 -0.141587 -0.003852
15.799407 13.686365 -1.498716
12.856928 11.101736 -0.822040
12.831217 11.071077 -0.421206
12.876303 11.106265 -0.025769
0.006903 -0.141587 -0.003852
56.591225 49.241089 3.401959
0.006903 -0.141587 -0.003852
0.006903 -0.141587 -0.003852
0.006903 -0.141587 -0.003852
