# This PCD file was generated using the MATLAB® pcwrite function
# from Computer Vision Toolbox®.
# .PCD v.7 - Point Cloud Data file format
VERSION .7
FIELDS x y z
SIZE 4 4 4
TYPE F F F
COUNT 1 1 1
WIDTH 1626
HEIGHT 1
VIEWPOINT 0 0 0 1 0 0 0
POINTS 1626
DATA ascii
4.582507 -2.945396 -1.685304
5.057688 -3.242742 -1.709523
5.614133 -3.592370 -1.732852
6.318269 -4.033207 -1.765342
7.078309 -4.511016 -1.774568
7.563047 -4.817505 -1.681155
9.751705 -6.128972 -1.885091
11.615287 -7.285894 -1.920840
14.761012 -9.241938 -2.028324
20.799000 -12.995694 -2.283557
0.003078 -0.092184 -0.002119
0.003078 -0.092184 -0.002119
0.003078 -0.092184 -0.002119
0.003078 -0.092184 -0.002119
0.003078 -0.092184 -0.002119
0.003078 -0.092184 -0.002119
0.003078 -0.092184 -0.002119
0.003078 -0.092184 -0.002119
0.003078 -0.092184 -0.002119
0.003078 -0.092184 -0.002119
0.003078 -0.092184 -0.002119
6.768304 -4.323496 1.501909
0.511780 -0.410842 -0.358114
2.802212 -1.847879 -1.858360
2.951319 -1.942163 -1.852515
3.137852 -2.060796 -1.860338
3.321286 -2.177656 -1.856903
3.320513 -2.178830 -1.746727
3.419097 -2.241731 -1.687658
3.676198 -2.405342 -1.696820
3.914338 -2.557289 -1.684515
4.202314 -2.739869 -1.679165
4.583759 -2.982685 -1.691861
5.048675 -3.278585 -1.712837
5.589021 -3.621261 -1.731342
6.280010 -4.060978 -1.761204
7.051988 -4.552649 -1.774580
8.404986 -5.413037 -1.875134
9.723522 -6.188909 -1.886406
11.569094 -7.352250 -1.920306
14.711491 -9.328553 -2.028816
20.967245 -13.267432 -2.310332
0.003064 -0.091980 -0.002114
0.003064 -0.091980 -0.002114
0.003064 -0.091980 -0.002114
0.003064 -0.091980 -0.002114
0.003064 -0.091980 -0.002114
0.003064 -0.091980 -0.002114
0.003064 -0.091980 -0.002114
0.003064 -0.091980 -0.002114
0.003064 -0.091980 -0.002114
0.003064 -0.091980 -0.002114
0.003064 -0.091980 -0.002114
0.003064 -0.091980 -0.002114
0.508409 -0.412727 -0.357091
2.797627 -1.867968 -1.862280
2.941769 -1.960340 -1.853456
3.126136 -2.079124 -1.860341
0.003050 -0.091776 -0.002109
3.334635 -2.214352 -1.760557
3.424964 -2.273628 -1.696910
3.673419 -2.433868 -1.701916
3.903268 -2.581553 -1.685888
4.200925 -2.773674 -1.684931
4.563327 -3.007505 -1.690675
5.039966 -3.313555 -1.716150
5.553334 -3.644698 -1.726793
6.247246 -4.090500 -1.758448
7.019628 -4.588674 -1.772929
8.372609 -5.459986 -1.874779
9.688868 -6.247243 -1.886748
11.485373 -7.391857 -1.913373
14.656507 -9.415318 -2.028846
20.403357 -13.082078 -2.256727
0.003050 -0.091776 -0.002109
0.003050 -0.091776 -0.002109
0.003050 -0.091776 -0.002109
0.003050 -0.091776 -0.002109
0.003050 -0.091776 -0.002109
46.444019 -29.780872 2.572271
47.296818 -30.338184 3.927482
0.003050 -0.091776 -0.002109
0.003050 -0.091776 -0.002109
0.003050 -0.091776 -0.002109
0.003050 -0.091776 -0.002109
0.003050 -0.091776 -0.002109
0.513796 -0.420071 -0.362188
2.785910 -1.882854 -1.861303
2.929484 -1.976044 -1.852519
3.113145 -2.095871 -1.859446
0.003035 -0.091572 -0.002104
0.003035 -0.091572 -0.002104
3.409262 -2.291057 -1.695372
3.663007 -2.456750 -1.703375
3.899923 -2.610872 -1.690679
4.190200 -2.800644 -1.686857
4.522430 -3.017906 -1.681747
5.018118 -3.340165 -1.715055
5.523045 -3.670033 -1.723762
6.189830 -4.103895 -1.748776
6.988729 -4.625540 -1.771694
8.338299 -5.505670 -1.874053
9.649994 -6.300488 -1.886117
11.426538 -7.446830 -1.910613
14.597636 -9.495986 -2.028180
20.184416 -13.106133 -2.240804
0.003035 -0.091572 -0.002104
0.003035 -0.091572 -0.002104
0.003035 -0.091572 -0.002104
20.790283 -13.528550 -0.000393
0.003035 -0.091572 -0.002104
45.779495 -29.727993 2.544736
46.038708 -29.907686 3.837023
47.668724 -30.987530 5.301287
0.003035 -0.091572 -0.002104
0.003035 -0.091572 -0.002104
0.003035 -0.091572 -0.002104
0.003035 -0.091572 -0.002104
0.510434 -0.421860 -0.361164
2.778477 -1.900521 -1.863264
2.924514 -1.996490 -1.856277
3.107521 -2.117428 -1.863037
3.305588 -2.248376 -1.868889
0.003051 -0.091362 -0.002100
3.399633 -2.312420 -1.696917
3.647783 -2.476527 -1.702651
3.883782 -2.632002 -1.690000
4.176121 -2.825511 -1.687502
4.532670 -3.061433 -1.691879
4.994543 -3.365574 -1.713409
5.486195 -3.690887 -1.718707
6.122750 -4.110345 -1.736339
6.959268 -4.663275 -1.770874
8.308648 -5.554383 -1.874437
9.610817 -6.353491 -1.885487
11.380729 -7.510022 -1.910078
14.526687 -9.568680 -2.025892
20.074205 -13.198887 -2.236947
20.343691 -13.380142 -1.699449
20.349714 -13.394436 -1.134116
0.003051 -0.091362 -0.002100
20.388039 -13.435143 -0.000463
20.411194 -13.460707 0.565973
20.424847 -13.480033 1.138314
20.448141 -13.500639 1.709268
20.459591 -13.518572 2.282447
20.497530 -13.553931 2.867064
20.496815 -13.558788 3.446017
20.520208 -13.584634 4.034065
20.527788 -13.600121 4.629076
0.502770 -0.420778 -0.357080
2.769468 -1.917203 -1.864245
2.913496 -2.013050 -1.856278
3.092829 -2.133063 -1.861245
3.297647 -2.270111 -1.871458
3.309700 -2.278944 -1.767073
3.383733 -2.329663 -1.695379
3.629323 -2.494152 -1.700472
3.881629 -2.662374 -1.695475
4.169794 -2.855535 -1.691347
4.491641 -3.071381 -1.682950
4.954803 -3.380183 -1.706251
5.428334 -3.697514 -1.707068
6.031463 -4.099998 -1.716987
6.932861 -4.702987 -1.770885
8.281999 -5.605109 -1.875563
9.574654 -6.408421 -1.885505
11.336221 -7.574019 -1.909822
14.490182 -9.663869 -2.028471
20.069925 -13.361100 -2.244972
20.358458 -13.557216 -1.707158
20.372835 -13.577173 -1.139741
20.389633 -13.598748 -0.568280
20.431005 -13.631484 -0.000496
20.405624 -13.625150 0.567932
20.447390 -13.663326 1.143869
45.767574 -30.484362 3.843103
46.555702 -31.031681 5.216484
0.003036 -0.091158 -0.002095
0.003036 -0.091158 -0.002095
0.003036 -0.091158 -0.002095
0.003036 -0.091158 -0.002095
0.499451 -0.422480 -0.356057
2.758907 -1.932875 -1.864247
2.897982 -2.026598 -1.853464
3.086973 -2.154566 -1.864837
3.294079 -2.294843 -1.876595
3.313760 -2.308897 -1.776022
3.366188 -2.345777 -1.693069
3.630898 -2.525139 -1.707749
3.876138 -2.690709 -1.699583
4.141230 -2.870792 -1.686231
4.474442 -3.096928 -1.682956
4.908688 -3.390153 -1.696888
5.317626 -3.667939 -1.678719
5.987304 -4.120261 -1.711003
6.888365 -4.730526 -1.766324
8.251778 -5.653512 -1.875947
9.543074 -6.466435 -1.886494
11.307798 -7.648762 -1.912347
14.411761 -9.731339 -2.025254
20.052851 -13.515941 -2.251698
39.134434 -26.302910 -3.292578
75.915222 -50.979500 -4.258207
0.003021 -0.090950 -0.002090
20.347807 -13.745169 -0.000539
44.934269 -30.269356 1.257962
44.904984 -30.272938 2.524375
20.453180 -13.842442 1.722727
47.749897 -32.222527 5.370871
0.003021 -0.090950 -0.002090
0.003021 -0.090950 -0.002090
0.003021 -0.090950 -0.002090
0.003021 -0.090950 -0.002090
0.503231 -0.428976 -0.360133
2.751138 -1.950437 -1.866207
2.891196 -2.045975 -1.856283
3.072091 -2.170048 -1.863044
3.281346 -2.313523 -1.876598
3.312646 -2.336473 -1.782533
3.351643 -2.363831 -1.692302
3.604517 -2.537372 -1.701935
3.852900 -2.708116 -1.696168
4.142423 -2.906049 -1.693278
4.496533 -3.149239 -1.697852
4.906525 -3.430857 -1.702958
5.241005 -3.660096 -1.661003
5.874899 -4.095124 -1.685658
6.854298 -4.766613 -1.764673
8.226778 -5.707619 -1.877813
9.498078 -6.515447 -1.884892
11.277578 -7.725390 -1.914873
14.354445 -9.812703 -2.025051
20.061022 -13.688902 -2.261394
35.422184 -24.121267 -2.992421
35.440891 -24.143381 -1.996761
0.003007 -0.090746 -0.002085
20.170637 -13.800037 -0.000591
44.601254 -30.419065 1.253395
0.003007 -0.090746 -0.002085
0.003007 -0.090746 -0.002085
20.464407 -14.037209 2.309646
46.339657 -31.686077 6.559895
0.003007 -0.090746 -0.002085
0.003007 -0.090746 -0.002085
20.562763 -14.136676 4.690808
0.502607 -0.432705 -0.361149
2.748713 -1.972391 -1.872087
2.876618 -2.060848 -1.854407
3.061184 -2.188999 -1.863944
3.265112 -2.330654 -1.874889
3.310202 -2.362504 -1.788229
3.338113 -2.383421 -1.692305
3.589947 -2.558458 -1.701938
3.851700 -2.739595 -1.702328
4.139688 -2.939992 -1.699044
4.473602 -3.172349 -1.696071
4.884047 -3.456607 -1.701862
5.178334 -3.662287 -1.647844
5.824525 -4.109821 -1.677830
6.827286 -4.805723 -1.764684
8.189481 -5.751252 -1.876717
9.461476 -6.572492 -1.885234
11.231866 -7.788759 -1.914617
14.275280 -9.882740 -2.022066
20.196819 -13.956068 -2.285945
38.327465 -26.415247 -3.250516
38.363312 -26.459990 -2.170096
0.003022 -0.090536 -0.002081
0.003022 -0.090536 -0.002081
46.426476 -32.063908 1.309978
46.512016 -32.147263 2.635461
45.155521 -31.224407 3.836373
35.479015 -24.570852 4.021754
46.525986 -32.218330 6.613012
0.003022 -0.090536 -0.002081
0.003022 -0.090536 -0.002081
0.003022 -0.090536 -0.002081
0.485099 -0.424578 -0.349926
0.491519 -0.429297 -0.336112
2.863797 -2.076120 -1.853470
3.047597 -2.205317 -1.863050
3.249194 -2.347105 -1.873181
3.306080 -2.387532 -1.793112
3.329384 -2.405520 -1.694620
3.583344 -2.584158 -1.705579
3.827156 -2.755020 -1.698228
4.113903 -2.957020 -1.695208
4.430732 -3.180317 -1.686547
4.840958 -3.467902 -1.693601
5.152955 -3.688451 -1.646333
5.814095 -4.151933 -1.681527
6.795226 -4.841316 -1.763448
8.158395 -5.799147 -1.877101
9.425649 -6.627688 -1.885575
11.174381 -7.843955 -1.912412
14.207308 -9.956501 -2.020472
20.036631 -14.016047 -2.276890
38.804455 -27.072359 -3.304130
0.003008 -0.090332 -0.002076
0.003008 -0.090332 -0.002076
19.808130 -13.888868 -0.000689
0.003008 -0.090332 -0.002076
44.873657 -31.399904 2.552618
0.003008 -0.090332 -0.002076
44.977390 -31.508266 5.119401
20.485468 -14.409723 2.921932
0.003008 -0.090332 -0.002076
20.493286 -14.431603 4.108452
0.003008 -0.090332 -0.002076
0.485979 -0.429112 -0.351962
0.476720 -0.422874 -0.327292
2.859528 -2.097409 -1.858166
3.044139 -2.228754 -1.868436
3.237650 -2.366560 -1.874040
3.304749 -2.414696 -1.799622
3.316008 -2.424399 -1.694623
3.585665 -2.616309 -1.713583
3.828637 -2.788680 -1.705756
4.101983 -2.983682 -1.697133
4.442533 -3.226445 -1.697870
4.818324 -3.493234 -1.692506
5.125858 -3.713326 -1.644315
5.785861 -4.181700 -1.680153
6.761402 -4.875561 -1.761796
8.127052 -5.846870 -1.877486
9.395960 -6.687224 -1.887213
11.126374 -7.905574 -1.911877
14.135727 -10.027515 -2.018414
19.617477 -13.892431 -2.238312
19.645578 -13.917568 -1.680466
19.675373 -13.949026 -1.122925
0.002993 -0.090128 -0.002071
19.752972 -14.019602 -0.000728
43.830837 -31.024857 1.246395
44.125019 -31.256065 2.520057
44.750538 -31.710075 3.832402
46.013779 -32.627312 5.258535
46.328609 -32.874714 6.637905
0.002993 -0.090128 -0.002071
0.002993 -0.090128 -0.002071
0.002993 -0.090128 -0.002071
0.485411 -0.432672 -0.352978
0.480453 -0.429428 -0.331206
2.840744 -2.108471 -1.853474
3.024509 -2.240807 -1.863951
3.225968 -2.385959 -1.874898
3.294314 -2.435544 -1.801252
3.305534 -2.445341 -1.696168
3.569574 -2.635567 -1.712860
3.816114 -2.812600 -1.707128
4.092989 -3.012492 -1.700339
4.429078 -3.255037 -1.699662
4.787702 -3.512825 -1.688653
5.106496 -3.743638 -1.644828
5.784389 -4.230534 -1.686616
6.727400 -4.909570 -1.760144
8.101796 -5.898999 -1.879352
9.357890 -6.740902 -1.887230
11.092546 -7.977221 -1.913846
14.086446 -10.114153 -2.019602
19.699972 -14.120302 -2.256921
0.002978 -0.089920 -0.002066
28.897871 -20.695534 -1.655172
28.897823 -20.711029 -0.824329
19.701870 -14.153628 -0.000768
44.301373 -31.739912 1.264862
44.606529 -31.981955 2.557920
44.402462 -31.848238 3.818061
46.122272 -33.103222 5.292450
0.002978 -0.089920 -0.002066
0.002978 -0.089920 -0.002066
0.002978 -0.089920 -0.002066
0.002978 -0.089920 -0.002066
0.480636 -0.433226 -0.350935
0.486992 -0.438070 -0.337081
2.833380 -2.127640 -1.856292
3.012085 -2.257936 -1.863954
3.214180 -2.405301 -1.875757
3.301498 -2.469191 -1.812642
3.296433 -2.467320 -1.698483
3.544297 -2.648188 -1.707772
3.785148 -2.823267 -1.700292
4.085326 -3.042416 -1.704185
4.413873 -3.282469 -1.700859
4.777277 -3.546839 -1.691967
5.096366 -3.780660 -1.648380
5.747863 -4.254364 -1.682936
6.702754 -4.950242 -1.760987
8.065064 -5.942955 -1.878625
9.317864 -6.793225 -1.886923
11.046996 -8.040647 -1.913867
14.035013 -10.199403 -2.020557
22.694460 -16.450594 -2.610497
0.002993 -0.089710 -0.002062
0.002993 -0.089710 -0.002062
0.002993 -0.089710 -0.002062
0.002993 -0.089710 -0.002062
0.002993 -0.089710 -0.002062
44.665199 -32.413380 2.571811
44.506790 -32.311058 3.842813
0.002993 -0.089710 -0.002062
0.002993 -0.089710 -0.002062
0.002993 -0.089710 -0.002062
0.002993 -0.089710 -0.002062
0.002993 -0.089710 -0.002062
0.478640 -0.435761 -0.350931
0.499080 -0.450904 -0.346873
2.817318 -2.140556 -1.853478
2.993773 -2.270785 -1.860367
3.199340 -2.422453 -1.874904
3.296194 -2.494949 -1.817526
3.299069 -2.497989 -1.706964
3.546038 -2.680402 -1.715776
3.788601 -2.859846 -1.709188
4.052968 -3.054445 -1.697788
4.390817 -3.304185 -1.699078
4.758249 -3.575993 -1.692525
5.076596 -3.810824 -1.648893
5.732497 -4.295026 -1.685712
6.673837 -4.989640 -1.760999
8.042892 -5.999723 -1.881601
9.283960 -6.849947 -1.887913
11.012500 -8.115061 -1.916115
13.960581 -10.268006 -2.018266
22.698105 -16.652197 -2.621872
22.619200 -16.606958 -1.958998
22.719379 -16.686447 -1.312626
0.002979 -0.089506 -0.002057
0.002979 -0.089506 -0.002057
44.918667 -32.967216 1.293042
44.535011 -32.710762 2.574976
44.448666 -32.671848 3.854299
0.002979 -0.089506 -0.002057
0.002979 -0.089506 -0.002057
0.002979 -0.089506 -0.002057
0.002979 -0.089506 -0.002057
0.002979 -0.089506 -0.002057
0.482118 -0.442445 -0.355008
0.494108 -0.451562 -0.344910
2.805112 -2.156983 -1.853480
2.976482 -2.285071 -1.857677
3.183978 -2.440070 -1.874051
3.295512 -2.523413 -1.824849
3.292157 -2.522754 -1.710821
3.526122 -2.697813 -1.713598
3.766549 -2.876887 -1.706456
4.036854 -3.079305 -1.698433
4.364032 -3.324226 -1.696105
4.735023 -3.600778 -1.691429
5.052906 -3.839455 -1.648395
5.709765 -4.328854 -1.686181
6.650229 -5.031212 -1.762256
8.002465 -6.040952 -1.880135
9.240532 -6.902270 -1.887281
10.970937 -8.181551 -1.916971
13.876046 -10.332612 -2.014817
23.329889 -17.325792 -2.706595
0.002965 -0.089302 -0.002052
0.002965 -0.089302 -0.002052
0.002965 -0.089302 -0.002052
62.958660 -46.712650 0.001701
62.118618 -46.124805 1.796674
44.539936 -33.121384 2.586438
44.566628 -33.153721 3.880864
0.002965 -0.089302 -0.002052
0.002965 -0.089302 -0.002052
0.002965 -0.089302 -0.002052
0.002965 -0.089302 -0.002052
0.002965 -0.089302 -0.002052
0.481429 -0.446025 -0.356024
0.496210 -0.457304 -0.347846
2.793158 -2.172857 -1.853481
2.962368 -2.300854 -1.856783
3.167524 -2.455945 -1.872343
3.293149 -2.550855 -1.831359
3.288428 -2.549168 -1.716219
3.506600 -2.714467 -1.711420
3.765505 -2.909542 -1.713300
4.031702 -3.111341 -1.703559
4.343799 -3.347899 -1.695515
4.705518 -3.620796 -1.688128
5.035898 -3.871707 -1.649921
5.682181 -4.359050 -1.685268
6.604506 -5.056205 -1.757694
7.971251 -6.089004 -1.880890
9.205947 -6.958603 -1.888271
10.941667 -8.257310 -1.920052
13.815330 -10.410811 -2.014613
23.188940 -17.428411 -2.701818
0.002950 -0.089098 -0.002047
0.002950 -0.089098 -0.002047
0.002950 -0.089098 -0.002047
62.753559 -47.121635 0.001562
0.002950 -0.089098 -0.002047
44.902115 -33.791679 2.618606
0.002950 -0.089098 -0.002047
0.002950 -0.089098 -0.002047
0.002950 -0.089098 -0.002047
0.002950 -0.089098 -0.002047
0.002950 -0.089098 -0.002047
0.002950 -0.089098 -0.002047
0.478002 -0.447524 -0.355001
0.502407 -0.466237 -0.353719
2.782532 -2.189722 -1.854422
2.955292 -2.321937 -1.860374
3.159602 -2.478259 -1.875767
3.287677 -2.576142 -1.836242
3.280125 -2.572263 -1.719306
3.500349 -2.741113 -1.715788
3.738744 -2.922970 -1.708517
4.035372 -3.150289 -1.712525
4.331087 -3.377211 -1.697904
4.686655 -3.648730 -1.688685
5.006347 -3.894521 -1.647396
5.662150 -4.394967 -1.686659
6.586728 -5.102168 -1.760615
7.935030 -6.133326 -1.880533
9.169436 -7.013577 -1.888936
10.886603 -8.313895 -1.918682
13.728816 -10.469479 -2.010700
23.018978 -17.508356 -2.693696
0.002966 -0.088887 -0.002043
0.002966 -0.088887 -0.002043
0.002966 -0.088887 -0.002043
0.002966 -0.088887 -0.002043
0.002966 -0.088887 -0.002043
0.002966 -0.088887 -0.002043
0.002966 -0.088887 -0.002043
0.002966 -0.088887 -0.002043
0.002966 -0.088887 -0.002043
0.002966 -0.088887 -0.002043
0.002966 -0.088887 -0.002043
0.002966 -0.088887 -0.002043
0.478649 -0.452133 -0.357037
0.498845 -0.467836 -0.352736
2.770422 -2.205455 -1.854424
2.940960 -2.337585 -1.859478
3.144371 -2.495065 -1.874915
3.282021 -2.601446 -1.841126
3.276031 -2.598719 -1.724704
3.504223 -2.775722 -1.725247
3.722361 -2.944199 -1.708521
4.020705 -3.175523 -1.713810
4.302995 -3.394857 -1.694334
4.655435 -3.667190 -1.684833
4.988978 -3.926558 -1.648922
5.635754 -4.426038 -1.686207
6.557775 -5.139735 -1.760626
7.903267 -6.181022 -1.881288
9.129479 -7.065955 -1.888953
10.832848 -8.371313 -1.917590
13.642063 -10.527497 -2.006785
23.718386 -18.252892 -2.787709
0.002951 -0.088680 -0.002038
0.002951 -0.088680 -0.002038
0.002951 -0.088680 -0.002038
0.002951 -0.088680 -0.002038
0.002951 -0.088680 -0.002038
0.002951 -0.088680 -0.002038
0.002951 -0.088680 -0.002038
0.002951 -0.088680 -0.002038
0.002951 -0.088680 -0.002038
0.002951 -0.088680 -0.002038
0.002951 -0.088680 -0.002038
0.002951 -0.088680 -0.002038
0.477898 -0.455711 -0.358053
0.496653 -0.470473 -0.352733
2.756792 -2.220047 -1.853487
2.929405 -2.355324 -1.860378
3.136183 -2.517310 -1.878340
3.282924 -2.632946 -1.850076
3.274641 -2.627478 -1.731644
3.490186 -2.796743 -1.725978
3.721706 -2.978657 -1.716049
4.011861 -3.205342 -1.717656
4.283926 -3.419315 -1.694340
4.635660 -3.695664 -1.685391
4.974451 -3.960900 -1.651461
5.611496 -4.460319 -1.686677
6.526182 -5.177069 -1.760221
7.870118 -6.229933 -1.882042
9.096988 -7.124152 -1.890590
10.772601 -8.426636 -1.915663
13.528396 -10.564186 -1.998928
23.600933 -18.378990 -2.786274
0.002936 -0.088476 -0.002033
0.002936 -0.088476 -0.002033
0.002936 -0.088476 -0.002033
0.002936 -0.088476 -0.002033
0.002936 -0.088476 -0.002033
0.002936 -0.088476 -0.002033
0.002936 -0.088476 -0.002033
0.002936 -0.088476 -0.002033
0.002936 -0.088476 -0.002033
0.002936 -0.088476 -0.002033
0.002936 -0.088476 -0.002033
0.002936 -0.088476 -0.002033
0.464894 -0.449823 -0.349889
0.501242 -0.478561 -0.357627
2.746864 -2.238299 -1.855366
2.910273 -2.368005 -1.856791
3.122151 -2.535080 -1.878342
3.282608 -2.662835 -1.858213
3.266804 -2.652306 -1.735501
3.471620 -2.814240 -1.724526
3.691698 -2.989335 -1.709897
3.980446 -3.217593 -1.711899
4.251176 -3.433043 -1.688984
4.614831 -3.722036 -1.685397
4.947528 -3.985623 -1.649949
5.586261 -4.492287 -1.686686
6.508466 -5.221632 -1.763142
7.831108 -6.269838 -1.880945
9.052035 -7.175261 -1.889959
10.735396 -8.496760 -1.917632
13.433282 -10.618179 -1.994087
23.465517 -18.497366 -2.783170
0.002922 -0.088272 -0.002028
47.286999 -37.229156 -2.803653
0.002922 -0.088272 -0.002028
0.002922 -0.088272 -0.002028
0.002922 -0.088272 -0.002028
0.002922 -0.088272 -0.002028
0.002922 -0.088272 -0.002028
0.002922 -0.088272 -0.002028
0.002922 -0.088272 -0.002028
0.002922 -0.088272 -0.002028
0.002922 -0.088272 -0.002028
0.002922 -0.088272 -0.002028
0.466892 -0.455393 -0.352945
0.494926 -0.477881 -0.354684
2.736235 -2.254449 -1.856307
2.903108 -2.388416 -1.860382
3.102378 -2.548266 -1.874923
3.280632 -2.691666 -1.865537
3.266894 -2.681734 -1.743211
3.451498 -2.830453 -1.722347
3.698492 -3.029008 -1.720844
3.992046 -3.263803 -1.724708
4.233359 -3.458395 -1.689585
4.596866 -3.750680 -1.686506
4.926546 -4.014987 -1.650462
5.565379 -4.527756 -1.688077
6.493203 -5.272086 -1.767310
7.798950 -6.319579 -1.882070
9.018559 -7.230297 -1.891272
10.666665 -8.542132 -1.914034
13.394570 -10.708735 -1.997127
23.339115 -18.609108 -2.780433
0.002937 -0.088061 -0.002024
47.227791 -37.610058 -2.812600
0.002937 -0.088061 -0.002024
0.002937 -0.088061 -0.002024
0.002937 -0.088061 -0.002024
0.002937 -0.088061 -0.002024
0.002937 -0.088061 -0.002024
0.002937 -0.088061 -0.002024
0.002937 -0.088061 -0.002024
0.002937 -0.088061 -0.002024
0.002937 -0.088061 -0.002024
0.002937 -0.088061 -0.002024
0.474099 -0.465461 -0.360083
0.493973 -0.481673 -0.355661
2.728839 -2.274820 -1.860064
2.885251 -2.401987 -1.857693
3.093371 -2.570909 -1.878348
3.281248 -2.722859 -1.874487
3.267283 -2.713544 -1.751693
3.445363 -2.858799 -1.727444
3.663946 -3.035857 -1.712641
3.965773 -3.281227 -1.721512
4.247478 -3.510760 -1.703291
4.580205 -3.780449 -1.688166
4.909208 -4.048742 -1.652495
5.532191 -4.553344 -1.685780
6.458728 -5.305420 -1.766074
7.764506 -6.365333 -1.882454
8.979144 -7.285849 -1.891937
10.617873 -8.603100 -1.914055
13.305079 -10.766535 -1.993213
23.202562 -18.725628 -2.777327
0.002923 -0.087857 -0.002019
0.002923 -0.087857 -0.002019
0.002923 -0.087857 -0.002019
0.002923 -0.087857 -0.002019
0.002923 -0.087857 -0.002019
0.002923 -0.087857 -0.002019
0.002923 -0.087857 -0.002019
0.002923 -0.087857 -0.002019
0.002923 -0.087857 -0.002019
0.002923 -0.087857 -0.002019
0.002923 -0.087857 -0.002019
0.002923 -0.087857 -0.002019
0.463883 -0.461459 -0.353958
0.478161 -0.473294 -0.345861
2.710734 -2.285794 -1.856311
2.876040 -2.421699 -1.860387
3.074817 -2.585008 -1.875783
3.273115 -2.747222 -1.878557
3.267847 -2.744879 -1.760174
3.419229 -2.870110 -1.722355
3.651287 -3.060217 -1.714697
3.954679 -3.309741 -1.724717
4.244004 -3.548175 -1.709849
4.558897 -3.806498 -1.688172
4.887837 -4.077905 -1.653009
5.503410 -4.582389 -1.684866
6.430128 -5.343483 -1.766500
7.731322 -6.412138 -1.883208
8.939150 -7.338371 -1.892278
10.584117 -8.676264 -1.916858
13.226488 -10.828858 -1.990689
23.184652 -18.931353 -2.788149
0.002908 -0.087653 -0.002014
0.002908 -0.087653 -0.002014
0.002908 -0.087653 -0.002014
0.002908 -0.087653 -0.002014
0.002908 -0.087653 -0.002014
0.002908 -0.087653 -0.002014
0.002908 -0.087653 -0.002014
0.002908 -0.087653 -0.002014
0.002908 -0.087653 -0.002014
0.002908 -0.087653 -0.002014
0.002908 -0.087653 -0.002014
0.002908 -0.087653 -0.002014
0.457753 -0.460615 -0.350895
0.481325 -0.480234 -0.349776
2.706209 -2.307846 -1.861945
2.861186 -2.436831 -1.859491
3.060392 -2.602420 -1.875786
3.267188 -2.774462 -1.884255
3.265339 -2.773952 -1.767115
3.398864 -2.885940 -1.720176
3.651020 -3.095909 -1.722908
3.944837 -3.339433 -1.728562
4.215195 -3.564997 -1.706280
4.542701 -3.838110 -1.690383
4.866313 -4.106943 -1.653522
5.473675 -4.612204 -1.683953
6.409407 -5.389989 -1.769421
7.695217 -6.458853 -1.883592
8.898825 -7.390673 -1.892618
0.002893 -0.087446 -0.002009
13.132260 -10.878014 -1.985845
23.418863 -19.346201 -2.829614
0.002893 -0.087446 -0.002009
27.147583 -22.437412 -1.640645
26.314600 -21.767296 -0.792480
26.037739 -21.554741 -0.000960
0.002893 -0.087446 -0.002009
26.987049 -22.361885 1.630798
26.096621 -21.642508 2.365732
0.002893 -0.087446 -0.002009
0.002893 -0.087446 -0.002009
0.002893 -0.087446 -0.002009
0.002893 -0.087446 -0.002009
0.002893 -0.087446 -0.002009
0.458166 -0.465297 -0.352931
0.480298 -0.483976 -0.350752
2.697090 -2.326998 -1.864764
2.847193 -2.453520 -1.859493
3.047255 -2.620910 -1.876644
3.260082 -2.799997 -1.889138
3.259286 -2.801296 -1.772514
3.384139 -2.906404 -1.720907
3.624981 -3.109408 -1.718808
3.914415 -3.352126 -1.723445
4.168742 -3.566923 -1.695563
4.532849 -3.873807 -1.694798
4.850528 -4.140839 -1.656061
5.456516 -4.650870 -1.686727
6.379724 -5.425420 -1.769431
7.664085 -6.505220 -1.884715
8.853866 -7.441781 -1.892311
10.441990 -8.764600 -1.909385
13.037565 -10.929988 -1.981235
23.301306 -19.481827 -2.829295
26.823685 -22.422274 -2.441613
26.921076 -22.519609 -1.635026
25.911530 -21.686277 -0.784145
26.389957 -22.101048 -0.000998
0.002909 -0.087235 -0.002005
25.564365 -21.435596 1.552056
26.203407 -21.985180 2.386751
26.560799 -22.292065 3.228665
0.002909 -0.087235 -0.002005
0.002909 -0.087235 -0.002005
0.002909 -0.087235 -0.002005
0.002909 -0.087235 -0.002005
0.456029 -0.467625 -0.352927
0.470076 -0.479690 -0.344870
2.691290 -2.347463 -1.869460
2.838057 -2.472586 -1.862187
3.028498 -2.634667 -1.874080
3.249106 -2.821434 -1.891581
3.258208 -2.831096 -1.780224
3.366449 -2.924389 -1.720183
3.625288 -3.143895 -1.727019
3.914408 -3.390245 -1.731773
4.180740 -3.617722 -1.708674
4.511677 -3.898793 -1.694804
4.824179 -4.165937 -1.655055
5.423532 -4.674715 -1.684429
6.360866 -5.471903 -1.772767
7.622546 -6.545146 -1.883618
8.765870 -7.451445 -1.882276
10.399503 -8.827556 -1.910517
12.957118 -10.985663 -1.978245
23.214125 -19.629168 -2.831944
0.002894 -0.087031 -0.002000
0.002894 -0.087031 -0.002000
25.779278 -21.828236 -0.783971
26.199545 -22.190866 -0.001057
26.173906 -22.185190 0.794187
24.868933 -21.098475 1.517043
0.002894 -0.087031 -0.002000
26.835579 -22.785007 3.277854
0.002894 -0.087031 -0.002000
0.002894 -0.087031 -0.002000
0.002894 -0.087031 -0.002000
0.002894 -0.087031 -0.002000
0.448583 -0.465563 -0.348843
0.473126 -0.486679 -0.348786
2.687664 -2.370680 -1.876034
2.824297 -2.488637 -1.862190
3.019280 -2.656505 -1.877504
3.228656 -2.836857 -1.889144
3.254988 -2.860343 -1.787164
3.342957 -2.937433 -1.716548
3.605697 -3.163869 -1.726340
3.902534 -3.418628 -1.734978
4.150205 -3.632792 -1.704509
4.490445 -3.926485 -1.695361
4.810905 -4.202196 -1.658606
5.388853 -4.700212 -1.682132
6.336285 -5.515629 -1.774857
0.002880 -0.086827 -0.001995
8.717359 -7.496389 -1.880996
10.347518 -8.888790 -1.910538
12.892719 -11.058472 -1.978039
23.151373 -19.804712 -2.838123
0.002880 -0.086827 -0.001995
0.002880 -0.086827 -0.001995
25.533674 -21.873346 -0.780363
24.913778 -21.359686 -0.001155
26.046408 -22.335100 0.794130
24.790228 -21.277245 1.519599
25.563263 -21.953884 2.351048
25.721909 -22.105471 3.157558
25.380171 -21.820885 3.906158
0.002880 -0.086827 -0.001995
0.002880 -0.086827 -0.001995
0.002880 -0.086827 -0.001995
0.446342 -0.467985 -0.348840
0.462788 -0.482435 -0.342904
0.479291 -0.496793 -0.336239
2.808636 -2.503941 -1.861294
3.004440 -2.673599 -1.877507
3.212772 -2.855155 -1.889147
3.249681 -2.888994 -1.793334
3.327915 -2.957600 -1.717279
3.596464 -3.191700 -1.730448
3.874700 -3.433354 -1.731141
4.129720 -3.656376 -1.704513
4.478455 -3.960826 -1.699226
4.784246 -4.227027 -1.657600
0.002865 -0.086623 -0.001991
6.313285 -5.557059 -1.776946
7.532907 -6.619045 -1.879942
8.679285 -7.552825 -1.882309
10.320752 -8.968588 -1.915010
12.825984 -11.133137 -1.977834
22.990417 -19.903587 -2.832788
0.002865 -0.086623 -0.001991
0.002865 -0.086623 -0.001991
26.372055 -22.851891 -0.809959
24.810713 -21.519358 -0.001208
26.322540 -22.841869 0.806618
25.107693 -21.799524 1.546670
24.452047 -21.247675 2.259859
25.028198 -21.754293 3.087074
24.874969 -21.637125 3.847318
0.002865 -0.086623 -0.001991
0.002865 -0.086623 -0.001991
0.002865 -0.086623 -0.001991
0.449373 -0.474765 -0.352916
0.460563 -0.484786 -0.342900
0.488977 -0.509671 -0.344685
2.793765 -2.518161 -1.860398
2.989518 -2.690606 -1.877509
3.195425 -2.872155 -1.888336
3.249277 -2.920198 -1.801815
3.307155 -2.972783 -1.715100
3.603995 -3.234372 -1.742763
3.869661 -3.467824 -1.737548
4.116311 -3.686123 -1.707497
4.469133 -3.997683 -1.704193
4.766179 -4.259344 -1.659633
5.333988 -4.760140 -1.681688
6.289598 -5.601877 -1.779451
7.505882 -6.673708 -1.882918
8.631559 -7.595695 -1.881027
10.269510 -9.027558 -1.915030
12.743217 -11.185981 -1.974611
22.800020 -19.961872 -2.822993
0.002880 -0.086409 -0.001986
0.002880 -0.086409 -0.001986
0.002880 -0.086409 -0.001986
25.417408 -22.299793 -0.001241
26.484257 -23.240742 0.815484
24.021673 -21.102655 1.487054
23.690533 -20.827795 2.200355
24.724157 -21.748419 3.065276
24.922434 -21.930161 3.873984
0.002880 -0.086409 -0.001986
0.002880 -0.086409 -0.001986
0.002880 -0.086409 -0.001986
0.447072 -0.477197 -0.352913
0.455579 -0.484978 -0.340937
0.497080 -0.521674 -0.352194
2.781988 -2.536809 -1.862195
2.972661 -2.706853 -1.876656
3.182071 -2.892678 -1.889966
3.244875 -2.950171 -1.808756
3.292773 -2.994567 -1.716558
3.595702 -3.263529 -1.747555
3.842431 -3.484192 -1.734351
4.123487 -3.735539 -1.719417
4.452314 -4.028192 -1.706404
4.744254 -4.289851 -1.660653
5.305549 -4.789220 -1.681234
6.263611 -5.642923 -1.781124
7.464932 -6.713922 -1.882190
8.601734 -7.659515 -1.884286
10.214937 -9.083618 -1.914493
12.669771 -11.254490 -1.973478
22.662426 -20.079252 -2.820628
0.002866 -0.086205 -0.001981
0.002866 -0.086205 -0.001981
0.002866 -0.086205 -0.001981
24.610544 -21.845201 -0.001315
24.364044 -21.642714 0.753909
23.772591 -21.134453 1.479264
23.663454 -21.045471 2.208956
24.424843 -21.735451 3.043481
24.550369 -21.862329 3.836056
25.295296 -22.531389 4.751171
0.002866 -0.086205 -0.001981
0.002866 -0.086205 -0.001981
0.440948 -0.476106 -0.349848
0.454572 -0.488528 -0.341913
0.494543 -0.524307 -0.352190
2.767843 -2.552539 -1.862197
2.961581 -2.727288 -1.879225
3.165875 -2.910702 -1.889968
3.246244 -2.984540 -1.818779
3.277360 -3.014473 -1.717288
3.570354 -3.277663 -1.744139
3.842597 -3.523696 -1.743318
4.133723 -3.786990 -1.732528
4.441027 -4.063766 -1.710820
4.722869 -4.319420 -1.661672
0.002851 -0.086001 -0.001976
6.238821 -5.685160 -1.783213
7.429638 -6.759132 -1.882944
8.558041 -7.708624 -1.884301
10.164505 -9.143295 -1.914791
12.554944 -11.281968 -1.965618
21.902334 -19.633488 -2.740063
0.002851 -0.086001 -0.001976
0.002851 -0.086001 -0.001976
0.002851 -0.086001 -0.001976
27.048910 -24.279608 -0.001304
26.519030 -23.822615 0.824937
23.703245 -21.317226 1.482475
23.658459 -21.284819 2.219789
23.872980 -21.492414 2.989912
24.269493 -21.863605 3.811608
25.027294 -22.551872 4.724948
25.220160 -22.741230 5.568118
0.002851 -0.086001 -0.001976
0.437413 -0.477261 -0.348825
0.449652 -0.488580 -0.339950
0.493310 -0.528104 -0.353125
2.753587 -2.568193 -1.862199
2.945004 -2.742835 -1.878372
3.146358 -2.926735 -1.888344
3.237707 -3.010364 -1.823407
3.257692 -3.030546 -1.715836
3.538835 -3.287183 -1.737987
3.812930 -3.536607 -1.738841
4.099634 -3.798933 -1.727171
4.418771 -4.091081 -1.711377
4.701304 -4.348883 -1.662691
5.420273 -5.004761 -1.735659
6.214224 -5.729690 -1.785719
7.403029 -6.814711 -1.886289
8.516995 -7.760122 -1.884965
10.112123 -9.204459 -1.915089
12.400379 -11.272571 -1.951496
21.683168 -19.662781 -2.726737
0.002837 -0.085797 -0.001971
0.002837 -0.085797 -0.001971
0.002837 -0.085797 -0.001971
26.839849 -24.380150 -0.001367
26.187958 -23.798658 0.818793
26.640720 -24.225962 1.675068
23.559040 -21.448513 2.222248
23.592388 -21.494064 2.970533
24.364510 -22.202854 3.846405
25.543165 -23.289505 4.848212
3.857888 -3.590670 0.854108
3.873384 -3.606033 0.983862
0.441450 -0.485416 -0.353922
0.444675 -0.488660 -0.337987
0.495903 -0.535552 -0.356877
2.738824 -2.584238 -1.862201
2.935001 -2.764379 -1.881796
3.132669 -2.947021 -1.889974
3.235303 -3.042971 -1.831889
3.250344 -3.057806 -1.720932
3.530059 -3.316139 -1.742778
3.806978 -3.571052 -1.745248
4.083820 -3.827385 -1.729559
4.407000 -4.126593 -1.715793
4.682408 -4.380853 -1.664724
5.464979 -5.102766 -1.759182
6.194171 -5.774613 -1.789055
7.371180 -6.860979 -1.887783
8.478642 -7.816875 -1.886602
10.056583 -9.259559 -1.914551
12.344136 -11.354992 -1.953145
21.466805 -19.699331 -2.714153
31.783993 -29.137735 -3.012280
31.775377 -29.150620 -2.009435
0.002852 -0.085587 -0.001967
26.586124 -24.429848 -0.001428
0.002852 -0.085587 -0.001967
26.588367 -24.458172 1.680508
23.284380 -21.444479 2.207824
23.531355 -21.678904 2.977916
24.277889 -22.379986 3.852857
24.505224 -22.604855 4.675564
3.806323 -3.582515 0.846971
3.824139 -3.601411 0.976451
0.434139 -0.482983 -0.349837
0.443704 -0.492093 -0.338963
0.493375 -0.538089 -0.356874
2.726147 -2.600460 -1.863099
2.920872 -2.782214 -1.882655
3.117485 -2.966005 -1.890790
3.241791 -3.082046 -1.844996
3.255052 -3.096477 -1.732574
3.493505 -3.319553 -1.733890
3.761852 -3.569475 -1.733728
4.062246 -3.850577 -1.729564
4.393541 -4.160799 -1.719657
4.756864 -4.499640 -1.700183
5.446036 -5.143148 -1.762418
6.166080 -5.816316 -1.790728
7.333780 -6.906981 -1.888537
8.438300 -7.866479 -1.887265
10.003685 -9.317000 -1.914571
12.263603 -11.407241 -1.950386
21.259134 -19.727934 -2.701752
0.002838 -0.085383 -0.001962
0.002838 -0.085383 -0.001962
23.288300 -21.641655 -0.738251
25.401075 -23.614344 -0.001505
25.954576 -24.135853 0.819979
23.241236 -21.636663 1.476450
23.150969 -21.568281 2.206796
23.626249 -22.025051 3.006293
23.786949 -22.182316 3.794954
3.893044 -3.702208 0.744629
3.784106 -3.603434 0.846641
3.777973 -3.599013 0.969780
0.434273 -0.487676 -0.351874
0.443828 -0.496872 -0.340919
0.493260 -0.543191 -0.358748
2.713797 -2.618783 -1.864896
2.904830 -2.799249 -1.882657
3.101715 -2.985441 -1.891607
3.230698 -3.107281 -1.848853
3.245298 -3.123126 -1.736942
3.496183 -3.360542 -1.744838
3.703836 -3.556474 -1.716447
4.055152 -3.888730 -1.736122
4.374923 -4.191796 -1.721868
4.761635 -4.556668 -1.711333
5.435799 -5.193767 -1.768882
0.002824 -0.085179 -0.001957
0.002824 -0.085179 -0.001957
3.820177 -3.648487 -0.859837
9.948795 -9.375883 -1.914590
12.171642 -11.456411 -1.946468
21.060925 -19.777143 -2.691397
0.002824 -0.085179 -0.001957
0.002824 -0.085179 -0.001957
58.231815 -54.634186 -1.853493
24.845400 -23.374350 -0.001569
26.255013 -24.704769 0.834040
26.061644 -24.540878 1.665013
25.619228 -24.142841 2.455815
3.827897 -3.680040 0.487826
0.002824 -0.085179 -0.001957
3.831150 -3.686987 0.736830
3.755989 -3.618808 0.845016
3.754219 -3.618418 0.969035
0.438219 -0.495843 -0.356971
0.445249 -0.502786 -0.343854
0.494476 -0.549432 -0.361561
2.696580 -2.631667 -1.863103
2.882595 -2.809470 -1.878381
3.085483 -3.002467 -1.891610
3.232025 -3.143348 -1.859648
3.241290 -3.154329 -1.744220
3.476506 -3.378464 -1.744157
3.708540 -3.600966 -1.727975
3.748008 -3.640949 -1.613407
0.002839 -0.084968 -0.001953
0.002839 -0.084968 -0.001953
0.002839 -0.084968 -0.001953
0.002839 -0.084968 -0.001953
3.756229 -3.658995 -0.978398
0.002839 -0.084968 -0.001953
0.002839 -0.084968 -0.001953
12.110358 -11.530084 -1.947188
3.807507 -3.684048 -0.490512
0.002839 -0.084968 -0.001953
0.002839 -0.084968 -0.001953
0.002839 -0.084968 -0.001953
0.002839 -0.084968 -0.001953
3.810560 -3.697283 0.119954
3.798930 -3.688807 0.242194
0.002839 -0.084968 -0.001953
0.002839 -0.084968 -0.001953
3.817296 -3.712746 0.613695
3.783743 -3.682132 0.731537
3.733379 -3.636749 0.844363
3.728158 -3.634299 0.967549
0.430871 -0.493380 -0.352887
0.436517 -0.499098 -0.338952
0.489237 -0.549607 -0.359680
2.680597 -2.645670 -1.862208
2.864269 -2.823276 -1.876672
3.068632 -3.019941 -1.891612
3.229032 -3.175703 -1.868130
3.233000 -3.181715 -1.749315
3.431737 -3.373457 -1.731164
3.680043 -3.614137 -1.724138
3.716472 -3.651638 -1.608645
3.727857 -3.663868 -1.483184
3.722439 -3.661246 -1.352752
3.715489 -3.655860 -1.222490
3.709680 -3.652800 -1.095526
3.727097 -3.672133 -0.976180
0.002825 -0.084765 -0.001948
3.752995 -3.668263 -0.730893
0.002825 -0.084765 -0.001948
0.002825 -0.084765 -0.001948
3.774516 -3.695276 -0.367011
0.002825 -0.084765 -0.001948
0.002825 -0.084765 -0.001948
0.002825 -0.084765 -0.001948
0.002825 -0.084765 -0.001948
3.773801 -3.706221 0.241910
0.002825 -0.084765 -0.001948
0.002825 -0.084765 -0.001948
3.803520 -3.741301 0.614852
3.778690 -3.718713 0.734595
3.725693 -3.670253 0.847277
3.717584 -3.665002 0.970138
0.426004 -0.493247 -0.350843
0.439158 -0.506217 -0.342868
0.486532 -0.552191 -0.359676
2.672249 -2.667030 -1.866696
2.849773 -2.840732 -1.877530
3.043324 -3.030212 -1.886734
3.224437 -3.206841 -1.875841
3.232498 -3.216895 -1.758775
3.425670 -3.406594 -1.738008
3.661048 -3.636333 -1.724782
3.701357 -3.678048 -1.611032
3.705182 -3.684330 -1.482637
3.708742 -3.689112 -1.355289
3.709623 -3.692512 -1.227567
3.705291 -3.690870 -1.100520
3.733921 -3.721364 -0.983591
3.726906 -3.683010 -0.852717
3.737390 -3.695716 -0.732011
0.002810 -0.084561 -0.001943
0.002810 -0.084561 -0.001943
3.786004 -3.749280 -0.370223
0.002810 -0.084561 -0.001943
0.002810 -0.084561 -0.001943
3.767572 -3.737933 -0.001911
0.002810 -0.084561 -0.001943
0.002810 -0.084561 -0.001943
3.769433 -3.746295 0.365426
0.002810 -0.084561 -0.001943
24.360403 -23.789326 3.972931
0.002810 -0.084561 -0.001943
3.702957 -3.690667 0.846948
3.705380 -3.694327 0.972355
0.426044 -0.497941 -0.352879
0.432894 -0.504935 -0.339925
0.476169 -0.547437 -0.354039
2.655615 -2.681339 -1.865801
2.833385 -2.857340 -1.877532
3.019783 -3.041047 -1.882669
3.223021 -3.242459 -1.885865
3.231172 -3.252726 -1.768235
3.406503 -3.426014 -1.738012
3.660200 -3.677657 -1.734390
3.690902 -3.710394 -1.615802
3.703616 -3.724223 -1.490359
3.717663 -3.740653 -1.366436
3.705425 -3.729949 -1.233104
0.002796 -0.084357 -0.001939
0.002796 -0.084357 -0.001939
0.002796 -0.084357 -0.001939
3.729284 -3.729391 -0.734520
0.002796 -0.084357 -0.001939
0.002796 -0.084357 -0.001939
0.002796 -0.084357 -0.001939
42.315777 -41.575943 -2.765271
0.002796 -0.084357 -0.001939
0.002796 -0.084357 -0.001939
24.148399 -23.803577 0.784035
24.168669 -23.840416 1.578503
0.002796 -0.084357 -0.001939
22.655434 -22.376778 2.963304
22.971218 -22.703634 3.767979
23.478445 -23.211567 4.629595
3.697622 -3.726916 0.850511
3.704903 -3.736701 0.977906
0.424884 -0.501368 -0.353896
0.440380 -0.517007 -0.347758
0.467210 -0.543734 -0.349341
2.648236 -2.703892 -1.871186
2.814799 -2.870821 -1.875822
3.015696 -3.071002 -1.890806
3.215274 -3.271116 -1.892035
3.227432 -3.285470 -1.776240
3.376541 -3.434730 -1.732543
3.654243 -3.713113 -1.741436
0.002811 -0.084146 -0.001934
0.002811 -0.084146 -0.001934
0.002811 -0.084146 -0.001934
0.002811 -0.084146 -0.001934
0.002811 -0.084146 -0.001934
0.002811 -0.084146 -0.001934
8.261633 -8.252947 -1.910377
9.678967 -9.658299 -1.914962
11.827769 -11.792751 -1.944965
20.079451 -19.977392 -2.638677
23.955301 -23.826462 -2.360158
23.966490 -23.854471 -1.575888
0.002811 -0.084146 -0.001934
0.002811 -0.084146 -0.001934
22.624525 -22.563456 0.738576
24.091196 -24.037931 1.582363
24.119352 -24.074638 2.376848
19.801685 -19.793581 2.604496
22.911152 -22.905218 3.779544
23.228649 -23.229929 4.606441
3.701764 -3.772979 0.856343
0.002811 -0.084146 -0.001934
0.421250 -0.502366 -0.352872
0.432928 -0.514378 -0.343836
0.464570 -0.546187 -0.349337
2.633135 -2.718847 -1.871188
2.802566 -2.890575 -1.878392
2.999746 -3.089363 -1.891622
3.199487 -3.291940 -1.893580
3.228676 -3.323550 -1.787155
3.358534 -3.455198 -1.733230
3.617275 -3.717721 -1.733757
0.002797 -0.083942 -0.001929
0.002797 -0.083942 -0.001929
4.725039 -4.839902 -1.756451
0.002797 -0.083942 -0.001929
0.002797 -0.083942 -0.001929
7.070023 -7.214367 -1.893438
0.002797 -0.083942 -0.001929
9.615347 -9.705166 -1.913310
11.767252 -11.867372 -1.946148
19.892969 -20.020399 -2.629244
0.002797 -0.083942 -0.001929
41.416962 -41.639080 -2.737793
22.947254 -23.122883 -0.756800
23.905930 -24.094236 -0.001891
22.734608 -22.933924 0.746420
25.277046 -25.507660 1.669889
23.919125 -24.150434 2.370657
19.587015 -19.805153 2.591077
20.260912 -20.498312 3.361349
23.994827 -24.269800 4.785924
0.002797 -0.083942 -0.001929
24.151493 -24.462400 6.463225
0.410368 -0.495995 -0.345727
0.424327 -0.510434 -0.338934
0.464360 -0.551145 -0.351211
2.614152 -2.729910 -1.868497
2.786351 -2.906421 -1.878393
2.982409 -3.106339 -1.891624
3.177096 -3.306116 -1.891270
3.225659 -3.357774 -1.795888
3.343047 -3.478249 -1.735286
3.602960 -3.744988 -1.736962
3.958282 -4.109216 -1.762965
4.276126 -4.434263 -1.750573
4.703045 -4.872288 -1.758484
5.268035 -5.449851 -1.783233
5.920942 -6.119562 -1.798707
7.033033 -7.258887 -1.894562
8.110270 -8.289406 -1.897113
9.565434 -9.765704 -1.914442
11.697908 -11.933199 -1.945940
19.706684 -20.061920 -2.619812
0.002782 -0.083735 -0.001924
41.013271 -41.709805 -2.726986
22.507181 -22.942190 -0.746683
23.672092 -24.134136 -0.001944
25.192326 -25.697084 0.832108
25.288691 -25.813374 1.680361
19.869627 -20.306543 1.980391
19.325424 -19.766596 2.571342
19.604862 -20.065462 3.271405
23.107965 -23.644960 4.635844
23.460014 -24.021013 5.504297
0.002782 -0.083735 -0.001924
0.410386 -0.500589 -0.347764
0.427964 -0.518880 -0.343829
0.457985 -0.549790 -0.348391
2.605134 -2.751067 -1.872986
2.770083 -2.922169 -1.878395
2.963707 -3.121902 -1.890813
3.153358 -3.318817 -1.888189
3.227579 -3.397401 -1.807531
3.324780 -3.498537 -1.735973
3.610889 -3.795314 -1.751052
3.927082 -4.123468 -1.759395
4.243001 -4.450279 -1.747271
4.688875 -4.912918 -1.763555
5.237067 -5.479832 -1.783241
5.890201 -6.157502 -1.799964
6.997124 -7.304628 -1.896055
8.072613 -8.345556 -1.899398
9.504053 -9.814652 -1.913347
11.630947 -12.001461 -1.946195
19.527531 -20.109091 -2.611309
21.134495 -21.765112 -2.119090
21.187426 -21.834909 -1.417933
24.373745 -25.124298 -0.813260
0.002767 -0.083531 -0.001920
22.255714 -22.972624 0.739172
22.385323 -23.122339 1.495938
19.618187 -20.281404 1.966816
19.236891 -19.902889 2.574644
19.201998 -19.881023 3.223045
19.188002 -19.873774 3.871748
23.364548 -24.199238 5.514297
0.002767 -0.083531 -0.001920
0.405566 -0.500245 -0.345719
0.426630 -0.522370 -0.344804
0.457740 -0.554733 -0.350265
0.485424 -0.583792 -0.351002
2.753701 -2.937829 -1.878397
2.945655 -3.139180 -1.890816
3.137252 -3.339334 -1.889734
3.221370 -3.429109 -1.814808
3.305776 -3.519306 -1.736660
3.575034 -3.800763 -1.744013
3.927595 -4.170542 -1.770124
4.218374 -4.476503 -1.747828
4.665044 -4.943763 -1.765081
5.195583 -5.500703 -1.780021
5.856811 -6.194892 -1.800805
6.958291 -7.349991 -1.897179
8.029076 -8.395873 -1.900385
9.446243 -9.870559 -1.913366
11.569107 -12.075069 -1.947377
19.344355 -20.150553 -2.602247
21.022263 -21.906961 -2.120811
21.226896 -22.127413 -1.429067
22.131912 -23.083782 -0.743067
23.185921 -24.196466 -0.002048
23.050631 -24.064425 0.770174
19.530416 -20.416162 1.312646
19.232925 -20.120678 1.939988
19.161873 -20.060841 2.580360
19.518122 -20.439713 3.295712
18.899143 -19.808117 3.836914
18.864992 -19.786509 4.479295
0.002783 -0.083320 -0.001915
0.407835 -0.507396 -0.349796
0.420415 -0.520881 -0.341862
0.454919 -0.557218 -0.350262
0.478729 -0.582559 -0.348306
2.739725 -2.956010 -1.880110
2.925498 -3.153201 -1.889192
3.117897 -3.357638 -1.889737
3.214918 -3.460850 -1.822087
3.287246 -3.539397 -1.737347
3.581016 -3.849878 -1.757462
3.893487 -4.181761 -1.765362
4.199636 -4.507440 -1.750590
4.643673 -4.977300 -1.767620
5.160314 -5.526028 -1.778646
5.826674 -6.231488 -1.802062
6.916305 -7.387023 -1.896820
7.982389 -8.445929 -1.901049
9.388425 -9.923057 -1.913105
11.504705 -12.150365 -1.948561
19.167440 -20.204016 -2.594487
0.002768 -0.083116 -0.001910
40.050404 -42.174225 -2.711614
21.853245 -23.056856 -0.738193
23.037264 -24.319008 -0.002099
24.703674 -26.090866 0.830641
19.623653 -20.749573 1.326856
19.066582 -20.177160 1.934785
18.745975 -19.846376 2.539079
18.610950 -19.718000 3.161407
18.647863 -19.771000 3.808761
18.505215 -19.627451 4.419598
18.840849 -19.996185 5.162550
0.403114 -0.506936 -0.347753
0.417949 -0.522997 -0.341858
0.447418 -0.554384 -0.346502
0.486987 -0.596699 -0.356380
2.725640 -2.974121 -1.881824
2.915833 -3.177225 -1.894074
3.104639 -3.380124 -1.892823
3.217130 -3.502131 -1.834457
3.274365 -3.564293 -1.740771
3.557966 -3.868806 -1.756825
3.871154 -4.205249 -1.765962
4.184109 -4.540376 -1.754454
4.616774 -5.005107 -1.768133
5.132532 -5.557332 -1.779575
5.785885 -6.258950 -1.800408
6.886279 -7.439362 -1.900165
7.938338 -8.492950 -1.901711
9.333422 -9.975022 -1.913122
11.474044 -12.253123 -1.954847
0.002754 -0.082912 -0.001905
0.002754 -0.082912 -0.001905
39.830189 -42.412643 -2.712728
21.794733 -23.260571 -0.740748
0.002754 -0.082912 -0.001905
21.733009 -23.219810 0.734804
19.583773 -20.946335 1.332217
19.023876 -20.357134 1.941860
18.698772 -20.024797 2.548141
18.006088 -19.299692 3.077279
18.387552 -19.713978 3.777828
18.330490 -19.667027 4.404644
18.779726 -20.161392 5.177320
0.399475 -0.507771 -0.346728
0.409477 -0.518793 -0.336956
0.448315 -0.560599 -0.349316
0.487667 -0.603193 -0.359068
2.706485 -2.986881 -1.880114
2.896757 -3.192375 -1.893263
3.086878 -3.399049 -1.893597
3.205008 -3.528541 -1.838825
3.256843 -3.585593 -1.742142
3.528419 -3.880641 -1.752988
3.835705 -4.214617 -1.760605
4.161019 -4.566955 -1.755562
4.589685 -5.032771 -1.768646
5.097014 -5.582242 -1.778200
5.750263 -6.291894 -1.800417
6.842527 -7.477166 -1.899806
7.891192 -8.539674 -1.902050
9.272312 -10.023958 -1.912305
11.322604 -12.231470 -1.940951
18.856890 -20.331907 -2.583419
0.002740 -0.082708 -0.001901
39.631020 -42.689014 -2.715894
21.937416 -23.682585 -0.750223
22.536665 -24.336151 -0.002195
23.319210 -25.196287 0.793410
19.474352 -21.070091 1.332920
18.814735 -20.366489 1.932333
18.333370 -19.861563 2.513735
17.961443 -19.474096 3.088622
18.106180 -19.637493 3.742997
18.178717 -19.729870 4.395202
18.261051 -19.832973 5.065454
0.399288 -0.512426 -0.348765
0.411600 -0.526115 -0.340871
0.440672 -0.557828 -0.345556
0.489399 -0.611109 -0.362654
2.689217 -3.002633 -1.880116
2.874540 -3.205221 -1.890825
3.067173 -3.417048 -1.893600
3.203424 -3.567823 -1.849740
3.237284 -3.605984 -1.742829
3.505829 -3.901253 -1.752991
3.824030 -4.251119 -1.766567
4.130464 -4.587050 -1.753913
4.556371 -5.055361 -1.767133
5.059078 -5.606371 -1.776363
5.706767 -6.318405 -1.798347
6.810513 -7.530404 -1.903151
7.840940 -8.586048 -1.902064
9.215930 -10.081400 -1.912879
11.329807 -12.384329 -1.954661
18.728497 -20.434240 -2.582346
27.808191 -30.313335 -2.874473
0.002754 -0.082494 -0.001896
21.851322 -23.870808 -0.752130
22.849785 -24.966959 -0.002253
21.853436 -23.898754 0.748164
18.950062 -20.748970 1.305305
20.154135 -22.070303 2.083360
18.163416 -19.912327 2.506450
17.885132 -19.622437 3.095319
17.979324 -19.732498 3.740730
18.187174 -19.973917 4.425639
18.092031 -19.883993 5.050973
0.395641 -0.513224 -0.347741
0.414892 -0.534696 -0.345765
0.442688 -0.565355 -0.349308
0.491152 -0.618981 -0.366240
2.674826 -3.020497 -1.881829
2.854769 -3.220617 -1.890014
3.052896 -3.439871 -1.896686
3.202114 -3.606649 -1.860656
3.218876 -3.627661 -1.744201
3.485093 -3.922525 -1.753636
3.805122 -4.278471 -1.768955
4.119187 -4.628317 -1.760534
4.526395 -5.079819 -1.766633
5.027567 -5.637465 -1.776832
5.669700 -6.351882 -1.798356
6.766245 -7.570402 -1.903163
7.794557 -8.633688 -1.902727
9.157870 -10.137060 -1.913176
11.253530 -12.443171 -1.953755
18.597765 -20.526634 -2.580529
27.591038 -30.435984 -2.870630
36.791973 -40.573944 -2.553832
21.820360 -24.112780 -0.755847
21.765261 -24.069260 -0.002288
22.735626 -25.147926 0.783332
20.585730 -22.793655 1.427095
19.961924 -22.121067 2.076898
18.288815 -20.288082 2.540217
17.965748 -19.938328 3.128961
17.530561 -19.471149 3.671110
18.168255 -20.190926 4.449914
18.349340 -20.398821 5.155353
0.390768 -0.512783 -0.345697
0.407554 -0.531737 -0.341843
0.433906 -0.561182 -0.344610
0.486780 -0.620324 -0.365340
2.657852 -3.035609 -1.881830
2.841553 -3.242192 -1.893270
3.019365 -3.442572 -1.888208
3.199187 -3.644197 -1.870843
3.209708 -3.658482 -1.750360
3.476842 -3.957801 -1.760682
3.757993 -4.274459 -1.758235
4.095554 -4.654563 -1.761643
4.504013 -5.112751 -1.769171
4.994221 -5.664610 -1.776378
5.632039 -6.380257 -1.797533
6.729619 -7.613648 -1.904655
7.750356 -8.686823 -1.904363
9.105203 -10.195215 -1.914307
11.162821 -12.490198 -1.950763
18.485634 -20.646595 -2.581871
27.497358 -30.684435 -2.879203
36.187073 -40.385136 -2.528476
0.002725 -0.082086 -0.001886
21.550859 -24.108919 -0.002334
22.423933 -25.100298 0.777620
20.505480 -22.967962 1.430589
19.530106 -21.894857 2.044913
18.944769 -21.248705 2.647732
17.287172 -19.410280 3.029974
17.400305 -19.550734 3.667176
17.689045 -19.881048 4.359421
18.158941 -20.421661 5.134577
0.392929 -0.519871 -0.349774
0.406189 -0.535086 -0.342819
0.433543 -0.566015 -0.346483
0.481365 -0.620141 -0.363541
2.643239 -3.053318 -1.883544
2.822642 -3.256402 -1.892458
3.012843 -3.472929 -1.895920
3.195963 -3.681818 -1.881032
3.204667 -3.692975 -1.758572
3.458277 -3.981757 -1.762607
3.743938 -4.307211 -1.763006
4.063612 -4.669906 -1.758891
4.475000 -5.138343 -1.769177
4.959155 -5.687769 -1.775002
5.587946 -6.403517 -1.795047
6.690108 -7.656413 -1.905778
7.707522 -8.735568 -1.905674
9.052606 -10.250038 -1.915159
11.081579 -12.538659 -1.948696
18.217207 -20.576460 -2.560354
27.258724 -30.760973 -2.872146
35.692528 -40.282761 -2.509637
0.002711 -0.081882 -0.001882
21.911539 -24.786612 -0.002391
22.062626 -24.974804 0.769825
0.002711 -0.081882 -0.001882
19.412180 -22.007658 2.045290
19.144665 -21.720999 2.693015
17.050760 -19.367750 3.007871
17.185278 -19.527004 3.644597
17.248312 -19.612379 4.278331
17.883039 -20.345722 5.089365
0.383580 -0.514154 -0.343649
0.402416 -0.535883 -0.341835
0.426089 -0.562975 -0.342724
0.486537 -0.632071 -0.369820
