# This PCD file was generated using the MATLAB® pcwrite function
# from Computer Vision Toolbox®.
# .PCD v.7 - Point Cloud Data file format
VERSION .7
FIELDS x y z
SIZE 4 4 4
TYPE F F F
COUNT 1 1 1
WIDTH 1642
HEIGHT 1
VIEWPOINT 0 0 0 1 0 0 0
POINTS 1642
DATA ascii
-3.538358 2.287723 -1.691416
-3.736768 2.427855 -1.664762
-3.746100 2.436545 -1.549847
-3.897118 2.544686 -1.489057
-4.302989 2.830887 -1.510228
-4.650681 3.077693 -1.489909
-5.111851 3.403378 -1.481612
-5.566001 3.725846 -1.446777
-6.109519 4.111758 -1.407070
-6.782229 4.543365 -1.356919
-7.526196 5.064983 -1.286934
-4.252321 2.781163 -0.606822
-4.243525 2.777419 -0.483962
-4.245977 2.780415 -0.362958
-4.239054 2.777959 -0.241677
-13.320591 9.145441 -0.365570
-14.795720 10.183845 0.014323
-14.784152 10.184089 0.433909
-14.774299 10.185536 0.856796
-14.730598 10.159341 1.274030
-12.665718 8.715676 1.457232
-12.799829 8.817235 1.843568
0.009381 -0.197277 -0.005508
0.009381 -0.197277 -0.005508
0.009381 -0.197277 -0.005508
-0.478774 0.147180 -0.358855
-0.489513 0.155065 -0.347724
-0.523148 0.179115 -0.351262
-2.854538 1.826975 -1.761462
-2.999961 1.931488 -1.745326
-3.171536 2.054683 -1.735583
-3.333647 2.171371 -1.711549
-3.521423 2.305500 -1.689995
-3.695546 2.431052 -1.653201
-3.707725 2.441826 -1.540307
-3.878182 2.565084 -1.487904
-4.287063 2.856944 -1.510817
-4.634939 3.106871 -1.490961
-5.087261 3.431590 -1.480743
-5.545876 3.761271 -1.447657
-6.070229 4.136797 -1.403814
-6.778240 4.597301 -1.361492
-7.466724 5.087836 -1.282035
-4.230798 2.801636 -0.606170
-4.231763 2.804739 -0.484550
0.009372 -0.197073 -0.005503
-13.577532 9.434990 -0.764006
-13.408535 9.319309 -0.369504
-14.861362 10.358156 0.014342
-14.848109 10.357198 0.437455
-14.844621 10.363198 0.864276
-13.571832 9.462505 1.178106
-12.792687 8.915653 1.477779
-12.660421 8.828744 1.830779
-13.639549 9.534045 2.368899
0.009372 -0.197073 -0.005503
0.009372 -0.197073 -0.005503
-0.466854 0.143348 -0.351727
-0.487375 0.158295 -0.347724
-0.532420 0.190686 -0.358758
-2.843583 1.845634 -1.762384
-2.985829 1.948416 -1.744499
-3.155166 2.071547 -1.733988
-3.316559 2.189171 -1.710041
-3.515616 2.333084 -1.694380
-3.637136 2.422437 -1.634139
-3.641685 2.426848 -1.519280
0.009363 -0.196869 -0.005497
-4.247044 2.866808 -1.503169
-4.626843 3.141633 -1.494535
-5.042647 3.443951 -1.473905
-5.520535 3.790087 -1.446881
-6.043626 4.170726 -1.403504
-6.745664 4.636508 -1.360916
-7.491633 5.172592 -1.291776
-4.225343 2.836900 -0.608049
-4.242515 2.851638 -0.487896
0.009363 -0.196869 -0.005497
0.009363 -0.196869 -0.005497
-13.387660 9.424505 -0.370616
-17.332071 12.267225 0.017558
-15.604969 11.034863 0.461834
-15.617109 11.048434 0.913122
0.009363 -0.196869 -0.005497
-13.387907 9.456101 1.553012
-13.052997 9.222302 1.895359
-13.575345 9.606807 2.367359
0.009363 -0.196869 -0.005497
-8.373263 5.860083 1.954548
-0.476106 0.154267 -0.359873
-0.486807 0.162281 -0.348701
-0.531684 0.194937 -0.359695
-2.835069 1.863793 -1.764198
-2.976362 1.967915 -1.746232
-3.148386 2.093641 -1.737261
-3.304700 2.208951 -1.710839
-3.493475 2.348022 -1.690784
-3.575338 2.408649 -1.613028
-3.606622 2.433494 -1.511016
0.009355 -0.196668 -0.005492
-4.234581 2.894073 -1.504854
-4.616961 3.175264 -1.497605
-5.036409 3.482581 -1.478083
-5.445348 3.783948 -1.433281
-6.007311 4.197535 -1.400984
-6.702623 4.662714 -1.357758
-7.379763 5.155267 -1.277760
-4.235711 2.880486 -0.611994
-4.228695 2.877832 -0.488301
-10.735576 7.601659 -0.919573
-13.399580 9.542868 -0.760546
-13.442101 9.581531 -0.373761
0.009355 -0.196668 -0.005492
0.009355 -0.196668 -0.005492
0.009355 -0.196668 -0.005492
0.009355 -0.196668 -0.005492
-12.722455 9.088537 1.481657
-12.878295 9.209665 1.877645
-13.477302 9.651101 2.359653
-8.302066 5.877052 1.697073
0.009355 -0.196668 -0.005492
-0.467152 0.152169 -0.354781
-0.486163 0.166357 -0.349678
-0.533719 0.201368 -0.362507
-2.824616 1.881359 -1.765118
-2.960966 1.983091 -1.744550
-3.133300 2.111413 -1.736478
-3.293794 2.230342 -1.712406
-3.475760 2.366106 -1.689365
0.009347 -0.196468 -0.005486
-3.580739 2.446570 -1.506582
-3.919152 2.698008 -1.522445
-4.245603 2.941040 -1.515330
-4.591256 3.197411 -1.495631
-5.014525 3.512599 -1.478132
-5.418519 3.814062 -1.432507
-5.900560 4.173686 -1.382265
-6.607718 4.652415 -1.344293
-7.384677 5.226084 -1.284188
-8.251417 5.864347 -1.190770
-9.314119 6.649462 -1.072211
-10.698843 7.672468 -0.920508
-13.237129 9.541907 -0.754673
-16.316858 11.815567 -0.454517
-21.973965 15.990664 0.023519
-31.070742 22.698755 0.931781
-31.211210 22.820473 1.844627
0.009347 -0.196468 -0.005486
-12.559915 9.084782 1.468936
0.009347 -0.196468 -0.005486
-13.165553 9.543883 2.314921
-8.362720 5.998002 1.716895
0.009347 -0.196468 -0.005486
-0.469249 0.158253 -0.357835
-0.477002 0.164290 -0.344789
-0.538442 0.210045 -0.367193
-2.807954 1.895101 -1.762457
-2.955650 2.005713 -1.748845
-3.127314 2.135084 -1.740563
-3.277878 2.248953 -1.711668
-3.460976 2.386290 -1.689397
-3.481348 2.403533 -1.584447
-3.560920 2.463964 -1.504700
-3.910091 2.726450 -1.525451
-4.213625 2.955293 -1.510426
-4.571688 3.223995 -1.495674
-4.974415 3.527634 -1.472671
-5.388241 3.838597 -1.430489
-5.926457 4.244451 -1.394105
-6.612154 4.716429 -1.351125
-7.312014 5.238014 -1.277078
-8.157959 5.870725 -1.182579
-9.266994 6.700029 -1.071572
-10.666231 7.743639 -0.921716
-13.147144 9.596563 -0.752990
0.009339 -0.196264 -0.005481
-21.875729 16.113430 0.023285
-30.997047 22.929335 0.933340
-31.094330 23.011812 1.845252
0.009339 -0.196264 -0.005481
0.009339 -0.196264 -0.005481
0.009339 -0.196264 -0.005481
-13.114098 9.623272 2.315628
-8.557090 6.216270 1.764129
-10.129606 7.399407 2.395185
-0.471384 0.164217 -0.360890
-0.479181 0.170335 -0.347722
-0.541854 0.217529 -0.370941
-2.797658 1.912042 -1.763376
-2.941484 2.021831 -1.748018
-3.110928 2.151073 -1.738969
-3.264192 2.267435 -1.711696
-3.434155 2.397422 -1.683624
0.009331 -0.196063 -0.005476
0.009331 -0.196063 -0.005476
-3.899328 2.753731 -1.527862
-4.223031 3.000581 -1.520354
-4.530308 3.234140 -1.488655
-4.940485 3.547032 -1.469046
-5.334589 3.848264 -1.422681
-5.780963 4.189523 -1.366177
-6.551517 4.728581 -1.344423
-7.310754 5.302819 -1.282400
-8.138313 5.927107 -1.184727
-9.241127 6.761417 -1.073133
-10.618802 7.803895 -0.921687
-13.065202 9.649535 -0.751574
-16.198406 12.018585 -0.455429
0.009331 -0.196063 -0.005476
-30.944239 23.159893 0.935351
-31.079948 23.280804 1.852069
0.009331 -0.196063 -0.005476
-12.982786 9.630337 1.531425
-13.499765 10.025693 1.993501
-14.871321 11.072395 2.637686
-8.229612 6.047837 1.704002
-8.098689 5.951255 1.922566
-0.461040 0.161012 -0.354779
-0.479774 0.175534 -0.349678
-0.537977 0.219921 -0.370005
-2.787990 1.930981 -1.765193
-2.929732 2.040555 -1.748899
-3.101757 2.172482 -1.741431
-3.249531 2.286973 -1.711727
-3.378705 2.387457 -1.664067
-3.382448 2.391430 -1.553136
-3.522116 2.500086 -1.501575
-3.877216 2.773549 -1.526119
-4.192358 3.015715 -1.516000
-4.522208 3.270570 -1.492736
-4.900342 3.561425 -1.463585
-5.315925 3.882683 -1.423974
-5.824279 4.275564 -1.382438
-6.501790 4.752033 -1.340301
-7.223810 5.303059 -1.272803
-8.130331 5.997123 -1.188950
-9.196589 6.813884 -1.072862
-10.596416 7.883213 -0.923858
-12.997100 9.719763 -0.751166
-17.961792 13.515452 -0.506825
-30.368612 22.991268 0.034151
-35.292320 26.770653 1.071961
-31.005400 23.514566 1.855636
-13.171795 9.885232 1.172184
-12.932403 9.709944 1.532041
-14.865950 11.198874 2.205449
0.009292 -0.195865 -0.005469
-8.215497 6.112145 1.708486
-8.257000 6.148966 1.969023
-0.454888 0.160763 -0.351724
-0.473482 0.175350 -0.346745
-0.536993 0.224333 -0.370942
-2.778533 1.949404 -1.767009
-2.921504 2.060408 -1.751486
-3.082282 2.186061 -1.738213
-3.238142 2.308113 -1.713295
-3.333275 2.382587 -1.648861
0.009285 -0.195664 -0.005464
-3.514532 2.525717 -1.504798
-3.862121 2.796530 -1.526748
-4.179905 3.044718 -1.518237
-4.508946 3.300709 -1.494796
-4.850933 3.568333 -1.455369
-5.294650 3.913703 -1.424439
-5.807048 4.314229 -1.384336
-6.435663 4.760708 -1.332634
-7.170090 5.327845 -1.269008
-8.132380 6.073110 -1.194551
-9.167170 6.875412 -1.074242
-10.571924 7.961315 -0.925891
-12.914557 9.775064 -0.749844
-18.999399 14.475725 -0.538243
-30.798246 23.601030 0.034559
0.009285 -0.195664 -0.005464
0.009285 -0.195664 -0.005464
0.009285 -0.195664 -0.005464
-12.870673 9.777298 1.531158
-14.897979 11.356075 2.219593
0.009285 -0.195664 -0.005464
-8.127192 6.117005 1.697311
-10.739025 8.149910 2.572842
-0.459688 0.168828 -0.356816
-0.475548 0.181449 -0.349678
-0.537363 0.229837 -0.372817
-2.762294 1.961808 -1.764346
-2.907076 2.076297 -1.750658
-3.075742 2.209607 -1.742300
-3.222230 2.325797 -1.712556
-3.287533 2.377874 -1.633655
0.009277 -0.195464 -0.005459
-3.525206 2.567752 -1.516322
-3.842808 2.818432 -1.526192
-4.153649 3.063014 -1.515530
-4.477496 3.319252 -1.491309
-4.828555 3.597253 -1.455418
-5.266409 3.943752 -1.423667
-5.721437 4.302684 -1.370401
-6.406377 4.795545 -1.332374
-7.099140 5.338806 -1.262172
-8.018925 6.057562 -1.183135
-9.122887 6.922990 -1.073783
-10.523264 8.020999 -0.925864
-12.850721 9.844499 -0.749615
-18.872175 14.551764 -0.537246
0.009277 -0.195464 -0.005459
0.009277 -0.195464 -0.005459
0.009277 -0.195464 -0.005459
-14.466968 11.142457 1.299157
0.009277 -0.195464 -0.005459
-14.937110 11.529012 2.235599
-14.602664 11.275643 2.624598
-8.086586 6.162880 1.696573
0.009277 -0.195464 -0.005459
-0.456103 0.170818 -0.355797
-0.470502 0.182438 -0.347722
-0.537601 0.235457 -0.374692
-2.753300 1.982180 -1.767060
-2.894978 2.094843 -1.751540
-3.060002 2.226896 -1.741518
-3.208665 2.346236 -1.713356
-3.259089 2.387149 -1.627156
-3.291154 2.414552 -1.532084
0.009268 -0.195260 -0.005453
-3.837391 2.850203 -1.530980
-4.122220 3.078256 -1.511177
-4.438987 3.330763 -1.485299
-4.794466 3.615523 -1.451792
-5.221788 3.956266 -1.417924
-5.675479 4.319860 -1.365670
-6.382018 4.839662 -1.333732
-7.021106 5.345463 -1.254233
-7.944760 6.078309 -1.177934
-9.085548 6.983692 -1.074618
-9.763499 7.522061 -0.863554
-12.778461 9.910805 -0.749025
-18.789171 14.667302 -0.537587
0.009268 -0.195260 -0.005453
0.009268 -0.195260 -0.005453
0.009268 -0.195260 -0.005453
-14.371403 11.205940 1.296451
-15.318103 11.961619 1.839616
-14.920798 11.655745 2.243171
-14.507016 11.336307 2.619116
-8.831540 6.830759 1.861561
0.009268 -0.195260 -0.005453
-0.456769 0.175745 -0.357834
-0.467033 0.184221 -0.346744
-0.535216 0.238696 -0.374692
-2.745324 2.001079 -1.769770
-2.887406 2.116205 -1.754982
-3.046028 2.244695 -1.741546
-3.194467 2.364323 -1.713385
-3.216511 2.383978 -1.613400
-3.252592 2.414886 -1.521201
-3.527229 2.635844 -1.531070
-3.822821 2.874847 -1.532204
-4.074817 3.079293 -1.500780
-4.435254 3.369794 -1.490893
-4.777051 3.646924 -1.453218
-5.195578 3.986151 -1.417565
-5.676196 4.375829 -1.372360
-6.318336 4.847121 -1.326383
-6.843548 5.269905 -1.228328
-7.934527 6.142578 -1.181693
-9.046941 7.035727 -1.074895
-9.566206 7.456263 -0.850181
0.009260 -0.195059 -0.005448
-18.690926 14.765361 -0.537434
0.009260 -0.195059 -0.005448
0.009260 -0.195059 -0.005448
0.009260 -0.195059 -0.005448
0.009260 -0.195059 -0.005448
-14.306451 11.298270 1.725843
-14.973208 11.838645 2.261286
-14.475988 11.448356 2.625408
-21.706230 17.273724 4.601977
-8.574311 6.712834 2.081853
-0.455900 0.179780 -0.358852
-0.471570 0.192711 -0.351634
-0.528514 0.238787 -0.371882
-2.732242 2.017549 -1.769797
-2.873678 2.133513 -1.755009
-3.027246 2.259495 -1.739141
-3.164876 2.371840 -1.705727
-3.177996 2.384475 -1.601822
-3.232700 2.430805 -1.519186
-3.517777 2.662899 -1.534297
-3.798636 2.892876 -1.529867
-4.080720 3.124226 -1.510161
-4.417063 3.398694 -1.491948
-4.754185 3.675410 -1.453267
-5.152492 4.002292 -1.412652
-5.635315 4.398452 -1.369104
-6.289907 4.885952 -1.326772
-6.781787 5.286958 -1.223149
-7.949389 6.232168 -1.189597
-9.007043 7.091958 -1.075360
-10.406524 8.229522 -0.928814
-9.769429 7.717558 -0.579518
-9.828547 7.771603 -0.286762
0.009251 -0.194855 -0.005442
0.009251 -0.194855 -0.005442
0.009251 -0.194855 -0.005442
-14.901721 11.912996 1.356838
0.009251 -0.194855 -0.005442
0.009251 -0.194855 -0.005442
-18.959650 15.238519 3.456079
-19.229122 15.469933 4.095805
0.009251 -0.194855 -0.005442
-0.449752 0.179390 -0.355796
-0.462593 0.190158 -0.346744
-0.520547 0.237605 -0.368133
-2.725024 2.037993 -1.773404
-2.858849 2.149099 -1.754182
-3.020604 2.282361 -1.743226
-3.134352 2.377380 -1.697297
-3.142938 2.386419 -1.591693
-3.219463 2.450228 -1.519898
-3.491004 2.674920 -1.529863
-3.780794 2.914919 -1.529905
-4.054741 3.141069 -1.507453
-4.414279 3.439019 -1.498047
-4.738568 3.707047 -1.455150
-5.132047 4.033689 -1.413531
-5.600502 4.422558 -1.366950
-6.199413 4.872367 -1.313946
-6.729644 5.307395 -1.219348
-7.903061 6.270480 -1.188302
-8.969626 7.147661 -1.076007
-10.365563 8.292722 -0.929473
-9.542903 7.625778 -0.568953
0.009243 -0.194651 -0.005437
-9.849862 7.886755 0.007113
-9.777446 7.833609 0.300914
0.009243 -0.194651 -0.005437
-14.753844 11.930328 1.349324
-14.153337 11.446165 1.723092
-45.159439 36.960136 6.892365
-18.894753 15.361898 3.459802
-18.990726 15.453013 4.063308
0.009243 -0.194651 -0.005437
-0.448925 0.183319 -0.356815
-0.460391 0.193058 -0.346744
-0.515317 0.238598 -0.366260
-2.708017 2.050445 -1.770743
-2.848093 2.168049 -1.755917
-3.003482 2.297602 -1.741632
-3.105298 2.383829 -1.689636
-3.112263 2.391610 -1.583741
-3.202773 2.467736 -1.519247
-3.491966 2.709706 -1.537557
-3.736413 2.914891 -1.519253
-4.023658 3.154742 -1.503098
-4.388840 3.460877 -1.496578
-4.730998 3.746922 -1.459792
-5.091104 4.049605 -1.409031
-5.561777 4.444867 -1.364061
-6.196048 4.929544 -1.319489
-6.674971 5.327331 -1.215273
-7.888716 6.335058 -1.191836
-8.884306 7.163820 -1.070955
-10.321183 8.356260 -0.929998
-9.888565 8.004510 -0.592224
-9.653172 7.815712 -0.284571
-9.715498 7.870744 0.006896
0.009234 -0.194447 -0.005432
0.009234 -0.194447 -0.005432
-14.818895 12.127443 1.361610
-14.184176 11.609113 1.734952
-23.434290 19.316835 3.591484
0.009234 -0.194447 -0.005432
-8.234376 6.674637 1.768231
-9.463826 7.705234 2.330962
-0.441463 0.181737 -0.352740
-0.463505 0.200430 -0.350656
-0.504691 0.235008 -0.360637
-2.695048 2.066225 -1.770769
-2.835867 2.185783 -1.756798
-2.994725 2.319762 -1.744908
-3.069197 2.384100 -1.678131
-3.070206 2.386962 -1.569983
-3.190270 2.488772 -1.520643
-3.475209 2.729983 -1.537592
-3.712635 2.931655 -1.516914
-4.033757 3.202815 -1.514127
-4.361836 3.481313 -1.494604
-4.685927 3.755507 -1.452951
-5.069590 4.081579 -1.409912
-5.527493 4.470685 -1.362277
-6.236159 5.023548 -1.334381
-6.630947 5.355708 -1.213132
-7.663610 6.223772 -1.163626
-8.789918 7.171570 -1.064800
-10.279502 8.422125 -0.930797
-9.819828 8.043520 -0.591054
0.009226 -0.194246 -0.005426
0.009226 -0.194246 -0.005426
0.009226 -0.194246 -0.005426
0.009226 -0.194246 -0.005426
-14.828740 12.280767 1.368943
-14.347639 11.885621 1.763327
-23.057343 19.228958 3.550468
-22.924955 19.125544 4.238496
-17.951115 14.947291 3.877311
-8.155151 6.694109 2.017841
-0.440628 0.185629 -0.353758
-0.459912 0.202210 -0.349678
-0.496835 0.233594 -0.356888
-2.688859 2.087694 -1.775272
-2.822139 2.202290 -1.756825
-2.975584 2.334161 -1.742502
-3.035992 2.386435 -1.668163
-3.042501 2.393970 -1.563482
-3.172906 2.506649 -1.519992
-3.468453 2.758747 -1.542095
-3.696039 2.954435 -1.517545
-4.012107 3.225651 -1.513620
-4.319981 3.489022 -1.487584
-4.657985 3.779664 -1.451624
-5.030781 4.100365 -1.406240
-5.472836 4.480637 -1.355705
-6.195522 5.050644 -1.332191
-6.593432 5.391305 -1.212375
-7.766111 6.386056 -1.184873
-8.751964 7.226107 -1.065447
-10.241980 8.494737 -0.932151
-9.854583 8.169883 -0.596089
0.009218 -0.194046 -0.005421
0.009218 -0.194046 -0.005421
0.009218 -0.194046 -0.005421
0.009218 -0.194046 -0.005421
-14.914125 12.504433 1.383623
-14.503238 12.164338 1.791317
-22.759335 19.203085 3.521402
0.009218 -0.194046 -0.005421
-17.738024 14.948660 3.850363
0.009218 -0.194046 -0.005421
-0.431830 0.182894 -0.348666
-0.450939 0.199515 -0.344787
-0.499682 0.241374 -0.360638
-2.680713 2.108482 -1.778881
-2.803763 2.215681 -1.754291
-2.967931 2.357418 -1.746590
-3.003828 2.390197 -1.658964
-3.011578 2.398841 -1.555529
-3.171587 2.537342 -1.526846
-3.443700 2.773316 -1.538939
-3.683119 2.981501 -1.519960
-3.969051 3.228842 -1.504870
-4.293697 3.511010 -1.486116
-4.626211 3.799002 -1.448917
-5.025269 4.146074 -1.411675
-5.463737 4.527682 -1.360185
-6.149322 5.074681 -1.329035
-6.559706 5.428084 -1.212169
-7.656063 6.371463 -1.174146
-8.775915 7.336402 -1.073820
-10.199419 8.560236 -0.932952
-9.876131 8.289528 -0.600489
-9.735122 8.174973 -0.291433
0.009210 -0.193842 -0.005415
0.009210 -0.193842 -0.005415
0.009210 -0.193842 -0.005415
-14.840839 12.590262 1.383456
0.009210 -0.193842 -0.005415
-18.382320 15.663456 2.857698
-18.365782 15.655783 3.428413
-17.726849 15.116463 3.866794
-8.032582 6.753433 2.007241
-0.432258 0.187879 -0.350703
-0.448663 0.202357 -0.344788
-0.494479 0.242183 -0.358764
-2.668770 2.125268 -1.779803
-2.795757 2.236253 -1.757733
-2.947711 2.369890 -1.743372
-2.969413 2.390728 -1.648226
-2.977363 2.398731 -1.545398
-3.189886 2.585366 -1.543253
-3.424266 2.790219 -1.537695
-3.675442 3.011002 -1.524154
-3.981228 3.279629 -1.516999
-4.280264 3.541489 -1.488683
-4.638393 3.856477 -1.459988
-4.999504 4.172987 -1.411313
-5.459537 4.577706 -1.365768
-5.996550 5.004273 -1.302666
-6.515263 5.455591 -1.210028
-7.634689 6.429937 -1.176761
-8.743001 7.396125 -1.075204
-10.144395 8.615067 -0.932652
-9.959952 8.461695 -0.608632
0.009202 -0.193641 -0.005410
-9.577334 8.139372 0.006535
-73.007378 63.324207 2.332494
-43.560535 37.723915 2.742501
-43.617172 37.802380 4.094658
-32.739273 28.340254 4.088061
-22.590170 19.512436 3.529550
-18.260918 15.749705 3.425683
-17.644196 15.217958 3.867250
-8.004092 6.807437 2.009760
-0.437911 0.197326 -0.356814
-0.446461 0.205098 -0.344787
-0.489404 0.242854 -0.356890
-0.532957 0.281330 -0.366380
-2.781735 2.252530 -1.757761
-2.941167 2.394271 -1.748271
-2.935522 2.390439 -1.637487
-2.959610 2.413591 -1.543976
-3.190812 2.618796 -1.551472
-3.405619 2.808852 -1.537092
-3.639757 3.017187 -1.517064
-3.958308 3.300163 -1.515941
-4.264533 3.571401 -1.490746
-4.631116 3.897480 -1.465089
-4.980876 4.209249 -1.413438
-5.413471 4.594607 -1.361407
-6.072927 5.130178 -1.325619
-6.493112 5.502343 -1.212034
-6.615971 5.612382 -1.025667
-6.602838 5.605316 -0.817619
-6.572517 5.583173 -0.609559
0.009194 -0.193441 -0.005405
-6.544086 5.565019 -0.199811
-33.090771 28.914297 0.035655
-72.611542 63.694939 2.330364
-49.526859 43.419590 3.133981
0.009194 -0.193441 -0.005405
-23.332462 20.388832 2.927148
-22.437750 19.608149 3.523202
-18.416855 16.073614 3.472265
0.009194 -0.193441 -0.005405
-7.987270 6.874449 2.015625
-0.434301 0.199030 -0.355795
-0.451935 0.214930 -0.350656
-0.488153 0.247170 -0.357827
-0.544852 0.297781 -0.376235
-2.767200 2.269209 -1.757789
-2.916656 2.402889 -1.742619
-2.902215 2.392094 -1.627519
-2.934361 2.422656 -1.538926
-3.174588 2.637340 -1.551504
-3.393437 2.834260 -1.539682
-3.622090 3.040214 -1.517696
-3.889308 3.279622 -1.497300
-4.211823 3.569799 -1.480193
-4.578458 3.898374 -1.455952
-4.914613 4.201581 -1.401899
-5.333100 4.578750 -1.348200
-5.967412 5.100870 -1.309566
-6.463228 5.542459 -1.212658
-6.655777 5.717639 -1.037247
-6.633887 5.702759 -0.825787
-6.519795 5.603905 -0.607841
-6.494935 5.586240 -0.403106
-6.493400 5.589334 -0.199395
-6.641764 5.723714 0.002814
0.009185 -0.193236 -0.005399
0.009185 -0.193236 -0.005399
-23.181284 20.478146 2.195722
-23.149837 20.465954 2.918810
-22.683073 20.065121 3.580297
-18.294981 16.154474 3.466730
-18.276678 16.150688 4.047150
-7.915956 6.895727 2.008091
-0.430763 0.200622 -0.354776
-0.443094 0.211954 -0.345765
-0.486917 0.251402 -0.358765
-0.538032 0.297575 -0.373548
-2.762397 2.293780 -1.763795
-2.879476 2.400825 -1.729660
-2.868087 2.391706 -1.616779
-2.919281 2.439729 -1.538955
-3.164736 2.662633 -1.554949
-3.359057 2.838751 -1.532055
-3.602012 3.059955 -1.517140
-3.888671 3.320876 -1.505035
-4.165687 3.572165 -1.471657
-4.562797 3.933501 -1.458759
-4.921891 4.261031 -1.411476
-5.309089 4.614469 -1.349366
-5.378262 4.634781 -1.187108
-5.374745 4.635333 -1.015012
-5.380970 4.642933 -0.844237
-5.377353 4.643384 -0.674092
0.009178 -0.193036 -0.005394
-5.384367 4.655397 -0.336957
-5.374911 4.650614 -0.166913
-5.371428 4.651191 0.001220
-5.346584 4.630819 0.168539
0.009178 -0.193036 -0.005394
0.009178 -0.193036 -0.005394
0.009178 -0.193036 -0.005394
-5.335788 4.634188 0.843496
-5.317905 4.621712 1.010432
-18.183929 16.262959 4.047910
-9.013084 7.971153 2.298608
-0.422072 0.197641 -0.349683
-0.440699 0.214822 -0.345765
-0.489534 0.259277 -0.362515
-0.540437 0.305813 -0.377132
-2.746712 2.308646 -1.762969
-2.842847 2.397919 -1.716700
-2.830864 2.389026 -1.604502
-2.908204 2.460482 -1.541163
-3.141324 2.674698 -1.551570
-3.345773 2.862091 -1.534005
-3.587508 3.084709 -1.518960
-3.871241 3.346014 -1.506175
-4.158254 3.609345 -1.476750
-4.550492 3.970415 -1.462483
-4.911415 4.301846 -1.415669
-5.306878 4.666789 -1.355687
-5.311566 4.632333 -1.178784
-5.304362 4.627809 -1.007050
0.009169 -0.192832 -0.005388
0.009169 -0.192832 -0.005388
0.009169 -0.192832 -0.005388
0.009169 -0.192832 -0.005388
0.009169 -0.192832 -0.005388
0.009169 -0.192832 -0.005388
0.009169 -0.192832 -0.005388
0.009169 -0.192832 -0.005388
0.009169 -0.192832 -0.005388
0.009169 -0.192832 -0.005388
0.009169 -0.192832 -0.005388
0.009169 -0.192832 -0.005388
0.009169 -0.192832 -0.005388
-3.943565 3.425532 1.009262
-0.427501 0.207214 -0.355794
-0.435839 0.215169 -0.343809
-0.477884 0.253893 -0.355954
-0.545535 0.316325 -0.382509
-2.729630 2.322194 -1.761288
-2.814893 2.401605 -1.708610
-2.798769 2.388766 -1.594530
-2.891555 2.476134 -1.540466
-3.090689 2.660584 -1.534543
-3.342108 2.894358 -1.540425
-3.575609 3.112000 -1.521968
-3.810460 3.329977 -1.490278
-4.142007 3.638688 -1.478814
-4.525788 3.994644 -1.462072
-4.845278 4.293072 -1.404129
-5.260076 4.680120 -1.350955
-5.286018 4.663454 -1.179163
-5.275938 4.656216 -1.006830
-5.281119 4.664684 -0.837450
0.009161 -0.192631 -0.005383
-5.278951 4.668433 -0.501185
0.009161 -0.192631 -0.005383
-5.268859 4.666571 -0.165513
-5.270646 4.670221 0.001049
0.009161 -0.192631 -0.005383
-5.243366 4.652505 0.334271
-5.238078 4.649646 0.500323
-5.227660 4.643730 0.666098
0.009161 -0.192631 -0.005383
-5.216517 4.639142 1.001353
0.009161 -0.192631 -0.005383
0.009161 -0.192631 -0.005383
-0.420150 0.205241 -0.351720
-0.434764 0.219110 -0.344788
-0.483082 0.264094 -0.361579
-0.542617 0.319703 -0.382510
-2.715128 2.338085 -1.761316
-2.782534 2.401814 -1.698084
-2.766280 2.388717 -1.584560
-2.878884 2.495502 -1.541948
-3.115535 2.716978 -1.555046
-3.325698 2.915058 -1.541099
-3.549553 3.126242 -1.519036
-3.825310 3.384864 -1.504058
-4.108584 3.652124 -1.474820
-4.470323 3.991614 -1.452015
-4.837965 4.338479 -1.409566
-5.224787 4.703816 -1.349171
-5.259471 4.695356 -1.179544
-5.245059 4.684030 -1.006336
-5.253116 4.695215 -0.837508
-5.250825 4.696857 -0.668933
-5.245084 4.693523 -0.500692
-5.242903 4.695237 -0.333570
-5.236436 4.692957 -0.165438
-5.246978 4.704800 0.000995
-5.236292 4.698559 0.167496
-5.221262 4.688288 0.334592
-5.215993 4.685392 0.500830
-5.211421 4.684846 0.667540
0.009153 -0.192431 -0.005378
-5.191543 4.672033 1.001855
-5.188505 4.672915 1.170779
0.009153 -0.192431 -0.005378
-0.419040 0.209155 -0.352739
-0.436143 0.225513 -0.347722
-0.484243 0.270831 -0.364392
-0.509616 0.295003 -0.361907
-2.702718 2.356847 -1.763053
-2.752481 2.404720 -1.689183
-2.733485 2.388854 -1.574589
-2.869679 2.519145 -1.545608
-3.085919 2.724029 -1.548938
-3.315485 2.942756 -1.544967
-3.517338 3.135658 -1.513728
-3.785858 3.390553 -1.496957
-4.147649 3.735117 -1.497078
-4.420007 3.994201 -1.443796
-4.795411 4.352515 -1.405066
-5.189993 4.729525 -1.347756
-5.236189 4.732082 -1.180894
-5.226211 4.724755 -1.008332
-5.237089 4.738751 -0.839641
-5.231950 4.737679 -0.670281
-5.239297 4.746647 -0.502957
-5.232751 4.744278 -0.334819
-5.240866 4.755698 -0.166526
-5.239708 4.756641 0.000961
-5.234852 4.755833 0.168350
-5.231483 4.756431 0.337095
-5.227619 4.754832 0.504725
-5.231637 4.762411 0.673856
-5.223976 4.758967 0.843493
-5.204352 4.742453 1.009917
-5.176790 4.720121 1.174630
-5.164878 4.712591 1.344326
-0.422975 0.217730 -0.357832
-0.431221 0.225860 -0.345766
-0.482854 0.275077 -0.365330
-0.508101 0.299409 -0.362804
-0.508545 0.300210 -0.342731
-2.717619 2.401853 -1.677034
-2.705225 2.392041 -1.566925
-2.855385 2.537130 -1.546364
-3.069111 2.741966 -1.548971
-3.290555 2.955469 -1.541810
-3.505043 3.162668 -1.516737
-3.787430 3.433760 -1.505792
-4.102603 3.737754 -1.489047
-4.384596 4.009034 -1.440170
-4.780497 4.391084 -1.408433
-5.208458 4.804399 -1.359979
-5.267884 4.819447 -1.194499
0.009137 -0.192026 -0.005367
-6.897501 6.374812 -1.109753
-6.890074 6.372755 -0.885495
0.009137 -0.192026 -0.005367
-6.888120 6.378609 -0.441301
-6.883861 6.379580 -0.218194
0.009137 -0.192026 -0.005367
0.009137 -0.192026 -0.005367
0.009137 -0.192026 -0.005367
0.009137 -0.192026 -0.005367
-22.447081 21.284025 2.920738
-16.426807 15.538554 2.675133
-16.573008 15.685060 3.241394
-16.684723 15.804269 3.813788
-8.824287 8.278783 2.311480
-0.404497 0.204914 -0.344588
-0.436380 0.235831 -0.351634
-0.486548 0.284215 -0.370018
-0.498824 0.296382 -0.358326
-0.504390 0.302126 -0.341879
-2.688175 2.403735 -1.668131
-2.687644 2.405240 -1.565415
-2.867851 2.580899 -1.561637
-3.044069 2.751979 -1.544909
-3.273751 2.975899 -1.542484
-3.484326 3.181681 -1.516181
-3.756866 3.446362 -1.501985
-4.046550 3.729239 -1.476976
-4.354769 4.029006 -1.438381
-4.761113 4.425540 -1.410557
-5.173985 4.829041 -1.358564
-5.710146 5.302521 -1.301319
0.009128 -0.191822 -0.005361
-6.952717 6.504130 -1.124798
-6.938297 6.495381 -0.896619
-6.945626 6.505215 -0.672149
-6.834380 6.403117 -0.440375
-6.834454 6.408208 -0.217916
-31.552036 30.258787 0.032356
-5.075487 4.717618 0.164814
0.009128 -0.191822 -0.005361
-22.269560 21.344675 2.188165
-22.540754 21.623482 2.948964
-16.287571 15.586065 2.666978
-16.438778 15.739053 3.232792
-16.131990 15.453885 3.707658
-8.768392 8.322825 2.309516
-0.414568 0.219470 -0.354775
-0.422639 0.227649 -0.342831
-0.476209 0.279866 -0.364394
-0.492171 0.295752 -0.355639
-0.495091 0.298963 -0.337609
-2.657511 2.404087 -1.658416
-2.664733 2.413165 -1.560827
-2.859855 2.605394 -1.566023
-3.041897 2.784115 -1.552448
-3.255504 2.994910 -1.542519
-3.464884 3.201900 -1.516219
-3.741380 3.473525 -1.504226
-4.019789 3.748625 -1.475507
-4.324872 4.048774 -1.436592
-4.720493 4.439401 -1.406470
-5.091674 4.806675 -1.344615
-5.736476 5.391910 -1.314610
0.009120 -0.191621 -0.005356
-6.986701 6.614909 -1.136623
-6.989640 6.622940 -0.908297
-6.995615 6.631611 -0.680775
0.009120 -0.191621 -0.005356
0.009120 -0.191621 -0.005356
-18.582031 17.952936 0.016753
0.009120 -0.191621 -0.005356
0.009120 -0.191621 -0.005356
-18.742018 18.144632 1.850969
-22.241308 21.583122 2.925816
-16.196596 15.679747 2.666780
-21.659813 21.039076 4.284372
0.009120 -0.191621 -0.005356
-9.128875 8.775273 2.418027
-0.414664 0.224508 -0.356812
-0.425201 0.235218 -0.346744
-0.470978 0.280373 -0.362520
-0.482986 0.292559 -0.351161
-0.492272 0.302049 -0.337610
-2.629043 2.407208 -1.650326
-2.651050 2.429975 -1.561624
-2.855660 2.633815 -1.572587
-3.024210 2.802329 -1.552482
-3.233086 3.009827 -1.540639
-3.445297 3.222015 -1.516258
-3.718220 3.494520 -1.503720
-4.013572 3.788252 -1.481610
-4.298280 4.073203 -1.436184
-4.670745 4.445498 -1.399899
-5.138754 4.913124 -1.364952
-5.597305 5.319887 -1.290161
-6.250339 5.966567 -1.231846
-7.083378 6.789000 -1.158812
-7.032635 6.744324 -0.919058
-7.037492 6.754430 -0.688854
-12.077123 11.726922 -0.782590
-6.890442 6.617499 -0.222237
0.009112 -0.191421 -0.005351
0.009112 -0.191421 -0.005351
0.009112 -0.191421 -0.005351
-18.535206 18.158810 1.840990
0.009112 -0.191421 -0.005351
-16.195381 15.862373 2.681556
-16.437307 16.114523 3.269346
0.009112 -0.191421 -0.005351
-8.784301 8.537177 2.339807
-0.406086 0.221147 -0.351719
-0.423918 0.239211 -0.347722
-0.465661 0.280919 -0.360646
-0.478846 0.294401 -0.350266
-0.486861 0.302573 -0.335902
-2.607603 2.416070 -1.646294
-2.638090 2.448485 -1.563192
-2.834110 2.645161 -1.569714
-3.018918 2.831865 -1.558657
-3.215942 3.029949 -1.541313
-3.424290 3.240658 -1.515701
-3.686088 3.505205 -1.499364
-4.002923 3.823830 -1.486200
-4.290191 4.114620 -1.441747
-4.658629 4.485562 -1.404093
-5.103262 4.934982 -1.363167
-5.532358 5.321185 -1.282809
-6.207810 5.995664 -1.230536
0.009104 -0.191217 -0.005345
-7.081695 6.876096 -0.930928
-7.093527 6.890831 -0.698311
0.009104 -0.191217 -0.005345
-6.912028 6.718011 -0.224244
-18.381672 18.181894 0.016305
-4.924144 4.741061 0.162426
0.009104 -0.191217 -0.005345
-18.464653 18.300652 1.844290
-29.390289 29.249237 3.911196
-16.055099 15.907719 2.673401
-17.268921 17.137405 3.454497
-16.780502 16.654564 3.922474
0.009104 -0.191217 -0.005345
-0.401356 0.221217 -0.349681
-0.426446 0.246763 -0.351635
-0.459213 0.280082 -0.357834
-0.471097 0.292241 -0.346683
-0.477647 0.299203 -0.331632
-0.499381 0.321505 -0.326066
-2.621565 2.462545 -1.562451
-2.804629 2.648417 -1.562485
-3.006779 2.854762 -1.561421
-3.192802 3.045151 -1.539434
-3.402536 3.259776 -1.515147
-3.655306 3.517010 -1.495558
-3.987246 3.855979 -1.489276
-4.305632 4.181773 -1.455583
-4.628655 4.512738 -1.403736
-5.047987 4.940171 -1.356591
-5.572526 5.423580 -1.299324
-6.239155 6.098956 -1.243891
-7.095050 6.963535 -1.174181
-7.134752 7.009027 -0.943163
-7.144009 7.023851 -0.707357
0.009096 -0.191016 -0.005340
-7.149351 7.037785 -0.233147
-7.151207 7.045167 0.003047
-4.870398 4.743961 0.161503
0.009096 -0.191016 -0.005340
-18.133705 18.179695 1.821474
0.009096 -0.191016 -0.005340
-16.232790 16.280052 2.719046
-16.458502 16.521719 3.311770
-16.771803 16.846779 3.943765
0.009096 -0.191016 -0.005340
-0.396412 0.221461 -0.347644
-0.426225 0.252097 -0.353592
-0.450243 0.276740 -0.353147
-0.459400 0.286425 -0.340412
-0.472199 0.299695 -0.329925
-0.492530 0.320789 -0.323631
-2.604487 2.476957 -1.561711
-2.782546 2.659901 -1.559613
-2.979455 2.863361 -1.556678
-3.172817 3.062341 -1.538831
-3.357279 3.253577 -1.503895
-3.631948 3.537464 -1.495051
-3.944985 3.859696 -1.482253
-4.294008 4.220637 -1.460229
-4.603716 4.540120 -1.404203
-4.984092 4.934158 -1.347434
-5.558913 5.478838 -1.304234
-6.218432 6.153020 -1.247288
-6.997010 6.951614 -1.165288
-7.184101 7.147952 -0.955593
-7.190479 7.157523 -0.716271
-7.023969 6.993053 -0.465953
-7.091026 7.064553 -0.232743
-7.085839 7.064792 0.002931
-4.836912 4.768696 0.161301
0.009087 -0.190812 -0.005334
0.009087 -0.190812 -0.005334
-21.601446 21.961302 2.907279
0.009087 -0.190812 -0.005334
-16.377348 16.631975 3.314643
-8.566941 8.617270 2.024667
-15.682685 15.937873 4.253274
-0.402533 0.232549 -0.354775
-0.427411 0.258467 -0.356527
-0.447640 0.279494 -0.353147
-0.457978 0.290513 -0.341309
-0.463078 0.296166 -0.325655
-0.485851 0.319841 -0.321196
-2.593446 2.495654 -1.564046
-2.773876 2.684131 -1.563999
-2.962395 2.880166 -1.556710
-3.158034 3.084856 -1.540783
-3.367932 3.304655 -1.517601
-3.617786 3.564815 -1.497840
-3.913567 3.874201 -1.479269
-4.270696 4.246152 -1.460737
-4.581875 4.572391 -1.405914
-4.966808 4.975723 -1.350812
-5.470821 5.451937 -1.291070
-6.158108 6.162260 -1.242380
-6.923889 6.956540 -1.159842
-7.235927 7.283955 -0.968018
-7.245209 7.296623 -0.725871
-7.076919 7.128529 -0.472171
0.009079 -0.190612 -0.005329
0.009079 -0.190612 -0.005329
-4.848077 4.836107 0.162589
-17.862301 18.318808 1.215272
-17.814581 18.277046 1.810153
-8.437797 8.568168 1.139779
-16.065744 16.490534 2.722615
-8.408455 8.548036 1.709844
0.009079 -0.190612 -0.005329
0.009079 -0.190612 -0.005329
-0.397712 0.232625 -0.352737
-0.417561 0.253622 -0.350658
-0.441253 0.278493 -0.350335
-0.445291 0.283072 -0.334142
-0.459047 0.297763 -0.324801
-0.476496 0.316364 -0.317137
-2.585621 2.518760 -1.568691
-2.766324 2.709699 -1.569112
-2.951960 2.906057 -1.560839
-3.131280 3.094988 -1.536986
-3.339881 3.315918 -1.514073
-3.592823 3.583642 -1.496783
-3.898119 3.905287 -1.482345
-4.220147 4.246264 -1.452517
-4.550867 4.596869 -1.405142
-4.952379 5.022389 -1.355298
-5.386348 5.429440 -1.278875
-6.124497 6.203165 -1.243287
-6.914293 7.029464 -1.165226
-7.285141 7.422029 -0.980448
-7.295934 7.439108 -0.735479
0.009071 -0.190411 -0.005324
-7.153615 7.299310 -0.237668
-8.407197 8.616841 0.004379
-8.394662 8.607376 0.286839
0.009071 -0.190411 -0.005324
0.009071 -0.190411 -0.005324
0.009071 -0.190411 -0.005324
0.009071 -0.190411 -0.005324
0.009071 -0.190411 -0.005324
0.009071 -0.190411 -0.005324
-8.228992 8.474238 2.257090
-0.395203 0.235227 -0.352737
-0.418526 0.260140 -0.353593
-0.433603 0.276226 -0.346586
-0.438811 0.282058 -0.331454
-0.445030 0.288834 -0.317114
-0.471081 0.316693 -0.315514
-0.482030 0.328679 -0.303073
-2.752175 2.728503 -1.570595
-2.941856 2.931417 -1.564968
-3.122761 3.124201 -1.542132
-3.324899 3.340862 -1.516489
-3.584257 3.618472 -1.502323
-3.874506 3.927876 -1.482391
-4.199908 4.276366 -1.454406
-4.536170 4.635230 -1.408924
-4.986563 5.117441 -1.372688
-5.358391 5.467231 -1.280232
-6.038564 6.186783 -1.233398
-6.850897 7.048922 -1.161858
-7.343996 7.575209 -0.994540
-7.350701 7.585521 -0.745501
0.009063 -0.190207 -0.005318
-7.228559 7.465531 -0.241613
-8.349551 8.658027 0.004266
-8.335520 8.649953 0.286491
-8.317117 8.634133 0.570027
-8.317402 8.641183 0.853020
0.009063 -0.190207 -0.005318
-8.296176 8.629088 1.421002
-8.288214 8.627414 1.705993
-8.269121 8.610765 1.989489
-8.214041 8.558923 2.266655
-0.398731 0.243944 -0.357831
-0.413636 0.260170 -0.351636
-0.433423 0.281460 -0.348461
-0.430061 0.278225 -0.326975
-0.437425 0.286278 -0.313697
-0.462004 0.312891 -0.311455
-0.475353 0.327564 -0.300765
-2.753685 2.763099 -1.580789
-2.921825 2.945269 -1.563635
-3.105519 3.143188 -1.542805
-3.299948 3.354006 -1.514150
-3.552464 3.627392 -1.497966
-3.862055 3.960977 -1.486476
-4.159033 4.282865 -1.448939
-4.502530 4.653533 -1.406905
-4.958223 5.146844 -1.373116
-5.342985 5.514533 -1.284168
-6.006966 6.224936 -1.234300
-6.837611 7.116243 -1.166548
-7.391793 7.713678 -1.006973
-7.412204 7.738802 -0.756213
0.009055 -0.190006 -0.005313
-7.350990 7.682706 -0.247129
-8.339684 8.747084 0.004209
-8.317496 8.730162 0.287492
-8.318213 8.734674 0.573430
-8.317019 8.740217 0.857997
0.009055 -0.190006 -0.005313
-15.372515 16.327204 2.651854
-15.310590 16.273342 3.173038
-15.654626 16.650099 3.791557
-15.555358 16.556232 4.320529
-0.389133 0.238988 -0.351718
-0.407407 0.259034 -0.348702
-0.425847 0.279094 -0.344711
-0.427280 0.281025 -0.326975
-0.438208 0.293178 -0.316261
-0.456522 0.313198 -0.309832
-0.473557 0.331981 -0.301535
-2.736881 2.781455 -1.581549
-2.884079 2.942056 -1.553431
-3.091556 3.169277 -1.546038
-3.286043 3.382736 -1.517756
-3.531082 3.650032 -1.498559
-3.806508 3.951967 -1.474909
-4.116637 4.290491 -1.443475
-4.475564 4.684029 -1.407792
-4.914959 5.165657 -1.370229
-5.327872 5.566604 -1.288754
-6.029437 6.326039 -1.246834
-6.749646 7.108776 -1.159032
-7.461144 7.883297 -1.022914
-7.465380 7.891218 -0.766519
-7.328530 7.749348 -0.501109
0.009045 -0.189798 -0.005307
0.009045 -0.189798 -0.005307
-17.210466 18.477848 0.603862
-17.105003 18.377779 1.191720
0.009045 -0.189798 -0.005307
-19.711033 21.230490 2.733568
-15.181410 16.323002 2.635976
-15.232909 16.385912 3.177031
0.009045 -0.189798 -0.005307
-15.806478 17.036148 4.419216
-0.398296 0.254149 -0.361907
-0.407182 0.264190 -0.350658
-0.421960 0.280481 -0.343774
-0.419759 0.278447 -0.323391
-0.428189 0.287861 -0.311135
-0.453630 0.316066 -0.309833
-0.465569 0.329498 -0.298459
-2.713995 2.790025 -1.577949
-2.886306 2.981038 -1.564386
-3.066397 3.179698 -1.542879
-3.267364 3.402651 -1.518388
-3.514126 3.676197 -1.500800
-3.788583 3.979085 -1.476974
-4.111770 4.337362 -1.450879
-4.449657 4.710592 -1.408259
-4.877096 5.184490 -1.368075
-5.272043 5.572644 -1.283333
-6.017319 6.388590 -1.252169
-6.730378 7.172619 -1.163035
-7.510038 8.030640 -1.036092
0.009038 -0.189598 -0.005302
-7.356859 7.872733 -0.506243
-7.369172 7.889563 -0.250999
-19.191059 20.850712 0.016349
-19.158646 20.831324 0.676793
-17.034876 18.510033 1.193869
-17.517559 19.054369 1.834675
-19.099358 20.799948 2.664578
-15.082448 16.400314 2.634614
-15.325187 16.680134 3.216290
-15.524700 16.906775 3.807756
-15.665283 17.074829 4.406374
-0.388902 0.248963 -0.355793
-0.403479 0.265411 -0.349680
-0.413321 0.276605 -0.339086
-0.407550 0.270428 -0.316223
-0.420595 0.285202 -0.307719
-0.444621 0.312133 -0.305772
-0.458878 0.328308 -0.296151
-2.703053 2.812737 -1.581611
-2.883147 3.014567 -1.572611
-3.046404 3.198046 -1.542916
-3.265206 3.443464 -1.527343
-3.495714 3.700864 -1.502492
-3.781941 4.021837 -1.484092
-4.079680 4.356094 -1.449092
-4.434077 4.753890 -1.412875
-4.821526 5.187212 -1.361499
-5.311408 5.681167 -1.300825
-5.984713 6.429195 -1.253352
-6.621256 7.135149 -1.151364
-7.570983 8.190781 -1.050927
-7.590025 8.218307 -0.789204
-7.559478 8.190931 -0.523386
-7.546360 8.179913 -0.258594
0.009030 -0.189397 -0.005297
-16.898283 18.568119 0.599960
-16.828884 18.505499 1.186916
-19.794659 21.807547 2.086708
-19.492746 21.488865 2.737168
-14.998499 16.505913 2.636981
-15.128380 16.663368 3.195654
-8.976588 9.818666 2.214789
-8.582636 9.387246 2.428701
-0.396569 0.263111 -0.364963
-0.400710 0.268115 -0.349681
-0.404650 0.272723 -0.334399
-0.401146 0.269166 -0.313536
-0.412939 0.282550 -0.304302
-0.436767 0.309561 -0.302525
-0.457036 0.332644 -0.296922
-2.703846 2.849793 -1.592535
-2.852843 3.019208 -1.566503
-3.028130 3.217163 -1.543591
-3.241731 3.459566 -1.526193
-3.479017 3.728929 -1.505284
-3.749965 4.035074 -1.481107
-4.045732 4.370987 -1.446384
-4.394761 4.765612 -1.409199
-4.825763 5.254775 -1.371519
-5.299200 5.740167 -1.306706
-5.928241 6.445587 -1.249831
-6.608231 7.211190 -1.156985
-7.653744 8.387040 -1.069645
-7.651747 8.388377 -0.800899
-7.499060 8.223897 -0.522753
-7.484677 8.211299 -0.258290
-37.934532 42.378654 0.037000
-16.679144 18.547226 0.595849
-16.625483 18.494785 1.179878
0.009021 -0.189193 -0.005291
-19.469671 21.715445 2.751327
-20.215307 22.571489 3.578175
-14.956300 16.665949 3.179503
-18.868559 21.081148 4.688681
-8.496132 9.401427 2.419667
-0.386045 0.256554 -0.357831
-0.393553 0.265367 -0.345767
-0.399756 0.272569 -0.332523
-0.398612 0.271641 -0.313535
-0.413835 0.289230 -0.306865
-0.429070 0.306834 -0.299277
-0.457790 0.339588 -0.299231
-2.688804 2.868324 -1.594018
-2.844317 3.047076 -1.571997
-3.006005 3.231911 -1.542349
-3.213134 3.469785 -1.522666
-3.447525 3.739006 -1.501478
-3.735824 4.068437 -1.485195
-4.034852 4.411963 -1.451951
-4.373068 4.800624 -1.411743
-4.831050 5.326355 -1.382278
-5.209798 5.706311 -1.292891
-5.913622 6.506512 -1.254890
-6.572154 7.254109 -1.157990
-7.655933 8.486529 -1.076746
-7.711898 8.556625 -0.812457
-7.711149 8.559436 -0.540821
0.009013 -0.188993 -0.005286
-7.723157 8.586555 0.003282
-16.594271 18.662689 0.596350
-16.563980 18.642824 1.182967
-19.856674 22.401733 2.120427
-19.740450 22.286907 2.808165
-19.786566 22.348866 3.524841
-14.958438 16.865068 3.200567
-20.489597 23.185350 5.125809
-8.431824 9.440047 2.416953
-0.384544 0.260377 -0.358850
-0.389704 0.266633 -0.344789
-0.394697 0.272522 -0.330648
-0.389992 0.267515 -0.309056
-0.406252 0.286475 -0.303448
-0.429808 0.313680 -0.301714
-0.448587 0.335587 -0.295385
-2.671869 2.885843 -1.594777
-2.823200 3.060781 -1.570666
-2.990661 3.255617 -1.544942
-3.183890 3.480355 -1.519140
-3.416049 3.748850 -1.497671
-3.713089 4.093656 -1.486252
-3.990466 4.414757 -1.445566
-4.355868 4.839223 -1.415527
-4.761889 5.311223 -1.371643
-5.130603 5.686807 -1.281984
-5.854166 6.516789 -1.250536
-6.560614 7.330564 -1.163840
-7.610961 8.539484 -1.077771
-7.779570 8.736365 -0.824984
-7.770802 8.733211 -0.548721
-7.776238 8.746341 -0.271845
-7.667316 8.625041 0.003175
-16.563667 18.854445 0.599087
-9.190991 10.390847 0.658692
-19.607391 22.378788 2.107331
-19.523428 22.299597 2.795353
-19.724337 22.548483 3.537420
-20.237886 23.150028 4.359747
-8.820300 9.996734 2.219319
-3.978255 4.414479 1.146676
-0.379710 0.260230 -0.356812
-0.390529 0.273069 -0.347724
-0.387404 0.269696 -0.326898
-0.383870 0.265942 -0.306367
-0.405867 0.291794 -0.305158
-0.426916 0.316392 -0.301715
-0.444369 0.337013 -0.294616
-2.659029 2.907039 -1.597713
-2.814260 3.088598 -1.576162
-2.968333 3.270124 -1.543701
-3.166461 3.503186 -1.520963
-3.404645 3.781787 -1.502663
-3.695969 4.123982 -1.489330
-3.975363 4.451152 -1.449753
-4.344699 4.885221 -1.421386
-4.693106 5.295476 -1.361005
-5.153544 5.782146 -1.296254
-5.810334 6.544590 -1.249504
-6.544539 7.399982 -1.168768
-7.589262 8.616514 -1.081927
-7.844103 8.915662 -0.837376
-7.838078 8.915707 -0.557172
-7.723421 8.789646 -0.271903
-7.852688 8.943579 0.003332
0.008967 -0.188594 -0.005274
0.008967 -0.188594 -0.005274
-9.115313 10.431127 0.983809
-19.409382 22.429892 2.797333
-8.949585 10.254417 1.613672
-8.052965 9.213210 1.744316
-15.105549 17.451569 3.828209
0.008967 -0.188594 -0.005274
-0.378254 0.263962 -0.357831
-0.386722 0.274233 -0.346746
-0.382498 0.269475 -0.325022
-0.385896 0.273833 -0.309952
-0.399597 0.290242 -0.302595
-0.426404 0.321865 -0.303340
-0.436563 0.334188 -0.291539
-2.642377 2.923939 -1.598472
-2.799056 3.109255 -1.578244
-2.950864 3.290261 -1.545015
-3.153844 3.531758 -1.525163
-3.384247 3.804471 -1.503805
-3.669868 4.143924 -1.488871
-3.952394 4.478629 -1.451183
-4.307868 4.901406 -1.418955
-4.679291 5.343606 -1.366231
-5.115287 5.807420 -1.295352
-5.771534 6.578125 -1.249580
-6.458248 7.387866 -1.161245
-7.479071 8.590553 -1.073547
-7.921088 9.112687 -0.851291
-7.801153 8.979123 -0.558378
-7.726123 8.898101 -0.273896
-7.788402 8.975122 0.003215
-48.318336 56.650208 1.779471
0.008959 -0.188393 -0.005269
0.008959 -0.188393 -0.005269
-19.410448 22.696259 2.816158
-20.313303 23.778812 3.691822
0.008959 -0.188393 -0.005269
-15.014102 17.550463 3.830607
-7.744886 8.974280 2.264968
-0.375647 0.266382 -0.357831
-0.381818 0.274036 -0.344789
-0.377584 0.269220 -0.323147
-0.383235 0.276295 -0.309952
-0.396858 0.292780 -0.302595
-0.421013 0.321843 -0.301717
-0.428805 0.331291 -0.288462
-2.620857 2.935041 -1.596325
-2.779469 3.126023 -1.578279
-2.936915 3.314664 -1.548246
-3.133644 3.551529 -1.525796
-3.358078 3.821740 -1.502749
-3.629979 4.147407 -1.482856
-3.935947 4.515624 -1.455373
-4.309079 4.964570 -1.429373
-4.656516 5.383533 -1.369246
-5.099828 5.859595 -1.300262
-5.793947 6.686612 -1.263230
-6.470949 7.491927 -1.171476
-7.475960 8.689995 -1.080470
-7.991817 9.309243 -0.864937
0.008951 -0.188193 -0.005263
-7.824381 9.121631 -0.279268
-7.785457 9.082597 0.003162
-14.815179 17.451290 0.545721
-9.017452 10.560825 0.659080
-14.763987 17.417700 1.617884
-14.740557 17.403479 2.152566
-7.494383 8.764795 1.369003
-7.357837 8.608709 1.615426
-14.872054 17.595503 3.820951
-15.395650 18.229074 4.535734
-0.367446 0.262248 -0.352736
-0.371241 0.267172 -0.337940
-0.372613 0.268988 -0.321272
-0.378203 0.276062 -0.308160
-0.396327 0.298151 -0.304304
-0.416917 0.323100 -0.300905
-0.426906 0.335495 -0.289232
-2.596349 2.943588 -1.592727
-2.759156 3.140744 -1.577631
-2.925788 3.343906 -1.553395
-3.122402 3.583495 -1.531187
-3.325135 3.829387 -1.498392
-3.596816 4.160144 -1.479873
-3.916275 4.547410 -1.458183
-4.268139 4.975939 -1.425699
-4.610625 5.393797 -1.365248
-5.079095 5.908127 -1.304206
-5.697233 6.651613 -1.250842
-6.422798 7.527321 -1.171104
-7.476780 8.798638 -1.088319
-8.066017 9.510150 -0.878998
-8.056503 9.506248 -0.584660
0.008942 -0.187989 -0.005258
0.008942 -0.187989 -0.005258
-14.697659 17.523632 0.545032
-8.943405 10.602024 0.658197
0.008942 -0.187989 -0.005258
0.008942 -0.187989 -0.005258
0.008942 -0.187989 -0.005258
-7.352594 8.706061 1.625396
-7.778362 9.227792 2.010792
0.008942 -0.187989 -0.005258
-0.364857 0.264602 -0.352736
-0.365313 0.265510 -0.335004
-0.364365 0.264562 -0.316583
-0.375534 0.278478 -0.308160
-0.393523 0.300675 -0.304305
-0.412816 0.324331 -0.300093
-0.421553 0.335340 -0.287694
-2.577107 2.957268 -1.592033
-2.741159 3.158246 -1.578348
-2.913855 3.371161 -1.557904
-3.105531 3.607527 -1.533604
-3.300763 3.847196 -1.497884
-3.585253 4.197455 -1.485476
-3.880349 4.559554 -1.455016
-4.255736 5.021831 -1.431558
-4.588414 5.432630 -1.368261
-5.076628 5.977057 -1.312668
-5.686801 6.719648 -1.257290
-6.398543 7.588900 -1.174881
-7.538911 8.980097 -1.105019
-8.135667 9.709129 -0.892785
-8.127542 9.706973 -0.593951
-7.925889 9.469293 -0.286965
0.008934 -0.187788 -0.005253
0.008934 -0.187788 -0.005253
-8.815358 10.573199 0.653159
-8.570901 10.279496 0.950353
0.008934 -0.187788 -0.005253
0.008934 -0.187788 -0.005253
0.008934 -0.187788 -0.005253
0.008934 -0.187788 -0.005253
-7.222363 8.665748 2.156507
-0.358990 0.262944 -0.349679
-0.363817 0.269202 -0.335983
-0.359517 0.264162 -0.314708
-0.372861 0.280879 -0.308160
-0.389582 0.301776 -0.303451
-0.412175 0.329782 -0.301719
-0.418559 0.338002 -0.287694
-2.557811 2.970830 -1.591339
-2.717162 3.168351 -1.575651
-2.894541 3.389568 -1.558581
-3.086052 3.628530 -1.534833
-3.281154 3.870828 -1.499577
-3.555122 4.212220 -1.483502
-3.837065 4.562362 -1.449089
-4.201110 5.016033 -1.423324
-4.570868 5.477504 -1.372750
-5.071033 6.043102 -1.320486
-5.648232 6.754012 -1.257644
-6.362511 7.636591 -1.176582
-7.602963 9.167194 -1.122277
-8.222151 9.932452 -0.908649
-8.215409 9.932095 -0.604624
-8.007641 9.684142 -0.291988
0.008927 -0.187588 -0.005247
0.008927 -0.187588 -0.005247
0.008927 -0.187588 -0.005247
-8.864718 10.766021 0.989952
-8.541669 10.375515 1.271783
-7.238611 8.772803 1.350238
-19.469072 23.904024 4.369819
-7.658446 9.303340 2.007648
-7.570065 9.201311 2.276438
-0.357486 0.266593 -0.350698
-0.360099 0.270186 -0.335004
-0.362475 0.273354 -0.319396
-0.371287 0.284662 -0.309056
-0.385637 0.302854 -0.302596
-0.410368 0.333818 -0.302531
-0.415531 0.340659 -0.287695
-2.546626 2.994441 -1.595728
-2.697825 3.184164 -1.575685
-2.884598 3.419703 -1.564368
-3.068841 3.652414 -1.537251
-3.264994 3.898872 -1.502919
-3.534589 4.238881 -1.485569
-3.820654 4.598266 -1.453278
-4.180886 5.052574 -1.426697
-4.575037 5.550006 -1.383882
-5.056192 6.098526 -1.326044
-5.656691 6.846779 -1.268525
-6.322416 7.679479 -1.177592
-7.574018 9.242038 -1.126072
-8.323820 10.178863 -0.926453
-8.302224 10.160103 -0.615393
-8.113436 9.932998 -0.297963
-8.103389 9.924782 0.003301
0.008917 -0.187380 -0.005242
0.008917 -0.187380 -0.005242
-8.685650 10.672238 0.976731
-7.178432 8.796755 1.075778
-7.210547 8.844028 1.354576
-19.311712 23.992655 4.365344
-7.566824 9.301233 1.997776
0.008917 -0.187380 -0.005242
-0.352729 0.266201 -0.348660
-0.352017 0.265682 -0.330112
-0.357619 0.272916 -0.317521
-0.365241 0.282841 -0.306368
-0.386195 0.309561 -0.305160
-0.409557 0.339353 -0.304157
-0.410190 0.340401 -0.286157
-2.530592 3.012192 -1.597213
-2.683647 3.207690 -1.579135
-2.868530 3.442407 -1.566961
-3.055021 3.680715 -1.541452
-3.253858 3.934969 -1.509013
-3.500698 4.248742 -1.482079
-3.788628 4.616475 -1.451951
-4.181313 5.117412 -1.437533
-4.534862 5.569540 -1.382101
-5.029809 6.140087 -1.328696
-5.591486 6.850964 -1.263341
-6.272130 7.709726 -1.176757
-7.534547 9.304387 -1.128391
-8.404958 10.407922 -0.942468
-8.391646 10.395695 -0.626534
-8.207958 10.172418 -0.303627
-8.183718 10.149985 0.003331
0.008909 -0.187179 -0.005236
0.008909 -0.187179 -0.005236
0.008909 -0.187179 -0.005236
-7.100379 8.808149 1.071933
-7.200393 8.938591 1.362417
-7.480814 9.301031 1.701608
0.008909 -0.187179 -0.005236
0.008909 -0.187179 -0.005236
-0.354301 0.273940 -0.352737
-0.341796 0.258413 -0.323261
-0.356008 0.276665 -0.318458
-0.367993 0.292276 -0.310849
-0.379889 0.307829 -0.302598
-0.401995 0.336203 -0.300909
-0.415057 0.353236 -0.291545
-2.517370 3.034695 -1.600877
-2.662910 3.221829 -1.578486
-2.849322 3.462562 -1.568277
-3.033236 3.700490 -1.542088
-3.212335 3.931130 -1.500806
-3.489825 4.289474 -1.488696
-3.766936 4.646088 -1.454301
-4.124251 5.107678 -1.428470
-4.511366 5.608160 -1.385116
-4.955626 6.123482 -1.319078
