# This PCD file was generated using the MATLAB® pcwrite function
# from Computer Vision Toolbox®.
# .PCD v.7 - Point Cloud Data file format
VERSION .7
FIELDS x y z
SIZE 4 4 4
TYPE F F F
COUNT 1 1 1
WIDTH 1631
HEIGHT 1
VIEWPOINT 0 0 0 1 0 0 0
POINTS 1631
DATA ascii
4.723555 -0.163113 -1.847248
5.063851 -0.168810 -1.845991
5.467080 -0.175519 -1.850366
5.928738 -0.183244 -1.853208
6.431412 -0.190698 -1.847540
7.004444 -0.200458 -1.837198
7.683654 -0.212044 -1.824302
8.559036 -0.226827 -1.823211
9.650313 -0.243595 -1.822389
11.147092 -0.215917 -1.835810
12.994688 -0.238247 -1.831057
15.971684 -0.270775 -1.870250
21.528311 -0.334805 -2.014747
0.003317 -0.107555 -0.003091
37.913452 -0.533270 -1.776973
50.786137 -0.686031 -1.190037
0.003317 -0.107555 -0.003091
78.598701 -1.055695 1.809687
78.672333 -1.083026 3.653722
78.610001 -1.094957 5.481917
56.308918 -0.833753 5.241677
54.623257 -0.830368 6.376360
51.358959 -0.804424 7.207120
0.003317 -0.107555 -0.003091
0.003317 -0.107555 -0.003091
3.066397 -0.156020 -1.820506
3.237012 -0.159808 -1.820883
3.426647 -0.163422 -1.824220
3.643383 -0.168183 -1.831625
3.880015 -0.172756 -1.839072
4.146238 -0.178626 -1.848673
4.427787 -0.184949 -1.852245
4.721269 -0.190844 -1.846503
5.069036 -0.198690 -1.848025
5.472273 -0.206840 -1.852268
5.933906 -0.217223 -1.854974
6.440407 -0.228762 -1.850275
7.001869 -0.240477 -1.836667
7.684856 -0.256045 -1.824736
8.562160 -0.274400 -1.824014
9.667068 -0.299212 -1.825690
11.152145 -0.283777 -1.836742
13.005573 -0.315203 -1.832681
15.990268 -0.368284 -1.872512
21.604183 -0.467174 -2.021922
0.003311 -0.107346 -0.003091
38.147942 -0.761740 -1.787954
50.707851 -0.985394 -1.188120
0.003311 -0.107346 -0.003091
0.003311 -0.107346 -0.003091
0.003311 -0.107346 -0.003091
58.459167 -1.188000 4.076430
55.117119 -1.135116 5.131332
51.932934 -1.093178 6.062888
55.179836 -1.173351 7.744500
0.003311 -0.107346 -0.003091
49.120716 -1.080694 9.245334
3.069490 -0.172978 -1.822535
3.240180 -0.177711 -1.822832
3.424505 -0.182268 -1.823269
3.641205 -0.188240 -1.830715
3.886796 -0.195009 -1.842482
4.140303 -0.202118 -1.846217
4.427294 -0.209415 -1.852230
4.720714 -0.217773 -1.846486
5.074044 -0.227753 -1.850060
5.481088 -0.238312 -1.855451
5.933185 -0.251121 -1.854953
6.426163 -0.265239 -1.846391
7.006774 -0.280663 -1.838161
7.687763 -0.300109 -1.825631
8.545346 -0.324510 -1.820652
9.679507 -0.356615 -1.828247
11.154911 -0.345821 -1.837351
13.019989 -0.390105 -1.834862
16.012379 -0.457737 -1.875242
21.689428 -0.589352 -2.030032
0.003305 -0.107134 -0.003092
38.425327 -0.980599 -1.800996
83.078522 -2.023621 -1.944581
0.003305 -0.107134 -0.003092
0.003305 -0.107134 -0.003092
79.804306 -2.014597 3.707702
0.003305 -0.107134 -0.003092
0.003305 -0.107134 -0.003092
0.003305 -0.107134 -0.003092
0.003305 -0.107134 -0.003092
48.969997 -1.351256 8.037118
0.003305 -0.107134 -0.003092
3.072497 -0.191032 -1.824565
3.234458 -0.196543 -1.819880
3.423982 -0.202342 -1.823256
3.644228 -0.209692 -1.832497
3.880808 -0.217658 -1.839900
4.148807 -0.225968 -1.850271
4.426608 -0.235426 -1.852214
4.736718 -0.246011 -1.853018
5.084529 -0.257043 -1.854147
5.487771 -0.270790 -1.857992
5.936045 -0.286165 -1.856123
6.440514 -0.302439 -1.850779
7.017231 -0.322306 -1.841175
7.704030 -0.344629 -1.829754
8.559610 -0.373907 -1.823949
9.672006 -0.411864 -1.827099
11.163177 -0.411951 -1.838932
13.028042 -0.465020 -1.836207
16.029873 -0.552931 -1.877503
21.765806 -0.719865 -2.037392
0.003268 -0.106928 -0.003092
38.703045 -1.216140 -1.814118
83.675278 -2.533238 -1.958505
0.003268 -0.106928 -0.003092
0.003268 -0.106928 -0.003092
80.420624 -2.505860 3.737269
56.486458 -1.800989 3.940284
52.374378 -1.695249 4.877614
52.886761 -1.728549 6.176507
59.024143 -1.926250 8.287140
47.395733 -1.583713 7.780078
48.799450 -1.643826 9.187984
3.071946 -0.208483 -1.824554
3.237390 -0.215035 -1.821828
3.425167 -0.221863 -1.824183
3.645360 -0.230487 -1.833381
3.887332 -0.239325 -1.843309
4.140734 -0.249356 -1.847000
4.422112 -0.260527 -1.850655
4.735878 -0.272200 -1.853001
5.091109 -0.286321 -1.856865
5.494348 -0.301434 -1.860534
5.944491 -0.319383 -1.859081
6.439282 -0.339247 -1.850755
7.019808 -0.361346 -1.842164
7.710315 -0.388992 -1.831571
8.561880 -0.421558 -1.824749
9.683913 -0.466076 -1.829658
11.178976 -0.476505 -1.841810
13.051494 -0.540559 -1.839780
16.052849 -0.645743 -1.880461
21.857449 -0.848028 -2.046239
0.003262 -0.106716 -0.003092
38.983547 -1.448336 -1.827426
0.003262 -0.106716 -0.003092
0.003262 -0.106716 -0.003092
47.145428 -1.768523 1.085534
53.681610 -2.007574 2.494243
53.068226 -2.003681 3.702546
55.142849 -2.086730 5.136780
52.861000 -2.022534 6.174850
54.729568 -2.108633 7.685617
0.003262 -0.106716 -0.003092
48.061405 -1.888564 9.050883
3.074774 -0.225522 -1.826584
3.236720 -0.232867 -1.821816
3.424464 -0.240740 -1.824170
3.641049 -0.250448 -1.831573
3.879300 -0.261164 -1.839871
4.152621 -0.273460 -1.852680
4.435948 -0.285557 -1.856808
4.742293 -0.299515 -1.855894
5.101261 -0.315836 -1.860952
5.487453 -0.332574 -1.858591
5.956515 -0.353899 -1.863230
6.441677 -0.376212 -1.851833
7.020157 -0.401566 -1.842643
7.706616 -0.433019 -1.831079
8.565740 -0.472303 -1.825964
9.709097 -0.524406 -1.834807
11.198441 -0.539443 -1.845337
13.058668 -0.615769 -1.841122
16.065483 -0.735638 -1.882258
21.888815 -0.971076 -2.049506
0.003255 -0.106504 -0.003093
39.286869 -1.677900 -1.841853
0.003255 -0.106504 -0.003093
0.003255 -0.106504 -0.003093
0.003255 -0.106504 -0.003093
81.597931 -3.465761 3.794181
54.218590 -2.356766 3.783933
55.460403 -2.426935 5.167798
0.003255 -0.106504 -0.003093
49.588058 -2.205848 6.965047
47.947376 -2.152478 7.874399
46.322277 -2.090571 8.725437
3.070592 -0.243364 -1.824531
3.232425 -0.251668 -1.819844
3.427115 -0.260973 -1.826035
3.647260 -0.272126 -1.835148
3.878321 -0.283925 -1.839856
4.144319 -0.296775 -1.849410
4.429270 -0.311362 -1.854477
4.733608 -0.327042 -1.852964
5.101833 -0.345035 -1.861616
5.495498 -0.365305 -1.861772
5.954945 -0.388965 -1.863206
6.441937 -0.413119 -1.852359
7.022124 -0.443123 -1.843628
7.708506 -0.477293 -1.831972
8.573265 -0.521804 -1.828010
9.700646 -0.579721 -1.833657
11.217366 -0.606529 -1.848862
13.067417 -0.691155 -1.842743
16.095219 -0.832104 -1.886141
21.964848 -1.104233 -2.057045
0.003249 -0.106292 -0.003093
39.721924 -1.930846 -1.862528
0.003249 -0.106292 -0.003093
0.003249 -0.106292 -0.003093
0.003249 -0.106292 -0.003093
53.919132 -2.646042 2.506937
54.384109 -2.676698 3.796682
55.462040 -2.746276 5.169503
0.003249 -0.106292 -0.003093
0.003249 -0.106292 -0.003093
47.913086 -2.426801 7.871027
46.486343 -2.373296 8.758932
3.074905 -0.261058 -1.827580
3.241995 -0.270563 -1.825711
3.422659 -0.280272 -1.824143
3.644475 -0.292781 -1.834237
3.891659 -0.306753 -1.846688
4.146798 -0.320571 -1.851021
4.433527 -0.336899 -1.856772
4.747162 -0.354817 -1.858767
5.102253 -0.374250 -1.862280
5.501468 -0.397083 -1.864312
5.974210 -0.424098 -1.869739
6.455405 -0.450761 -1.856745
7.020086 -0.483274 -1.843600
7.712052 -0.521708 -1.833325
8.572684 -0.570982 -1.828392
9.711496 -0.636021 -1.836211
11.232033 -0.671696 -1.851737
13.083609 -0.767062 -1.845476
16.120533 -0.925937 -1.889559
21.986599 -1.231718 -2.059561
0.003243 -0.106080 -0.003094
46.294769 -2.499395 -2.170658
86.165154 -4.589674 -2.017208
54.754723 -2.963984 -0.010063
0.003243 -0.106080 -0.003094
82.798004 -4.483417 3.852826
54.541729 -2.998293 3.809019
0.003243 -0.106080 -0.003094
0.003243 -0.106080 -0.003094
60.477509 -3.363415 8.500540
52.336914 -2.942506 8.600855
46.486256 -2.641004 8.761711
3.075649 -0.279144 -1.828588
3.240939 -0.289548 -1.825697
3.419782 -0.300228 -1.823190
3.643281 -0.314150 -1.834221
3.883172 -0.329168 -1.843248
4.150928 -0.345228 -1.853445
4.433930 -0.363041 -1.857525
4.754904 -0.383253 -1.862386
5.106213 -0.404574 -1.864312
5.503429 -0.429671 -1.865570
5.968401 -0.459036 -1.868522
6.449414 -0.488549 -1.855615
7.033172 -0.525557 -1.847624
7.723072 -0.567978 -1.836522
8.575643 -0.621890 -1.829604
9.723888 -0.694270 -1.839135
11.226534 -0.737889 -1.851366
13.083427 -0.844559 -1.845978
16.129269 -1.021991 -1.891116
22.047138 -1.365591 -2.065793
0.003236 -0.105864 -0.003095
46.401432 -2.780406 -2.176159
55.151592 -3.303315 -1.292423
55.327824 -3.322438 -0.009903
55.533546 -3.353062 1.281532
0.003236 -0.105864 -0.003095
0.003236 -0.105864 -0.003095
55.230583 -3.381342 5.151596
0.003236 -0.105864 -0.003095
0.003236 -0.105864 -0.003095
0.003236 -0.105864 -0.003095
48.273354 -3.025094 9.101999
3.076303 -0.296718 -1.829596
3.236351 -0.307741 -1.823724
3.420384 -0.319778 -1.824115
3.638476 -0.334652 -1.832412
3.885453 -0.351501 -1.844944
4.153112 -0.369107 -1.855055
4.437893 -0.388669 -1.859820
4.753206 -0.410376 -1.862366
5.108164 -0.433953 -1.865659
5.512843 -0.461822 -1.869390
5.975778 -0.493751 -1.871476
6.468214 -0.526780 -1.861655
7.038376 -0.566277 -1.849622
7.728050 -0.612671 -1.838336
8.588142 -0.672004 -1.832897
9.728178 -0.750478 -1.840576
11.256202 -0.804293 -1.856835
13.102680 -0.921037 -1.849267
16.157438 -1.116608 -1.894996
22.075298 -1.494373 -2.069049
0.003229 -0.105652 -0.003095
46.399258 -3.047831 -2.176618
0.003229 -0.105652 -0.003095
78.558960 -5.126259 -0.012434
0.003229 -0.105652 -0.003095
0.003229 -0.105652 -0.003095
0.003229 -0.105652 -0.003095
0.003229 -0.105652 -0.003095
52.051266 -3.510453 6.090304
59.055805 -3.978149 8.306930
55.041409 -3.733391 9.052320
46.778976 -3.204482 8.823537
3.071734 -0.313950 -1.827543
3.235159 -0.326127 -1.823712
3.424393 -0.339583 -1.826919
3.642432 -0.355721 -1.835089
3.883958 -0.373620 -1.844928
4.149716 -0.392638 -1.854224
4.441741 -0.414344 -1.862115
4.755110 -0.437742 -1.863802
5.108069 -0.463234 -1.866322
5.514469 -0.493566 -1.870648
5.982985 -0.528558 -1.874431
6.471443 -0.564156 -1.863283
7.039448 -0.606801 -1.850605
7.721122 -0.656601 -1.837380
8.590587 -0.721580 -1.834108
9.706670 -0.804910 -1.837200
11.251976 -0.868788 -1.856787
13.103692 -0.996546 -1.850047
16.183079 -1.211443 -1.898643
22.102718 -1.623519 -2.072303
0.003223 -0.105440 -0.003096
46.465282 -3.320146 -2.180342
53.910378 -3.853395 -1.263871
53.373795 -3.824671 -0.009214
52.887577 -3.808575 1.221675
0.003223 -0.105440 -0.003096
0.003223 -0.105440 -0.003096
0.003223 -0.105440 -0.003096
60.551140 -4.415995 7.088454
56.152153 -4.111845 7.901683
54.789284 -4.033006 9.014645
49.800880 -3.692111 9.397737
3.070469 -0.331395 -1.827530
3.235546 -0.344640 -1.824677
3.428258 -0.359447 -1.829722
3.640939 -0.376441 -1.835074
3.891370 -0.396404 -1.849191
4.147934 -0.417001 -1.854206
4.443548 -0.439942 -1.863638
4.758699 -0.465279 -1.865965
5.111465 -0.493700 -1.868352
5.517814 -0.525478 -1.872546
5.984257 -0.563028 -1.875598
6.455197 -0.601236 -1.859394
7.046113 -0.647788 -1.853109
7.721610 -0.702415 -1.838269
8.600435 -0.773303 -1.836982
9.716083 -0.863256 -1.839751
11.300542 -0.937170 -1.865499
13.117924 -1.075409 -1.852774
16.212103 -1.306900 -1.902752
22.153179 -1.754805 -2.077787
0.003216 -0.105228 -0.003096
46.573524 -3.596607 -2.186117
0.003216 -0.105228 -0.003096
0.003216 -0.105228 -0.003096
53.040859 -4.125667 1.225971
0.003216 -0.105228 -0.003096
0.003216 -0.105228 -0.003096
0.003216 -0.105228 -0.003096
0.003216 -0.105228 -0.003096
0.003216 -0.105228 -0.003096
44.850010 -3.587379 7.382121
0.003216 -0.105228 -0.003096
3.069079 -0.349362 -1.827516
3.242760 -0.364283 -1.829562
3.426684 -0.379535 -1.829706
3.644616 -0.398217 -1.837751
3.885961 -0.418946 -1.847462
4.155165 -0.441368 -1.858257
4.447022 -0.466488 -1.865932
4.762043 -0.493704 -1.868127
5.109136 -0.522870 -1.868330
5.513326 -0.557793 -1.871880
5.990963 -0.599039 -1.878551
6.473294 -0.639874 -1.865431
7.048548 -0.689786 -1.854598
7.729682 -0.747553 -1.841003
8.596463 -0.822527 -1.836945
9.723309 -0.919876 -1.841931
11.307240 -1.004822 -1.867396
13.127932 -1.151860 -1.854945
16.236380 -1.405245 -1.906393
22.139053 -1.885484 -2.077315
0.003210 -0.105016 -0.003097
31.575388 -2.660181 -1.483608
54.737839 -4.553145 -1.283864
0.003210 -0.105016 -0.003097
56.748646 -4.744783 1.312765
52.543396 -4.418621 2.449760
52.276939 -4.405154 3.659056
0.003210 -0.105016 -0.003097
0.003210 -0.105016 -0.003097
65.397896 -5.539014 9.212220
50.316425 -4.302729 8.286379
48.466759 -4.164701 9.154655
3.071036 -0.367085 -1.829543
3.227331 -0.381512 -1.821710
3.421524 -0.398714 -1.827813
3.644649 -0.419105 -1.838632
3.882356 -0.440232 -1.846589
4.149526 -0.464719 -1.856611
4.443018 -0.491678 -1.865141
4.759801 -0.520031 -1.868106
5.114135 -0.552678 -1.871044
5.522038 -0.589300 -1.875699
5.984289 -0.631886 -1.877333
6.473956 -0.677201 -1.866506
7.049022 -0.729203 -1.855580
7.733614 -0.792461 -1.842814
8.604030 -0.871265 -1.839404
9.726431 -0.974561 -1.843371
11.295963 -1.069103 -1.866372
13.137470 -1.228459 -1.857115
16.260305 -1.501083 -1.910035
22.128462 -2.012533 -2.077216
0.003204 -0.104804 -0.003097
0.003204 -0.104804 -0.003097
0.003204 -0.104804 -0.003097
0.003204 -0.104804 -0.003097
0.003204 -0.104804 -0.003097
86.668297 -7.706747 4.045191
51.977058 -4.681261 3.640066
52.050682 -4.696110 4.866258
50.668930 -4.591271 5.939888
49.417522 -4.497092 6.963964
47.469311 -4.331538 7.821273
54.142048 -4.943938 10.232254
3.072964 -0.384293 -1.831571
3.230939 -0.399760 -1.824635
3.426882 -0.418212 -1.831556
3.642828 -0.439205 -1.838616
3.883974 -0.462666 -1.848284
4.158305 -0.489365 -1.861475
4.442644 -0.516395 -1.865893
4.759173 -0.547351 -1.868812
5.115214 -0.582210 -1.872390
5.515412 -0.620471 -1.874394
5.992583 -0.667135 -1.880882
6.480133 -0.715101 -1.869234
7.053040 -0.770231 -1.857576
7.733393 -0.837066 -1.843701
8.597389 -0.921821 -1.838948
9.730897 -1.032882 -1.845178
11.272714 -1.130241 -1.863402
13.136712 -1.304302 -1.857891
16.291828 -1.595122 -1.914606
22.176962 -2.141125 -2.082697
0.003197 -0.104592 -0.003098
0.003197 -0.104592 -0.003098
0.003197 -0.104592 -0.003098
54.470078 -5.170856 -0.008372
0.003197 -0.104592 -0.003098
87.383003 -8.275746 4.081104
0.003197 -0.104592 -0.003098
51.308792 -4.936911 4.799690
62.310726 -5.983153 7.309578
0.003197 -0.104592 -0.003098
47.203693 -4.589633 7.781961
0.003197 -0.104592 -0.003098
3.071266 -0.402275 -1.831558
3.237803 -0.419526 -1.829520
3.423191 -0.438120 -1.830600
3.642571 -0.460736 -1.839497
3.881789 -0.485449 -1.848266
4.148764 -0.512336 -1.858202
4.447449 -0.543217 -1.868956
4.762038 -0.575872 -1.870973
5.121738 -0.612324 -1.875788
5.525437 -0.654236 -1.878851
5.992947 -0.702788 -1.882046
6.480314 -0.752521 -1.870307
7.068204 -0.813721 -1.862609
7.742620 -0.882667 -1.846895
8.604223 -0.972206 -1.841404
9.746889 -1.090782 -1.849208
11.270389 -1.197166 -1.863998
13.153249 -1.381900 -1.861173
16.316311 -1.694676 -1.918475
22.146675 -2.270513 -2.080918
0.003191 -0.104380 -0.003099
0.003191 -0.104380 -0.003099
0.003191 -0.104380 -0.003099
0.003191 -0.104380 -0.003099
0.003191 -0.104380 -0.003099
88.048706 -8.864244 4.114994
61.517948 -6.234527 4.314071
58.619576 -5.965458 5.487399
55.333061 -5.655484 6.494668
55.232265 -5.654240 7.792799
0.003191 -0.104380 -0.003099
48.473503 -5.007716 9.171236
3.071184 -0.419894 -1.832563
3.234217 -0.437736 -1.828525
3.430012 -0.458485 -1.835280
3.642234 -0.481642 -1.840379
3.881325 -0.507735 -1.849104
4.157254 -0.537103 -1.863064
4.452193 -0.569336 -1.872019
4.772206 -0.604387 -1.876044
5.120613 -0.641740 -1.876449
5.527830 -0.686377 -1.880746
5.998897 -0.738025 -1.884997
6.482226 -0.790160 -1.871931
7.069786 -0.854746 -1.864096
7.743804 -0.927574 -1.848242
8.601024 -1.021654 -1.841780
9.748870 -1.147430 -1.850644
11.258004 -1.261134 -1.862972
13.159483 -1.458707 -1.863061
16.320738 -1.789676 -1.920024
22.177423 -2.402119 -2.084905
0.003185 -0.104168 -0.003099
0.003185 -0.104168 -0.003099
0.003185 -0.104168 -0.003099
0.003185 -0.104168 -0.003099
54.403683 -5.814320 1.262106
0.003185 -0.104168 -0.003099
0.003185 -0.104168 -0.003099
53.190498 -5.731420 4.982069
63.774612 -6.872729 7.490769
56.408646 -6.099985 7.963861
49.238911 -5.354459 8.127541
48.759090 -5.319718 9.231058
3.071040 -0.437511 -1.833570
3.232248 -0.456110 -1.828510
3.426153 -0.477792 -1.834325
3.647112 -0.503139 -1.843952
3.886111 -0.530621 -1.852509
4.147329 -0.560707 -1.859789
4.447627 -0.594504 -1.871228
4.765560 -0.631191 -1.874567
5.121061 -0.672266 -1.877792
5.531925 -0.718771 -1.883282
5.989462 -0.771653 -1.883181
6.481873 -0.828762 -1.873003
7.061515 -0.894733 -1.863049
7.756213 -0.975174 -1.852357
8.601275 -1.073033 -1.842986
9.750353 -1.205828 -1.852079
11.260993 -1.326691 -1.864541
13.155170 -1.536856 -1.863555
16.332504 -1.885644 -1.922500
22.195522 -2.532848 -2.087775
0.003178 -0.103956 -0.003100
31.308191 -3.545803 -1.474384
0.003178 -0.103956 -0.003100
89.540993 -10.008698 -0.010502
0.003178 -0.103956 -0.003100
61.533428 -6.941153 2.878888
0.003178 -0.103956 -0.003100
50.773445 -5.779796 4.758842
55.332642 -6.298384 6.503087
0.003178 -0.103956 -0.003100
46.714260 -5.365045 7.715876
47.532963 -5.464881 9.004764
3.069000 -0.455483 -1.833555
3.235306 -0.475633 -1.831434
3.415122 -0.496855 -1.829614
3.637588 -0.523699 -1.840344
3.876334 -0.552584 -1.849067
4.159160 -0.586014 -1.866279
4.442790 -0.620417 -1.870435
4.762343 -0.659200 -1.874543
5.123330 -0.702139 -1.879821
5.533854 -0.751974 -1.885176
5.992984 -0.807802 -1.885535
6.487135 -0.866927 -1.875729
7.062451 -0.937022 -1.864534
7.747204 -1.019082 -1.851396
8.607218 -1.123637 -1.845440
9.755547 -1.263053 -1.854254
11.251598 -1.392940 -1.864161
13.166369 -1.614516 -1.866276
16.333506 -1.983519 -1.923812
22.200533 -2.666366 -2.089524
0.003172 -0.103744 -0.003100
0.003172 -0.103744 -0.003100
0.003172 -0.103744 -0.003100
90.283142 -10.616375 -0.010128
0.003172 -0.103744 -0.003100
54.171837 -6.448010 2.536069
51.485989 -6.141737 3.617607
50.658833 -6.061846 4.751480
55.243629 -6.619764 6.497328
47.717800 -5.739712 6.745640
0.003172 -0.103744 -0.003100
0.003172 -0.103744 -0.003100
3.068641 -0.473112 -1.834561
3.233090 -0.494016 -1.831418
3.414558 -0.516478 -1.830536
3.647514 -0.545902 -1.846609
3.880881 -0.575520 -1.852472
4.147246 -0.608599 -1.862191
4.450752 -0.647078 -1.875040
4.768323 -0.687489 -1.878159
5.127243 -0.732289 -1.882532
5.535654 -0.784265 -1.887070
5.990705 -0.842270 -1.886102
6.475020 -0.903052 -1.873492
7.059490 -0.977630 -1.865007
7.755322 -1.065074 -1.854587
8.601207 -1.172896 -1.845398
9.758492 -1.320122 -1.856059
11.245943 -1.457634 -1.864430
13.179122 -1.692584 -1.869275
16.340174 -2.079333 -1.925820
22.211136 -2.796873 -2.091832
0.003135 -0.103537 -0.003100
0.003135 -0.103537 -0.003100
0.003135 -0.103537 -0.003100
61.346272 -7.604357 -0.007576
61.446423 -7.637388 1.429643
52.621487 -6.573115 2.465361
51.107830 -6.395244 3.593751
56.950043 -7.133768 5.345968
53.436852 -6.718116 6.289354
47.867367 -6.036370 6.771750
46.762230 -5.915197 7.734808
47.609428 -6.036578 9.032258
3.061350 -0.489882 -1.831485
3.227339 -0.511937 -1.829443
3.420879 -0.536996 -1.835215
3.636048 -0.565516 -1.842103
3.870933 -0.596688 -1.849030
4.156887 -0.634554 -1.867866
4.453026 -0.673145 -1.877330
4.766722 -0.714910 -1.878863
5.121587 -0.762187 -1.881822
5.533531 -0.816101 -1.887683
6.003406 -0.878682 -1.891435
6.472067 -0.941425 -1.874010
7.060094 -1.018734 -1.866491
7.753338 -1.111283 -1.855470
8.600544 -1.224366 -1.846602
9.776446 -1.381000 -1.860824
11.241899 -1.522544 -1.865023
13.181250 -1.771903 -1.870878
16.354145 -2.176280 -1.928755
22.209106 -2.926075 -2.093022
0.003128 -0.103321 -0.003101
0.003128 -0.103321 -0.003101
0.003128 -0.103321 -0.003101
61.397945 -7.979888 -0.007266
60.491806 -7.873384 1.408707
0.003128 -0.103321 -0.003101
51.253662 -6.721408 3.606977
50.242149 -6.607801 4.719688
55.667316 -7.319164 6.557084
48.100410 -6.354531 6.810113
46.615379 -6.177301 7.716576
47.675842 -6.323140 9.051748
3.062428 -0.508244 -1.833510
3.233508 -0.531980 -1.834326
3.414735 -0.556572 -1.833319
3.629693 -0.586363 -1.840290
3.871603 -0.619199 -1.850722
4.148314 -0.657506 -1.865404
4.449576 -0.699296 -1.877308
4.763143 -0.742091 -1.878839
5.125142 -0.792415 -1.884533
5.534968 -0.848449 -1.889576
5.998847 -0.912971 -1.891405
6.490001 -0.981501 -1.880594
7.054715 -1.059095 -1.866456
7.755155 -1.156675 -1.857276
8.615489 -1.274984 -1.851135
9.782804 -1.437131 -1.863369
11.245016 -1.590460 -1.866911
13.187157 -1.849531 -1.873040
16.359295 -2.275270 -1.930759
22.231468 -3.062641 -2.096625
0.003122 -0.103109 -0.003101
0.003122 -0.103109 -0.003101
0.003122 -0.103109 -0.003101
61.058262 -8.293203 -0.006935
59.388477 -8.089348 1.384346
54.670059 -7.463617 2.565822
51.307659 -7.028292 3.613790
49.841957 -6.838485 4.685777
51.630814 -7.097723 6.086275
54.290749 -7.476494 7.693167
46.484940 -6.423790 7.700926
50.198177 -6.945708 9.538414
3.056686 -0.524627 -1.831454
3.224145 -0.548829 -1.830391
3.413917 -0.575628 -1.834242
3.634047 -0.607351 -1.843863
3.875733 -0.642235 -1.854126
4.161346 -0.683408 -1.872705
4.449838 -0.724391 -1.878828
4.759374 -0.769252 -1.878815
5.128551 -0.822696 -1.887244
5.545616 -0.882152 -1.894671
5.999775 -0.948031 -1.893162
6.471533 -1.016701 -1.876702
7.051009 -1.099698 -1.866926
7.750888 -1.201303 -1.857698
8.600639 -1.324689 -1.849426
9.848665 -1.505381 -1.877393
11.252186 -1.655074 -1.869449
13.194551 -1.927549 -1.875479
16.374491 -2.370042 -1.933927
22.265902 -3.193448 -2.101347
0.003116 -0.102897 -0.003102
0.003116 -0.102897 -0.003102
61.091511 -8.634578 -1.438698
0.003116 -0.102897 -0.003102
0.003116 -0.102897 -0.003102
51.451481 -7.331453 2.416754
51.235374 -7.318479 3.611824
49.308220 -7.063788 4.639621
0.003116 -0.102897 -0.003102
48.274307 -6.941982 6.845942
0.003116 -0.102897 -0.003102
56.557899 -8.143888 10.756247
3.057549 -0.543000 -1.833479
3.224907 -0.568201 -1.832334
3.412782 -0.595882 -1.835163
3.632741 -0.628915 -1.844741
3.874247 -0.665231 -1.854961
4.150695 -0.706059 -1.869429
4.455232 -0.751850 -1.882659
4.760888 -0.798025 -1.880973
5.128036 -0.852504 -1.888585
5.537136 -0.914229 -1.893361
5.998441 -0.983897 -1.894322
6.471865 -1.054523 -1.878322
7.046898 -1.141519 -1.867396
7.752130 -1.246775 -1.859502
8.610883 -1.376481 -1.853125
9.871543 -1.566381 -1.883268
11.231093 -1.719800 -1.867444
13.201476 -2.005715 -1.877916
16.370594 -2.468216 -1.935000
22.300409 -3.332799 -2.106247
0.003109 -0.102685 -0.003103
48.612713 -7.168901 -2.296363
0.003109 -0.102685 -0.003103
62.608582 -9.234814 -0.006386
59.310497 -8.773882 1.385381
51.164581 -7.600271 2.405583
51.072598 -7.595035 3.603588
0.003109 -0.102685 -0.003103
51.885544 -7.749557 6.126989
48.122475 -7.202685 6.830336
52.700249 -7.896028 8.746122
49.284576 -7.407617 9.380867
3.063466 -0.561636 -1.838565
3.225636 -0.587037 -1.834277
3.411637 -0.615546 -1.836084
3.634969 -0.650377 -1.847415
3.880006 -0.687953 -1.859220
4.167041 -0.732703 -1.878357
4.456883 -0.778073 -1.884949
4.766147 -0.825739 -1.884586
5.125506 -0.882043 -1.889243
5.538145 -0.945730 -1.895254
6.000968 -1.018268 -1.896675
6.485299 -1.094410 -1.883802
7.054395 -1.182625 -1.870906
7.749269 -1.291705 -1.860384
8.615246 -1.426037 -1.855575
9.865157 -1.621481 -1.883588
11.233301 -1.785892 -1.869331
13.207931 -2.084022 -1.880352
16.382252 -2.565931 -1.937930
22.322815 -3.466988 -2.110032
0.003103 -0.102473 -0.003103
54.044994 -8.275951 -2.554531
60.382442 -9.244207 -1.423774
59.764980 -9.171043 -0.005923
59.364410 -9.130461 1.388151
51.218739 -7.899902 2.410409
50.076027 -7.742958 3.536519
51.982109 -8.042202 4.900105
52.028610 -8.067004 6.149318
48.082760 -7.479290 6.830871
0.003103 -0.102473 -0.003103
49.324646 -7.694545 9.396672
3.057466 -0.577960 -1.836509
3.222877 -0.604799 -1.834261
3.406908 -0.634661 -1.835128
3.631867 -0.670415 -1.847396
3.872992 -0.709475 -1.857488
4.154335 -0.755013 -1.874268
4.452928 -0.803472 -1.884925
4.758224 -0.852338 -1.883106
5.128350 -0.912458 -1.891952
5.540559 -0.979488 -1.897785
5.997341 -1.053884 -1.897238
6.487089 -1.132670 -1.885973
7.053597 -1.225094 -1.872387
7.751704 -1.338908 -1.862647
8.622460 -1.480811 -1.858854
9.838521 -1.676887 -1.880200
11.239358 -1.850704 -1.871867
13.215911 -2.162762 -1.883066
16.387907 -2.660074 -1.940165
22.362743 -3.600412 -2.115492
0.003097 -0.102261 -0.003104
53.789875 -8.553795 -2.544449
0.003097 -0.102261 -0.003104
95.853554 -15.211424 -0.007112
0.003097 -0.102261 -0.003104
54.453175 -8.722469 2.565492
49.962265 -8.019580 3.531909
57.425175 -9.221836 5.418876
50.424786 -8.127232 5.965455
47.809361 -7.727244 6.798578
0.003097 -0.102261 -0.003104
48.221027 -7.817104 9.195171
3.057907 -0.596929 -1.838532
3.221460 -0.624509 -1.835222
3.403668 -0.654622 -1.835109
3.628323 -0.692340 -1.847376
3.871106 -0.732486 -1.858323
4.163009 -0.781460 -1.879940
4.452334 -0.830221 -1.886443
4.764726 -0.882102 -1.887445
5.127196 -0.943215 -1.893293
5.539143 -1.011735 -1.899036
5.995522 -1.088758 -1.898397
6.469488 -1.168992 -1.882629
7.066093 -1.268572 -1.877414
7.767491 -1.387056 -1.868139
8.626239 -1.530563 -1.861305
9.817661 -1.731285 -1.877924
11.244057 -1.921525 -1.874398
13.215203 -2.242706 -1.884664
16.391596 -2.762945 -1.942392
22.382267 -3.743234 -2.119267
0.003090 -0.102049 -0.003104
52.317257 -8.640083 -2.476924
52.354733 -8.654678 -1.236580
52.387756 -8.677944 -0.005004
52.424114 -8.701780 1.228337
52.387882 -8.704321 2.470645
50.467651 -8.406214 3.571372
50.956413 -8.494895 4.812832
52.349499 -8.742208 6.199356
51.729332 -8.657492 7.363466
52.067188 -8.721785 8.665284
50.062397 -8.406937 9.555676
3.050010 -0.612899 -1.835456
3.218509 -0.642242 -1.835206
3.409253 -0.674836 -1.839786
3.626733 -0.712640 -1.848254
3.863858 -0.753914 -1.856591
4.150033 -0.803643 -1.875850
4.450039 -0.855124 -1.887190
4.761987 -0.909584 -1.888147
5.131521 -0.974044 -1.896685
5.533835 -1.043350 -1.899006
5.997292 -1.124281 -1.900748
6.465134 -1.206278 -1.883145
7.059294 -1.308961 -1.877376
7.771507 -1.433449 -1.870865
8.638831 -1.585069 -1.865831
9.807845 -1.789203 -1.877869
11.210391 -1.980056 -1.870446
13.214381 -2.320412 -1.886261
16.403955 -2.858682 -1.945552
22.410700 -3.876023 -2.123793
33.919353 -5.826037 -2.409372
52.812527 -9.023274 -2.502372
0.003084 -0.101837 -0.003105
97.567551 -16.650682 -0.006105
0.003084 -0.101837 -0.003105
54.208595 -9.323464 2.559387
50.171242 -8.653760 3.554080
50.837082 -8.784632 4.806621
49.381424 -8.543989 5.853602
51.573853 -8.936444 7.348724
50.406548 -8.753694 8.397479
46.610382 -8.109606 8.905427
3.053696 -0.631926 -1.839520
3.211823 -0.660482 -1.833228
3.407534 -0.695111 -1.840706
3.626576 -0.734516 -1.850029
3.870627 -0.778444 -1.861704
4.167518 -0.831064 -1.885589
4.449110 -0.881900 -1.888707
4.771817 -0.940144 -1.893941
5.120874 -1.002339 -1.894604
5.541230 -1.078201 -1.903457
5.996762 -1.160573 -1.902501
6.473805 -1.245901 -1.887519
7.051993 -1.350551 -1.877335
7.769473 -1.478914 -1.872205
8.639795 -1.636210 -1.867862
9.801848 -1.846040 -1.878555
11.204879 -2.047237 -1.871355
13.218966 -2.399190 -1.888693
16.397099 -2.957309 -1.946619
22.436993 -4.017070 -2.128311
33.962528 -6.034153 -2.414625
52.550140 -9.299276 -2.492188
0.003078 -0.101629 -0.003105
0.003078 -0.101629 -0.003105
0.003078 -0.101629 -0.003105
51.235165 -9.130017 2.421604
49.960098 -8.913425 3.542925
49.401829 -8.831861 4.675777
51.180920 -9.163782 6.073598
53.051083 -9.503538 7.567201
50.101368 -8.997894 8.355292
50.408932 -9.069741 9.641769
3.050613 -0.649256 -1.839503
3.213702 -0.679653 -1.836150
3.404065 -0.714477 -1.840687
3.624634 -0.755459 -1.850906
3.863093 -0.799829 -1.859970
4.152476 -0.852843 -1.880685
4.442751 -0.906918 -1.887911
4.759586 -0.966018 -1.891004
5.132262 -1.034577 -1.900733
5.533649 -1.109494 -1.902785
5.994333 -1.195504 -1.903659
6.478469 -1.284962 -1.890791
7.052318 -1.392255 -1.879322
7.761404 -1.523355 -1.872161
8.628897 -1.685293 -1.867398
9.787794 -1.901441 -1.877759
11.199363 -2.112458 -1.872265
13.215294 -2.476695 -1.890011
16.401920 -3.055200 -1.949078
22.439598 -4.150395 -2.130600
33.545033 -6.159963 -2.387221
52.270329 -9.560153 -2.481172
0.003072 -0.101417 -0.003106
0.003072 -0.101417 -0.003106
0.003072 -0.101417 -0.003106
51.441826 -9.471478 2.434188
50.044006 -9.224983 3.552833
49.260681 -9.099048 4.667513
50.965729 -9.427968 6.054612
52.972713 -9.803858 7.564162
51.413963 -9.535959 8.583494
49.573608 -9.215203 9.492097
3.044026 -0.665943 -1.837446
3.213759 -0.698541 -1.838091
3.398761 -0.733495 -1.839730
3.617315 -0.775414 -1.849091
3.873248 -0.824467 -1.866795
4.157055 -0.878168 -1.884729
4.447107 -0.933935 -1.891740
4.767333 -0.995563 -1.896069
5.126791 -1.063861 -1.900703
5.535214 -1.142478 -1.905315
5.987937 -1.229739 -1.903625
6.475357 -1.322684 -1.891857
7.063805 -1.436158 -1.884348
7.755020 -1.568102 -1.872578
8.629250 -1.736487 -1.869427
9.779219 -1.957840 -1.878074
11.201198 -2.179121 -1.874472
13.205290 -2.553150 -1.890492
16.404198 -3.152876 -1.951304
22.484463 -4.291909 -2.136974
33.417458 -6.335331 -2.380470
52.056004 -9.830600 -2.473323
0.003065 -0.101205 -0.003107
100.328270 -18.904091 -0.004486
68.243881 -12.914293 1.608009
52.910686 -10.053453 2.506761
50.610291 -9.628967 3.597199
49.433128 -9.424328 4.689159
51.426537 -9.817958 6.116227
51.322212 -9.806582 7.336522
49.813389 -9.538342 8.325390
49.684464 -9.530954 9.523858
3.049182 -0.684837 -1.842530
3.203420 -0.715480 -1.834154
3.395067 -0.752812 -1.839710
3.618635 -0.797000 -1.851763
3.860137 -0.844801 -1.862494
4.157909 -0.902881 -1.887146
4.436814 -0.958224 -1.889403
4.758457 -1.022034 -1.894587
5.123032 -1.093460 -1.901358
5.534725 -1.175153 -1.907204
5.985104 -1.264660 -1.904782
6.464447 -1.358945 -1.890717
7.052217 -1.475794 -1.883294
7.752181 -1.613569 -1.873916
8.633135 -1.788490 -1.872288
9.764514 -2.013068 -1.877276
11.192936 -2.244020 -1.875055
13.183208 -2.627329 -1.889302
16.417585 -3.252928 -1.954921
22.512800 -4.431064 -2.141861
33.418274 -6.534329 -2.382926
0.003059 -0.100993 -0.003107
0.003059 -0.100993 -0.003107
34.132767 -6.700920 -0.003377
67.403488 -13.157932 1.590309
52.242622 -10.238902 2.478099
50.585976 -9.925647 3.599726
49.020988 -9.638541 4.655451
50.447533 -9.933463 6.006655
0.003059 -0.100993 -0.003107
49.996502 -9.870875 8.365561
49.438438 -9.778798 9.487488
3.049137 -0.702806 -1.844552
3.208383 -0.735359 -1.839034
3.391245 -0.772104 -1.839690
3.623324 -0.819314 -1.856228
3.862900 -0.868170 -1.865894
4.160242 -0.928706 -1.890375
4.439059 -0.984941 -1.892460
4.762229 -1.050982 -1.898197
5.126255 -1.125420 -1.904747
5.537721 -1.208604 -1.910372
5.985814 -1.300334 -1.907130
6.471951 -1.400033 -1.895088
7.046077 -1.516483 -1.883759
7.750723 -1.660783 -1.875714
8.642186 -1.843247 -1.876395
9.751108 -2.070266 -1.876847
11.193985 -2.310794 -1.877259
13.183557 -2.708239 -1.891450
16.410894 -3.349363 -1.956216
22.526606 -4.567962 -2.145443
0.003052 -0.100777 -0.003108
34.256500 -6.911783 -1.631839
34.290047 -6.930273 -0.814861
34.326450 -6.949351 -0.003171
34.312225 -6.952105 0.809118
52.457703 -10.593724 2.491452
51.722107 -10.464408 3.685274
49.326733 -10.001412 4.690304
51.435982 -10.433177 6.131699
0.003052 -0.100777 -0.003108
0.003052 -0.100777 -0.003108
48.222099 -9.828610 9.264859
3.045523 -0.720644 -1.844534
3.202852 -0.753790 -1.838035
3.392413 -0.793024 -1.842487
3.619008 -0.840553 -1.856207
3.856498 -0.890466 -1.865015
4.148244 -0.950930 -1.887096
4.430108 -1.010266 -1.890892
4.756527 -1.078958 -1.898168
5.120280 -1.154661 -1.904717
5.521784 -1.239260 -1.907138
5.980452 -1.335948 -1.907690
6.479434 -1.440120 -1.899460
7.043240 -1.559163 -1.885235
7.743528 -1.705502 -1.876129
8.647349 -1.895877 -1.879670
9.735777 -2.125283 -1.876049
11.188422 -2.378432 -1.878488
13.170277 -2.784181 -1.891650
16.416666 -3.451481 -1.959131
22.532902 -4.707909 -2.148464
0.003046 -0.100565 -0.003108
0.003046 -0.100565 -0.003108
67.983772 -14.060610 -1.614082
0.003046 -0.100565 -0.003108
0.003046 -0.100565 -0.003108
52.690056 -10.964999 2.505842
51.345093 -10.696054 3.662981
49.918358 -10.418847 4.752468
50.251431 -10.505053 5.997971
51.116093 -10.692430 7.333264
49.992973 -10.476946 8.385294
0.003046 -0.100565 -0.003108
3.033475 -0.736162 -1.839415
3.202447 -0.772698 -1.839976
3.384911 -0.811575 -1.840589
3.609457 -0.860026 -1.853494
3.844812 -0.910917 -1.861570
4.150454 -0.976060 -1.890326
4.428423 -1.036272 -1.892407
4.754463 -1.106846 -1.899595
5.119663 -1.185037 -1.906739
5.518858 -1.271559 -1.908386
5.978856 -1.371288 -1.909441
6.458468 -1.474336 -1.895563
7.038548 -1.600223 -1.886207
7.736079 -1.750189 -1.876544
8.644537 -1.946988 -1.881281
9.729733 -2.182250 -1.877101
11.186735 -2.444940 -1.880367
13.162385 -2.861274 -1.892684
16.416559 -3.549689 -1.961352
22.543053 -4.844975 -2.151858
34.216740 -7.307844 -2.447746
35.034760 -7.492282 -1.672408
67.706734 -14.409711 -1.609031
0.003009 -0.100359 -0.003108
0.003009 -0.100359 -0.003108
0.003009 -0.100359 -0.003108
51.650227 -11.068765 3.689523
51.215752 -10.994226 4.882277
50.210194 -10.797685 6.000597
0.003009 -0.100359 -0.003108
49.226059 -10.613076 8.266917
52.244999 -11.275895 10.063131
3.034827 -0.754466 -1.842458
3.205350 -0.792358 -1.843875
3.382485 -0.831184 -1.841508
3.608514 -0.881307 -1.855267
3.854246 -0.935860 -1.868392
4.145350 -0.999692 -1.890301
4.421165 -1.061111 -1.891610
4.748578 -1.133956 -1.899566
5.120684 -1.215841 -1.909444
5.513895 -1.303460 -1.908993
5.978902 -1.407063 -1.911788
6.456096 -1.512467 -1.897177
7.048692 -1.644598 -1.891228
7.734080 -1.796091 -1.878342
8.631865 -1.996027 -1.880813
9.717602 -2.237943 -1.877042
11.190431 -2.512750 -1.883217
13.167607 -2.941286 -1.895666
16.423655 -3.649682 -1.964499
22.556273 -4.983150 -2.155621
34.543251 -7.584106 -2.473899
0.003003 -0.100147 -0.003109
0.003003 -0.100147 -0.003109
0.003003 -0.100147 -0.003109
62.300316 -13.673324 1.478219
61.185070 -13.451544 2.918240
53.496456 -11.782481 3.826596
51.331215 -11.327416 4.899686
52.610226 -11.625411 6.295739
56.945457 -12.584514 8.190742
49.211014 -10.905818 8.275001
49.120087 -10.902864 9.473131
3.025993 -0.770569 -1.839380
3.192816 -0.808669 -1.838958
3.379965 -0.850787 -1.842427
3.607449 -0.902605 -1.857039
3.851123 -0.958186 -1.869224
4.147231 -1.024891 -1.893529
4.431774 -1.089925 -1.898520
4.753484 -1.163465 -1.903902
5.119706 -1.246281 -1.911466
5.521666 -1.338249 -1.914080
5.963853 -1.439528 -1.909369
6.453509 -1.550612 -1.898792
7.043487 -1.685733 -1.892198
7.724206 -1.840318 -1.878294
8.609363 -2.042825 -1.878265
9.707076 -2.293998 -1.877352
11.182151 -2.578119 -1.884120
13.156840 -3.018024 -1.896420
16.435925 -3.751168 -1.968340
22.562822 -5.120337 -2.158826
34.503574 -7.783251 -2.473965
35.717644 -8.066037 -1.708761
0.002996 -0.099935 -0.003109
0.002996 -0.099935 -0.003109
0.002996 -0.099935 -0.003109
59.368382 -13.412929 2.835475
60.126999 -13.592928 4.307148
51.401787 -11.652683 4.913013
54.589539 -12.388144 6.541425
53.794838 -12.218077 7.747617
51.477421 -11.713889 8.667695
49.108852 -11.196524 9.483437
3.035494 -0.790801 -1.847522
3.193788 -0.827961 -1.841877
3.382481 -0.871566 -1.846162
3.601035 -0.922720 -1.856120
3.847906 -0.980501 -1.870057
4.145239 -1.050045 -1.895130
4.422416 -1.114345 -1.896951
4.750902 -1.191402 -1.905327
5.109148 -1.275532 -1.910065
5.518162 -1.370611 -1.915327
5.959778 -1.474437 -1.910523
6.437295 -1.586872 -1.896546
7.036139 -1.726425 -1.892661
7.728913 -1.889349 -1.881933
8.605311 -2.095351 -1.879873
9.703470 -2.353477 -1.879141
11.188868 -2.646984 -1.887616
13.147038 -3.097466 -1.897449
16.424345 -3.847607 -1.969397
22.578245 -5.259974 -2.162957
0.002990 -0.099723 -0.003110
0.002990 -0.099723 -0.003110
0.002990 -0.099723 -0.003110
0.002990 -0.099723 -0.003110
60.119389 -13.923701 1.430797
60.065697 -13.932269 2.872950
60.279251 -14.002459 4.324282
0.002990 -0.099723 -0.003110
57.562344 -13.405308 6.907270
0.002990 -0.099723 -0.003110
50.323372 -11.766960 8.485121
54.104336 -12.652491 10.462616
3.027996 -0.807768 -1.845463
3.187707 -0.846260 -1.840877
3.374407 -0.890567 -1.844262
3.597860 -0.944225 -1.856995
3.846128 -1.003896 -1.871743
4.146823 -1.075323 -1.898358
4.425317 -1.142427 -1.900777
4.749794 -1.220598 -1.907479
5.111450 -1.306836 -1.913453
5.510522 -1.403065 -1.915291
5.955235 -1.510386 -1.911676
6.449229 -1.628525 -1.902569
7.032018 -1.769210 -1.894135
7.724165 -1.934894 -1.883267
8.616558 -2.150016 -1.884808
9.692252 -2.409475 -1.879450
11.177429 -2.713908 -1.888193
13.162386 -3.180465 -1.902097
16.415398 -3.947803 -1.970914
22.578300 -5.400716 -2.165782
35.510830 -8.443424 -2.552452
0.002984 -0.099511 -0.003110
0.002984 -0.099511 -0.003110
0.002984 -0.099511 -0.003110
0.002984 -0.099511 -0.003110
59.282761 -14.122069 2.839775
59.578964 -14.201962 4.280138
51.929901 -12.409450 4.977603
56.073505 -13.411313 6.738245
52.050308 -12.464727 7.517217
50.341785 -12.076393 8.500034
49.071445 -11.791258 9.502583
3.023864 -0.824952 -1.845443
3.186775 -0.865170 -1.842817
3.368096 -0.909328 -1.843302
3.594667 -0.965105 -1.857870
3.847905 -1.027472 -1.875142
4.142919 -1.099365 -1.899145
4.410286 -1.165469 -1.896895
4.750525 -1.249426 -1.910359
5.111718 -1.337762 -1.916156
5.501092 -1.434067 -1.914616
5.948893 -1.544839 -1.912234
6.442181 -1.665823 -1.903079
7.029826 -1.811228 -1.896116
7.719171 -1.980441 -1.884602
8.612203 -2.201169 -1.886415
9.686451 -2.466815 -1.880869
11.200618 -2.787125 -1.894606
13.157911 -3.259121 -1.903960
16.418125 -4.047948 -1.973824
22.599720 -5.542827 -2.170652
0.002977 -0.099299 -0.003111
36.837700 -8.991709 -1.768677
0.002977 -0.099299 -0.003111
0.002977 -0.099299 -0.003111
0.002977 -0.099299 -0.003111
0.002977 -0.099299 -0.003111
59.380543 -14.515797 4.272145
60.625587 -14.839297 5.820100
52.755413 -12.944175 6.348431
0.002977 -0.099299 -0.003111
50.168495 -12.340105 8.482845
49.081623 -12.092053 9.518085
3.016317 -0.841289 -1.843385
3.180616 -0.882848 -1.841817
3.368523 -0.929734 -1.846098
3.584439 -0.984256 -1.855155
3.846015 -1.050235 -1.876828
4.140650 -1.123832 -1.900746
4.422001 -1.195035 -1.904575
4.745625 -1.276957 -1.911055
5.110008 -1.368275 -1.918176
5.498853 -1.466831 -1.916501
5.951590 -1.581575 -1.915770
6.421878 -1.699833 -1.899730
7.025493 -1.852814 -1.897590
7.719568 -2.027407 -1.887318
8.596189 -2.249484 -1.885528
9.687926 -2.526079 -1.883768
11.204119 -2.855987 -1.897774
13.145297 -3.335930 -1.904710
16.425982 -4.149685 -1.977427
22.629887 -5.687752 -2.176447
0.002971 -0.099087 -0.003112
47.492931 -11.853208 -2.282298
0.002971 -0.099087 -0.003112
0.002971 -0.099087 -0.003112
67.462502 -16.854321 1.613981
0.002971 -0.099087 -0.003112
0.002971 -0.099087 -0.003112
55.199100 -13.856254 5.306723
52.724976 -13.258092 6.354119
55.034710 -13.843673 7.971471
51.958191 -13.093514 8.798427
51.783894 -13.068062 10.056966
3.018661 -0.860090 -1.847445
3.182825 -0.902615 -1.845715
3.368831 -0.950169 -1.848893
3.591393 -1.007709 -1.861413
3.840480 -1.072119 -1.876803
4.129378 -1.146061 -1.898279
4.419187 -1.221143 -1.906088
4.744197 -1.305387 -1.913207
5.104424 -1.397889 -1.918826
5.492733 -1.498679 -1.917106
5.933711 -1.613197 -1.912753
6.421875 -1.738895 -1.902444
7.017173 -1.893441 -1.898050
7.712120 -2.072510 -1.888190
8.589366 -2.300118 -1.886719
9.683329 -2.583972 -1.885555
11.237856 -2.932693 -1.906129
13.134150 -3.413184 -1.905738
16.425558 -4.249686 -1.980103
22.666889 -5.835153 -2.182984
0.002965 -0.098875 -0.003112
47.304493 -12.095428 -2.276217
0.002965 -0.098875 -0.003112
75.187050 -19.205870 0.001036
59.391434 -15.212511 1.422957
0.002965 -0.098875 -0.003112
58.920795 -15.123226 4.251978
56.485096 -14.521975 5.438698
53.572178 -13.796980 6.466022
0.002965 -0.098875 -0.003112
49.366673 -12.747130 8.371924
50.402431 -13.030222 9.803204
3.015903 -0.877647 -1.848446
3.173081 -0.919378 -1.842756
3.362169 -0.968868 -1.847932
3.589587 -1.029025 -1.863184
3.845305 -1.096700 -1.881911
4.133734 -1.173044 -1.903132
4.412651 -1.246317 -1.906058
4.737184 -1.332431 -1.913176
5.103932 -1.429784 -1.921528
5.490093 -1.531459 -1.918990
5.941553 -1.651416 -1.918075
6.412047 -1.776698 -1.902401
7.008600 -1.934038 -1.898510
7.698386 -2.117459 -1.887676
8.579969 -2.351742 -1.887493
9.660841 -2.639081 -1.884009
11.192715 -2.989644 -1.901193
13.120065 -3.492206 -1.906484
16.426418 -4.350320 -1.983008
22.760777 -5.998154 -2.195088
0.002958 -0.098663 -0.003113
47.126431 -12.338886 -2.270691
0.002958 -0.098663 -0.003113
0.002958 -0.098663 -0.003113
0.002958 -0.098663 -0.003113
0.002958 -0.098663 -0.003113
0.002958 -0.098663 -0.003113
0.002958 -0.098663 -0.003113
55.400696 -14.604167 6.697175
55.970047 -14.772973 8.132048
52.579750 -13.902583 8.931137
51.534264 -13.636631 10.038760
3.011231 -0.895283 -1.848426
3.168170 -0.937944 -1.842735
3.355260 -0.988102 -1.846971
3.583996 -1.050062 -1.863160
3.842829 -1.120174 -1.883597
4.136122 -1.199653 -1.907171
4.407578 -1.272696 -1.906800
4.742400 -1.363621 -1.918236
5.101398 -1.461241 -1.923545
5.488842 -1.565698 -1.921514
5.928538 -1.685391 -1.916843
6.413159 -1.817420 -1.905665
7.010701 -1.978819 -1.902008
7.684419 -2.162313 -1.887163
8.564566 -2.401814 -1.887018
9.670291 -2.702699 -1.888755
11.179192 -3.056698 -1.901765
13.107388 -3.571687 -1.907508
16.425890 -4.453969 -1.985909
22.862064 -6.168971 -2.208113
0.002952 -0.098451 -0.003113
46.979748 -12.598125 -2.266833
0.002952 -0.098451 -0.003113
0.002952 -0.098451 -0.003113
0.002952 -0.098451 -0.003113
58.597557 -15.761314 2.829411
0.002952 -0.098451 -0.003113
66.369827 -17.885849 6.411824
57.291885 -15.462350 6.937198
54.862568 -14.830250 7.984004
52.487450 -14.210995 8.929878
53.394638 -14.463792 10.418074
3.003284 -0.911465 -1.846366
3.166648 -0.956842 -1.844673
3.356899 -1.009008 -1.850703
3.580206 -1.070896 -1.864033
3.838622 -1.142508 -1.884426
4.136962 -1.224399 -1.910397
4.406096 -1.299256 -1.909082
4.729661 -1.389172 -1.916022
5.093720 -1.489440 -1.923511
5.478480 -1.596514 -1.920836
5.924867 -1.720739 -1.918590
6.397895 -1.851408 -1.903968
7.003502 -2.019900 -1.902973
7.674676 -2.205415 -1.887573
8.547820 -2.448267 -1.886130
9.657512 -2.756875 -1.889061
11.163898 -3.121224 -1.902013
13.095449 -3.646565 -1.908533
16.408264 -4.550198 -1.986725
22.920952 -6.325687 -2.217054
0.002945 -0.098235 -0.003114
0.002945 -0.098235 -0.003114
0.002945 -0.098235 -0.003114
0.002945 -0.098235 -0.003114
0.002945 -0.098235 -0.003114
58.564323 -16.113527 2.832611
58.734665 -16.169922 4.259320
0.002945 -0.098235 -0.003114
57.292599 -15.815926 6.948515
56.786808 -15.686633 8.277069
50.097759 -13.868093 8.536421
54.993797 -15.233379 10.747400
3.003540 -0.929879 -1.849406
3.159994 -0.974351 -1.843672
3.351611 -1.028077 -1.850681
3.574556 -1.091249 -1.864009
3.839535 -1.166283 -1.887823
4.126907 -1.246968 -1.908743
4.402659 -1.325349 -1.910594
4.727555 -1.417632 -1.918172
5.087444 -1.518997 -1.924160
5.478905 -1.630328 -1.924000
5.913580 -1.754053 -1.917954
6.393255 -1.889507 -1.905578
6.983006 -2.057312 -1.900393
7.653082 -2.246659 -1.885216
8.543586 -2.499809 -1.888150
9.645848 -2.813212 -1.889735
11.133034 -3.181457 -1.899669
13.076737 -3.722118 -1.908722
16.399626 -4.649036 -1.988699
22.932718 -6.470496 -2.221537
0.002938 -0.098023 -0.003114
0.002938 -0.098023 -0.003114
0.002938 -0.098023 -0.003114
0.002938 -0.098023 -0.003114
0.002938 -0.098023 -0.003114
58.442371 -16.441681 2.831614
58.940960 -16.590990 4.281513
0.002938 -0.098023 -0.003114
59.844452 -16.886358 7.270172
56.675201 -16.006720 8.274395
52.396362 -14.824206 8.942918
55.077984 -15.597484 10.781491
3.000370 -0.947389 -1.850406
3.158253 -0.993240 -1.845610
3.347900 -1.047602 -1.851597
3.570514 -1.112058 -1.864882
3.840271 -1.190109 -1.891218
4.123744 -1.271464 -1.910341
4.399097 -1.351436 -1.912105
4.718098 -1.444068 -1.917412
5.084627 -1.549558 -1.926178
5.466346 -1.660548 -1.922681
5.909473 -1.789389 -1.919700
6.381013 -1.925494 -1.904983
6.986506 -2.101484 -1.904395
7.659301 -2.295785 -1.889773
8.533399 -2.549758 -1.888922
9.622529 -2.866239 -1.888188
11.128417 -3.248968 -1.901860
13.051886 -3.795950 -1.908075
16.398018 -4.750093 -1.991599
22.951265 -6.617818 -2.226761
0.002932 -0.097811 -0.003115
0.002932 -0.097811 -0.003115
0.002932 -0.097811 -0.003115
0.002932 -0.097811 -0.003115
0.002932 -0.097811 -0.003115
58.445366 -16.805208 2.836781
59.201916 -17.031414 4.307905
59.116730 -17.028130 5.739087
61.448238 -17.717777 7.477724
56.698875 -16.365366 8.291780
57.145687 -16.513939 9.770217
61.430595 -17.766790 12.045576
2.995435 -0.964409 -1.850385
3.159737 -1.013115 -1.849506
3.342387 -1.066622 -1.851574
3.559450 -1.130863 -1.862166
3.846084 -1.215491 -1.897180
4.118470 -1.296172 -1.911125
4.386498 -1.374948 -1.909763
4.719208 -1.473568 -1.921016
5.081349 -1.581020 -1.928193
5.464560 -1.693862 -1.925204
5.908812 -1.825806 -1.922637
6.375602 -1.964670 -1.906591
6.963748 -2.138137 -1.901309
7.649879 -2.342002 -1.890640
8.522474 -2.601159 -1.889693
9.604078 -2.922424 -1.887749
11.094953 -3.308297 -1.899191
13.043065 -3.876851 -1.909929
16.393894 -4.850727 -1.994265
22.976521 -6.767785 -2.232726
0.002926 -0.097599 -0.003116
0.002926 -0.097599 -0.003116
0.002926 -0.097599 -0.003116
0.002926 -0.097599 -0.003116
0.002926 -0.097599 -0.003116
58.250534 -17.112164 2.832430
0.002926 -0.097599 -0.003116
0.002926 -0.097599 -0.003116
61.206718 -18.029751 7.461185
59.573715 -17.572611 8.727814
59.098061 -17.454206 10.121984
62.342392 -18.417534 12.245331
2.990246 -0.981926 -1.850364
3.142560 -1.028131 -1.842627
3.334890 -1.085688 -1.850612
3.553269 -1.151717 -1.862140
3.841138 -1.238556 -1.898009
4.115026 -1.320656 -1.912723
4.385937 -1.402804 -1.912815
4.712762 -1.501820 -1.921710
5.076321 -1.611075 -1.929525
5.455003 -1.725994 -1.925165
5.892995 -1.858922 -1.920808
6.370304 -2.002733 -1.908201
6.966357 -2.183585 -1.905310
7.646181 -2.388526 -1.892892
8.504199 -2.648779 -1.888803
9.585807 -2.976815 -1.887313
0.002919 -0.097387 -0.003115
13.038217 -3.956629 -1.912343
16.376867 -4.950941 -1.995540
22.995779 -6.921142 -2.238317
0.002919 -0.097387 -0.003115
0.002919 -0.097387 -0.003115
0.002919 -0.097387 -0.003115
0.002919 -0.097387 -0.003115
0.002919 -0.097387 -0.003115
0.002919 -0.097387 -0.003115
0.002919 -0.097387 -0.003115
60.227570 -18.109144 5.867878
62.003250 -18.662437 7.572056
60.048969 -18.087378 8.812904
58.957539 -17.781530 10.115580
63.913609 -19.291065 12.576636
2.985114 -0.998888 -1.850343
3.147178 -1.049004 -1.848482
3.330856 -1.105142 -1.851528
3.554005 -1.173987 -1.865706
3.829531 -1.258162 -1.895418
4.104410 -1.343025 -1.911070
4.385404 -1.429935 -1.915869
4.708424 -1.528942 -1.923136
5.071136 -1.641117 -1.930862
5.453084 -1.758378 -1.927693
5.886728 -1.892651 -1.921965
6.366581 -2.041368 -1.910367
6.954623 -2.222179 -1.905271
7.625416 -2.429967 -1.891004
8.491710 -2.696513 -1.889171
9.563968 -3.028273 -1.886151
11.045382 -3.433747 -1.897107
13.006335 -4.028454 -1.910882
16.367710 -5.050568 -1.997770
22.979027 -7.059972 -2.240423
0.002886 -0.097196 -0.003109
0.002886 -0.097196 -0.003109
0.002886 -0.097196 -0.003109
0.002886 -0.097196 -0.003109
0.002886 -0.097196 -0.003109
0.002886 -0.097196 -0.003109
0.002886 -0.097196 -0.003109
64.263008 -19.706858 6.272152
63.771873 -19.579931 7.801617
0.002886 -0.097196 -0.003109
63.162460 -19.427156 10.855941
64.408745 -19.831741 12.695883
2.983331 -1.016318 -1.852363
3.136826 -1.064777 -1.845523
3.323305 -1.123543 -1.850566
3.546227 -1.193047 -1.864785
3.817621 -1.278344 -1.892827
4.097182 -1.366387 -1.911044
4.374153 -1.453819 -1.914300
4.705457 -1.557436 -1.925288
5.063977 -1.670593 -1.931515
5.441355 -1.789876 -1.927019
5.885105 -1.930120 -1.924907
6.358997 -2.078868 -1.911432
6.952982 -2.266589 -1.908267
7.624483 -2.478948 -1.894186
8.466385 -2.745116 -1.887043
9.544552 -3.084085 -1.885726
11.020941 -3.493321 -1.896076
12.974041 -4.100043 -1.909420
16.356939 -5.146807 -1.999772
23.019751 -7.212471 -2.248101
34.407085 -10.745183 -2.517532
0.002882 -0.096999 -0.003103
0.002882 -0.096999 -0.003103
0.002882 -0.096999 -0.003103
0.002882 -0.096999 -0.003103
0.002882 -0.096999 -0.003103
0.002882 -0.096999 -0.003103
0.002882 -0.096999 -0.003103
0.002882 -0.096999 -0.003103
0.002882 -0.096999 -0.003103
0.002882 -0.096999 -0.003103
64.408783 -20.249763 12.719557
2.972723 -1.032733 -1.849280
3.132537 -1.084197 -1.846480
3.315473 -1.142466 -1.849604
3.539489 -1.214436 -1.864761
3.815715 -1.302360 -1.895367
4.101802 -1.394281 -1.916710
