# This PCD file was generated using the MATLAB® pcwrite function
# from Computer Vision Toolbox®.
# .PCD v.7 - Point Cloud Data file format
VERSION .7
FIELDS x y z
SIZE 4 4 4
TYPE F F F
COUNT 1 1 1
WIDTH 1639
HEIGHT 1
VIEWPOINT 0 0 0 1 0 0 0
POINTS 1639
DATA ascii
4.862924 -3.331867 -1.979128
5.305262 -3.629812 -1.994660
5.784391 -3.951323 -1.999045
6.320156 -4.312521 -1.994882
6.962946 -4.744134 -1.989838
7.735738 -5.265038 -1.984084
8.783949 -5.971271 -1.998006
10.163517 -6.834092 -2.010983
12.110407 -8.129808 -2.050883
15.568533 -10.434617 -2.192208
24.345299 -16.281158 -2.741602
29.796860 -19.915010 -2.519101
0.003819 -0.087570 -0.002334
0.003819 -0.087570 -0.002334
70.320091 -46.969303 -0.035801
0.003819 -0.087570 -0.002334
0.003819 -0.087570 -0.002334
0.003819 -0.087570 -0.002334
0.003819 -0.087570 -0.002334
0.003819 -0.087570 -0.002334
0.003819 -0.087570 -0.002334
0.003819 -0.087570 -0.002334
0.003819 -0.087570 -0.002334
0.496200 -0.418436 -0.354526
2.774960 -1.951932 -1.880706
2.925788 -2.054105 -1.876906
3.102962 -2.174888 -1.880242
3.307310 -2.313314 -1.889775
3.555565 -2.482324 -1.911608
3.797016 -2.647005 -1.915826
4.132163 -2.874145 -1.949563
4.478964 -3.110470 -1.970382
4.851037 -3.362968 -1.981669
5.294917 -3.665549 -1.998215
5.766855 -3.987550 -2.000675
6.299691 -4.349662 -1.995869
6.942472 -4.788259 -1.991654
7.695400 -5.300207 -1.981135
8.762376 -6.027678 -2.000567
10.117986 -6.887820 -2.009640
12.086944 -8.214595 -2.054741
15.520286 -10.531547 -2.193775
24.263319 -16.428499 -2.742815
29.649218 -20.063560 -2.516182
0.003800 -0.087373 -0.002328
0.003800 -0.087373 -0.002328
0.003800 -0.087373 -0.002328
0.003800 -0.087373 -0.002328
0.003800 -0.087373 -0.002328
0.003800 -0.087373 -0.002328
0.003800 -0.087373 -0.002328
0.003800 -0.087373 -0.002328
0.003800 -0.087373 -0.002328
0.003800 -0.087373 -0.002328
0.003800 -0.087373 -0.002328
0.501428 -0.425821 -0.359623
2.777478 -1.976000 -1.889514
2.917336 -2.072676 -1.878770
3.094223 -2.193959 -1.882022
3.294460 -2.332083 -1.889758
3.538690 -2.500464 -1.909961
3.780678 -2.667550 -1.915034
4.112985 -2.895548 -1.948086
4.463058 -3.137028 -1.971046
4.840910 -3.397865 -1.985492
5.281504 -3.702040 -2.001173
5.747509 -4.022613 -2.001753
6.267921 -4.382333 -1.993811
6.917694 -4.831307 -1.992547
7.663447 -5.346846 -1.981100
8.728626 -6.080403 -2.000900
10.073364 -6.939494 -2.008299
12.025249 -8.273739 -2.052179
15.499531 -10.643457 -2.199067
24.183323 -16.571211 -2.744030
29.530519 -20.231312 -2.515788
0.003782 -0.087176 -0.002323
0.003782 -0.087176 -0.002323
68.443619 -46.863976 -0.034653
0.003782 -0.087176 -0.002323
0.003782 -0.087176 -0.002323
0.003782 -0.087176 -0.002323
0.003782 -0.087176 -0.002323
0.003782 -0.087176 -0.002323
0.003782 -0.087176 -0.002323
0.003782 -0.087176 -0.002323
0.003782 -0.087176 -0.002323
0.493699 -0.424748 -0.355533
2.775939 -1.999623 -1.896361
2.905518 -2.089716 -1.878754
3.081298 -2.212583 -1.882004
3.282180 -2.352952 -1.890597
3.525820 -2.522217 -1.910757
3.762294 -2.687592 -1.913472
4.100357 -2.923555 -1.950250
4.444899 -3.163210 -1.971024
4.819631 -3.425202 -1.984827
5.259971 -3.733066 -2.001147
5.722501 -4.055296 -2.001174
6.242371 -4.419187 -1.993783
6.895088 -4.874135 -1.993902
7.631467 -5.389505 -1.980651
8.697807 -6.135179 -2.001976
10.024857 -6.996128 -2.006955
11.968365 -8.339024 -2.050734
15.444646 -10.744379 -2.200399
24.190418 -16.792925 -2.756244
29.451670 -20.434105 -2.519180
0.003794 -0.086975 -0.002318
0.003794 -0.086975 -0.002318
68.650284 -47.604366 -0.034619
0.003794 -0.086975 -0.002318
0.003794 -0.086975 -0.002318
0.003794 -0.086975 -0.002318
0.003794 -0.086975 -0.002318
0.003794 -0.086975 -0.002318
0.003794 -0.086975 -0.002318
0.003794 -0.086975 -0.002318
0.003794 -0.086975 -0.002318
0.495968 -0.430315 -0.358588
0.488248 -0.425178 -0.334650
2.891061 -2.104160 -1.876859
3.064625 -2.226986 -1.879294
3.266514 -2.368938 -1.888867
3.510256 -2.541196 -1.909925
3.756340 -2.715328 -1.918082
4.085987 -2.947238 -1.950958
4.427117 -3.188510 -1.971002
4.808704 -3.457256 -1.988010
5.242684 -3.764323 -2.002316
5.701146 -4.089034 -2.001700
6.233930 -4.464845 -1.998827
6.869009 -4.914625 -1.994333
7.606556 -5.435152 -1.981867
8.652669 -6.175464 -1.999341
9.984932 -7.053464 -2.006912
11.928823 -8.413184 -2.052080
15.391241 -10.838513 -2.201501
24.124933 -16.953259 -2.759695
29.424044 -20.665857 -2.526782
30.681343 -21.560865 -1.763014
0.003775 -0.086778 -0.002312
69.093239 -48.500942 -0.034699
0.003775 -0.086778 -0.002312
0.003775 -0.086778 -0.002312
0.003775 -0.086778 -0.002312
0.003775 -0.086778 -0.002312
0.003775 -0.086778 -0.002312
0.003775 -0.086778 -0.002312
0.003775 -0.086778 -0.002312
0.003775 -0.086778 -0.002312
0.484189 -0.425916 -0.351434
0.476385 -0.420633 -0.327781
2.882640 -2.122076 -1.878722
0.003757 -0.086581 -0.002307
3.259233 -2.391651 -1.892275
3.499075 -2.563242 -1.911535
3.746110 -2.739228 -1.920377
4.074011 -2.973712 -1.953121
4.418398 -3.220235 -1.975089
4.792329 -3.486837 -1.989269
5.224526 -3.796420 -2.003484
5.678005 -4.121549 -2.001673
6.207064 -4.499296 -1.998292
6.844295 -4.956096 -1.995226
7.568345 -5.475381 -1.980167
8.600443 -6.215012 -1.995593
9.962049 -7.120215 -2.010122
11.880733 -8.481446 -2.052031
15.339123 -10.929712 -2.202603
24.108515 -17.142548 -2.768556
0.003757 -0.086581 -0.002307
0.003757 -0.086581 -0.002307
0.003757 -0.086581 -0.002307
0.003757 -0.086581 -0.002307
0.003757 -0.086581 -0.002307
0.003757 -0.086581 -0.002307
0.003757 -0.086581 -0.002307
0.003757 -0.086581 -0.002307
0.003757 -0.086581 -0.002307
0.003757 -0.086581 -0.002307
0.003757 -0.086581 -0.002307
0.003757 -0.086581 -0.002307
0.494750 -0.437565 -0.360615
0.487149 -0.432362 -0.336597
2.870496 -2.138912 -1.878705
3.041238 -2.262710 -1.880158
3.244039 -2.409661 -1.891401
3.480309 -2.579920 -1.909074
3.734834 -2.764395 -1.922673
4.053819 -2.995417 -1.951645
4.401818 -3.246480 -1.975752
4.772085 -3.514967 -1.989245
5.205556 -3.829333 -2.004652
5.653138 -4.152804 -2.001094
6.196496 -4.547096 -2.003335
6.819325 -4.997445 -1.996119
7.541967 -5.522048 -1.981383
8.555479 -6.257267 -1.993330
9.916965 -7.176620 -2.009428
0.003769 -0.086384 -0.002302
15.282671 -11.025994 -2.203703
23.984350 -17.268677 -2.765848
0.003769 -0.086384 -0.002302
0.003769 -0.086384 -0.002302
0.003769 -0.086384 -0.002302
0.003769 -0.086384 -0.002302
0.003769 -0.086384 -0.002302
0.003769 -0.086384 -0.002302
0.003769 -0.086384 -0.002302
0.003769 -0.086384 -0.002302
0.003769 -0.086384 -0.002302
0.003769 -0.086384 -0.002302
0.003769 -0.086384 -0.002302
0.003769 -0.086384 -0.002302
0.480203 -0.431105 -0.351421
0.497857 -0.444146 -0.345413
2.860082 -2.156207 -1.879629
3.034475 -2.284147 -1.883735
3.232086 -2.429126 -1.892240
3.470325 -2.602903 -1.911498
3.719364 -2.785618 -1.922654
4.036989 -3.018474 -1.951624
4.386601 -3.273746 -1.977099
4.753799 -3.543259 -1.989862
5.185484 -3.860120 -2.005224
5.645189 -4.196360 -2.006588
6.162922 -4.576750 -2.000771
6.795694 -5.039813 -1.997474
7.526399 -5.576653 -1.985515
8.507131 -6.296889 -1.990324
9.879234 -7.235644 -2.010037
6.968227 -5.129945 -1.214105
0.003750 -0.086187 -0.002296
23.899630 -17.416658 -2.767433
0.003750 -0.086187 -0.002296
0.003750 -0.086187 -0.002296
0.003750 -0.086187 -0.002296
0.003750 -0.086187 -0.002296
0.003750 -0.086187 -0.002296
0.003750 -0.086187 -0.002296
0.003750 -0.086187 -0.002296
0.003750 -0.086187 -0.002296
0.003750 -0.086187 -0.002296
0.003750 -0.086187 -0.002296
0.003750 -0.086187 -0.002296
0.003750 -0.086187 -0.002296
0.492058 -0.443807 -0.361621
0.499992 -0.449871 -0.348346
2.849542 -2.173452 -1.880552
3.024655 -2.303462 -1.885514
3.214189 -2.444250 -1.889653
3.458294 -2.625366 -1.913108
3.703763 -2.806746 -1.922634
4.023072 -3.043633 -1.953060
4.373671 -3.303924 -1.979816
4.741459 -3.575944 -1.993044
5.172896 -3.896463 -2.008777
5.619198 -4.228380 -2.006009
6.149421 -4.621095 -2.004799
6.780307 -5.090182 -2.001599
7.482688 -5.612804 -1.982564
8.449623 -6.331787 -1.985462
9.828383 -7.285133 -2.008044
11.718219 -8.676058 -2.049370
0.003731 -0.085985 -0.002291
0.003731 -0.085985 -0.002291
34.970249 -25.771931 -3.052421
36.803822 -27.128214 -2.148980
0.003731 -0.085985 -0.002291
0.003731 -0.085985 -0.002291
0.003731 -0.085985 -0.002291
0.003731 -0.085985 -0.002291
0.003731 -0.085985 -0.002291
0.003731 -0.085985 -0.002291
0.003731 -0.085985 -0.002291
0.003731 -0.085985 -0.002291
0.003731 -0.085985 -0.002291
0.003731 -0.085985 -0.002291
0.481623 -0.440349 -0.355489
0.497829 -0.452607 -0.348339
2.838522 -2.191141 -1.881475
3.012877 -2.322201 -1.886394
3.206340 -2.466802 -1.893061
3.443625 -2.645004 -1.913089
3.690521 -2.830640 -1.924158
4.004488 -3.065396 -1.952311
4.355083 -3.328813 -1.979794
4.722821 -3.604077 -1.993662
5.146287 -3.922517 -2.006963
5.598342 -4.262722 -2.007087
6.121677 -4.655023 -2.004264
6.748270 -5.126560 -2.000644
7.454884 -5.656580 -1.983365
8.375325 -6.349167 -1.976150
9.785538 -7.343040 -2.008001
0.003743 -0.085785 -0.002286
6.902424 -5.209429 -1.008894
0.003743 -0.085785 -0.002286
34.837940 -25.984348 -3.053687
0.003743 -0.085785 -0.002286
0.003743 -0.085785 -0.002286
0.003743 -0.085785 -0.002286
0.003743 -0.085785 -0.002286
0.003743 -0.085785 -0.002286
0.003743 -0.085785 -0.002286
0.003743 -0.085785 -0.002286
0.003743 -0.085785 -0.002286
0.003743 -0.085785 -0.002286
0.003743 -0.085785 -0.002286
0.003743 -0.085785 -0.002286
0.478264 -0.441778 -0.354461
0.504120 -0.461445 -0.354214
2.823910 -2.204603 -1.879580
3.000369 -2.338753 -1.886379
3.189696 -2.482815 -1.891330
3.430313 -2.665653 -1.913885
3.670738 -2.847636 -1.921824
3.994700 -3.093773 -1.955931
4.334866 -3.352464 -1.979088
4.705518 -3.633255 -1.994920
5.130227 -3.956441 -2.009324
5.580359 -4.299274 -2.009268
6.103009 -4.695776 -2.006771
6.722272 -5.167423 -2.001537
7.142538 -5.489125 -1.908770
6.785537 -5.222528 -1.608430
0.003725 -0.085588 -0.002280
0.003725 -0.085588 -0.002280
6.845166 -5.226152 -1.004676
6.799689 -5.195598 -0.798690
0.003725 -0.085588 -0.002280
0.003725 -0.085588 -0.002280
0.003725 -0.085588 -0.002280
0.003725 -0.085588 -0.002280
0.003725 -0.085588 -0.002280
0.003725 -0.085588 -0.002280
0.003725 -0.085588 -0.002280
0.003725 -0.085588 -0.002280
0.003725 -0.085588 -0.002280
0.003725 -0.085588 -0.002280
0.003725 -0.085588 -0.002280
0.003725 -0.085588 -0.002280
0.481627 -0.448547 -0.358538
0.497706 -0.461040 -0.351265
2.811304 -2.221088 -1.879564
2.986941 -2.356281 -1.886361
3.181187 -2.505842 -1.894738
3.413955 -2.684020 -1.913053
3.655774 -2.870246 -1.922576
3.973842 -3.114924 -1.954454
4.320471 -3.380549 -1.981120
4.687426 -3.663162 -1.996179
5.110231 -3.988879 -2.010492
5.552949 -4.328756 -2.008137
6.070977 -4.728124 -2.005221
6.694478 -5.206974 -2.001969
0.003706 -0.085390 -0.002274
6.732482 -5.243323 -1.602834
0.003706 -0.085390 -0.002274
6.743782 -5.208946 -1.195281
6.778201 -5.238752 -0.999292
6.774025 -5.239208 -0.799218
0.003706 -0.085390 -0.002274
23.343069 -17.870823 -1.381356
0.003706 -0.085390 -0.002274
23.846436 -18.273434 -0.013149
0.003706 -0.085390 -0.002274
0.003706 -0.085390 -0.002274
0.003706 -0.085390 -0.002274
0.003706 -0.085390 -0.002274
0.003706 -0.085390 -0.002274
0.003706 -0.085390 -0.002274
0.003706 -0.085390 -0.002274
0.003706 -0.085390 -0.002274
0.469963 -0.443758 -0.351384
0.498309 -0.465802 -0.353219
2.804574 -2.241317 -1.883307
2.979490 -2.377572 -1.889936
3.161489 -2.519474 -1.891296
3.399918 -2.705108 -1.913848
3.641140 -2.892139 -1.923328
3.960779 -3.140929 -1.956618
4.308310 -3.411628 -1.984522
4.671270 -3.693329 -1.998078
5.093729 -4.022668 -2.012853
5.530742 -4.363728 -2.009214
6.057917 -4.773413 -2.009757
6.670141 -5.251112 -2.003784
6.669291 -5.254079 -1.798325
6.721985 -5.298579 -1.607626
6.746018 -5.270165 -1.402813
6.708581 -5.244982 -1.194412
6.732705 -5.265322 -0.996934
6.761624 -5.291235 -0.801239
6.837488 -5.353395 -0.608768
23.029963 -17.842321 -1.368774
0.003718 -0.085190 -0.002270
0.003718 -0.085190 -0.002270
0.003718 -0.085190 -0.002270
0.003718 -0.085190 -0.002270
0.003718 -0.085190 -0.002270
0.003718 -0.085190 -0.002270
0.003718 -0.085190 -0.002270
0.003718 -0.085190 -0.002270
0.003718 -0.085190 -0.002270
0.003718 -0.085190 -0.002270
0.474621 -0.451598 -0.356482
0.491886 -0.465317 -0.350270
2.790350 -2.256598 -1.882351
2.955985 -2.387285 -1.883633
3.149841 -2.540178 -1.892990
3.383358 -2.723284 -1.913016
3.627347 -2.915728 -1.924852
3.939653 -3.161840 -1.955141
4.289103 -3.436138 -1.984500
4.651293 -3.721903 -1.998696
5.067304 -4.050217 -2.011635
5.509078 -4.397628 -2.010292
6.033085 -4.811405 -2.010742
6.621927 -5.274771 -1.998211
6.668684 -5.315087 -1.806208
6.857246 -5.466815 -1.647291
6.744770 -5.332867 -1.408956
6.686581 -5.289355 -1.195776
6.734775 -5.330555 -1.001788
6.747896 -5.344472 -0.803258
6.791335 -5.380145 -0.607334
0.003699 -0.084993 -0.002264
23.767523 -18.649530 -0.713146
23.805714 -18.685709 -0.013032
0.003699 -0.084993 -0.002264
0.003699 -0.084993 -0.002264
0.003699 -0.084993 -0.002264
0.003699 -0.084993 -0.002264
0.003699 -0.084993 -0.002264
0.003699 -0.084993 -0.002264
0.003699 -0.084993 -0.002264
0.003699 -0.084993 -0.002264
0.461679 -0.445590 -0.348308
0.496535 -0.473318 -0.355165
2.780586 -2.274586 -1.884214
2.948308 -2.408463 -1.887209
3.137514 -2.558612 -1.893829
3.369556 -2.743618 -1.913811
3.610991 -2.936333 -1.924832
3.925353 -3.185863 -1.956577
4.269733 -3.460541 -1.984477
4.630908 -3.747577 -1.998672
5.051069 -4.082946 -2.013995
5.476645 -4.423057 -2.007505
6.015702 -4.851981 -2.013757
6.617882 -5.333122 -2.006031
7.304357 -5.879797 -1.986945
8.192132 -6.588999 -1.976335
6.756322 -5.404334 -1.417698
6.673650 -5.340996 -1.198815
6.710731 -5.373910 -1.002688
6.728492 -5.391613 -0.804533
6.839071 -5.480711 -0.614314
0.003681 -0.084795 -0.002258
0.003681 -0.084795 -0.002258
0.003681 -0.084795 -0.002258
0.003681 -0.084795 -0.002258
0.003681 -0.084795 -0.002258
0.003681 -0.084795 -0.002258
0.003681 -0.084795 -0.002258
0.003681 -0.084795 -0.002258
0.003681 -0.084795 -0.002258
0.003681 -0.084795 -0.002258
0.003681 -0.084795 -0.002258
0.454267 -0.443656 -0.344218
0.495714 -0.476951 -0.356138
2.771078 -2.292048 -1.886078
2.933880 -2.423542 -1.886294
3.121824 -2.575274 -1.892956
3.352763 -2.761604 -1.912979
3.593592 -2.955062 -1.924042
3.908907 -3.209337 -1.957285
4.248791 -3.483654 -1.983771
4.623068 -3.784599 -2.004417
5.032456 -4.115303 -2.015760
5.465074 -4.465102 -2.012446
5.982156 -4.881445 -2.011700
6.593648 -5.375763 -2.007847
7.269879 -5.922771 -1.986910
8.150366 -6.634758 -1.975555
6.752777 -5.462629 -1.423191
6.664972 -5.396366 -1.202690
6.715289 -5.438290 -1.007775
6.709648 -5.437539 -0.805806
0.003693 -0.084595 -0.002254
0.003693 -0.084595 -0.002254
0.003693 -0.084595 -0.002254
0.003693 -0.084595 -0.002254
0.003693 -0.084595 -0.002254
0.003693 -0.084595 -0.002254
0.003693 -0.084595 -0.002254
0.003693 -0.084595 -0.002254
0.003693 -0.084595 -0.002254
0.003693 -0.084595 -0.002254
0.003693 -0.084595 -0.002254
0.003693 -0.084595 -0.002254
0.469542 -0.460157 -0.357481
0.492034 -0.478567 -0.355151
2.764797 -2.313765 -1.890758
2.919985 -2.440674 -1.886278
3.108421 -2.594653 -1.893795
3.341565 -2.784076 -1.915403
3.576509 -2.976095 -1.924022
3.896094 -3.236927 -1.960176
4.242293 -3.518473 -1.989911
4.593710 -3.805751 -2.001189
5.005532 -4.142435 -2.014542
5.444273 -4.499883 -2.014076
5.956612 -4.919039 -2.012685
6.572153 -5.420750 -2.010586
7.237696 -5.965509 -1.987293
6.734378 -5.560128 -1.640147
0.003674 -0.084397 -0.002248
6.683625 -5.474196 -1.211588
6.776162 -5.552651 -1.021702
6.721173 -5.512033 -0.810996
0.003674 -0.084397 -0.002248
0.003674 -0.084397 -0.002248
0.003674 -0.084397 -0.002248
24.078075 -19.576321 -0.013008
0.003674 -0.084397 -0.002248
0.003674 -0.084397 -0.002248
0.003674 -0.084397 -0.002248
0.003674 -0.084397 -0.002248
0.003674 -0.084397 -0.002248
0.003674 -0.084397 -0.002248
0.003674 -0.084397 -0.002248
0.003674 -0.084397 -0.002248
0.464699 -0.460460 -0.355432
0.480300 -0.473454 -0.348282
2.758776 -2.335000 -1.895441
2.909135 -2.459479 -1.888057
3.093899 -2.612280 -1.893777
3.318434 -2.797830 -1.911313
3.558383 -2.995233 -1.923231
3.892299 -3.270877 -1.967437
4.224774 -3.545721 -1.991259
4.582457 -3.840309 -2.005652
4.986531 -4.174578 -2.016307
5.412072 -4.526976 -2.011841
5.933174 -4.956694 -2.014178
6.537427 -5.456917 -2.009632
7.205720 -6.010574 -1.988092
7.238871 -6.041967 -1.771441
6.819454 -5.646751 -1.450745
6.808005 -5.641271 -1.240017
6.769193 -5.611430 -1.025392
0.003656 -0.084200 -0.002242
0.003656 -0.084200 -0.002242
21.490814 -17.668800 -1.306642
0.003656 -0.084200 -0.002242
23.963684 -19.719723 -0.012907
0.003656 -0.084200 -0.002242
0.003656 -0.084200 -0.002242
0.003656 -0.084200 -0.002242
0.003656 -0.084200 -0.002242
0.003656 -0.084200 -0.002242
0.003656 -0.084200 -0.002242
0.003656 -0.084200 -0.002242
0.003656 -0.084200 -0.002242
0.457141 -0.458608 -0.351342
0.476611 -0.474967 -0.347293
2.739938 -2.346594 -1.891666
2.896379 -2.477601 -1.888938
3.084438 -2.634968 -1.897184
3.299962 -2.814327 -1.909667
3.542502 -3.017235 -1.923984
3.870483 -3.291297 -1.965960
4.203344 -3.568551 -1.990552
4.558658 -3.865978 -2.004987
4.962193 -4.203847 -2.016281
5.390848 -4.561505 -2.013470
5.905695 -4.992794 -2.014656
6.513876 -5.500443 -2.011909
7.170012 -6.050456 -1.987642
7.190911 -6.071967 -1.768069
0.003667 -0.084000 -0.002238
6.783565 -5.686429 -1.241380
0.003667 -0.084000 -0.002238
21.325464 -17.727184 -2.593716
21.255571 -17.675253 -1.940846
21.344685 -17.761229 -1.304016
0.003667 -0.084000 -0.002238
0.003667 -0.084000 -0.002238
0.003667 -0.084000 -0.002238
0.003667 -0.084000 -0.002238
0.003667 -0.084000 -0.002238
0.003667 -0.084000 -0.002238
0.003667 -0.084000 -0.002238
0.003667 -0.084000 -0.002238
0.003667 -0.084000 -0.002238
0.003667 -0.084000 -0.002238
0.460263 -0.465423 -0.355418
0.473034 -0.476362 -0.346307
2.729571 -2.364371 -1.893529
2.883936 -2.495152 -1.889819
3.064174 -2.647809 -1.893742
3.287001 -2.835398 -1.911277
3.529796 -3.040907 -1.926279
3.853397 -3.314487 -1.966668
4.187548 -3.596081 -1.992584
4.535383 -3.890704 -2.004323
4.936927 -4.230879 -2.015659
5.367951 -4.594697 -2.014547
5.883286 -5.031449 -2.016656
6.482619 -5.537602 -2.011879
7.138557 -6.093907 -1.988441
7.139788 -6.099085 -1.763954
0.003649 -0.083802 -0.002232
7.279982 -6.167199 -1.338446
14.416346 -12.141901 -2.202889
22.950481 -19.295076 -2.804511
0.003649 -0.083802 -0.002232
0.003649 -0.083802 -0.002232
0.003649 -0.083802 -0.002232
0.003649 -0.083802 -0.002232
0.003649 -0.083802 -0.002232
0.003649 -0.083802 -0.002232
0.003649 -0.083802 -0.002232
0.003649 -0.083802 -0.002232
0.003649 -0.083802 -0.002232
0.003649 -0.083802 -0.002232
7.496609 -6.395764 1.603995
0.003649 -0.083802 -0.002232
0.451482 -0.462289 -0.350307
0.470755 -0.478853 -0.346299
2.739321 -2.399205 -1.909485
2.875471 -2.516105 -1.893394
3.052124 -2.667508 -1.895437
3.273881 -2.856403 -1.912886
3.516932 -3.064525 -1.928573
3.836149 -3.337588 -1.967375
4.165820 -3.618678 -1.991877
4.522056 -3.923870 -2.008144
4.915896 -4.261464 -2.016827
5.353619 -4.635247 -2.018936
5.862075 -5.071260 -2.019163
6.454101 -5.577108 -2.012771
7.108329 -6.138455 -1.989656
7.221706 -6.239306 -1.792855
7.185576 -6.156575 -1.550719
7.284172 -6.242007 -1.345666
0.003630 -0.083601 -0.002226
0.003630 -0.083601 -0.002226
20.207008 -17.202362 -1.862866
20.353628 -17.338486 -1.255417
0.003630 -0.083601 -0.002226
0.003630 -0.083601 -0.002226
0.003630 -0.083601 -0.002226
0.003630 -0.083601 -0.002226
0.003630 -0.083601 -0.002226
0.003630 -0.083601 -0.002226
0.003630 -0.083601 -0.002226
0.003630 -0.083601 -0.002226
7.455646 -6.434711 1.603061
0.003630 -0.083601 -0.002226
0.451884 -0.466900 -0.352341
0.471112 -0.483605 -0.348252
0.481044 -0.492245 -0.336694
2.855988 -2.527739 -1.889785
3.037202 -2.684808 -1.895419
3.259259 -2.876166 -1.913682
3.495525 -3.080883 -1.926239
3.815950 -3.358173 -1.966626
4.145432 -3.642364 -1.991856
4.501344 -3.950837 -2.008763
4.894672 -4.291947 -2.017994
5.320060 -4.659482 -2.016149
5.831832 -5.103418 -2.018627
6.423868 -5.615197 -2.013201
7.076354 -6.181582 -1.990456
7.305209 -6.383236 -1.822497
7.235977 -6.270717 -1.569204
0.003642 -0.083401 -0.002221
7.265385 -6.302200 -1.121800
7.235671 -6.281026 -0.893992
0.003642 -0.083401 -0.002221
20.238895 -17.442047 -1.254393
0.003642 -0.083401 -0.002221
0.003642 -0.083401 -0.002221
0.003642 -0.083401 -0.002221
0.003642 -0.083401 -0.002221
0.003642 -0.083401 -0.002221
0.003642 -0.083401 -0.002221
0.003642 -0.083401 -0.002221
0.003642 -0.083401 -0.002221
0.003642 -0.083401 -0.002221
0.003642 -0.083401 -0.002221
0.453588 -0.472650 -0.355396
0.464830 -0.482666 -0.345304
0.486668 -0.501723 -0.342323
2.845929 -2.547422 -1.892462
3.027641 -2.706762 -1.898827
3.241288 -2.894018 -1.912850
3.481024 -3.103144 -1.927763
3.801261 -3.383518 -1.968789
4.127099 -3.669122 -1.993203
4.479022 -3.976452 -2.008739
4.874703 -4.323580 -2.019759
5.297196 -4.694503 -2.017778
5.802843 -5.136670 -2.018598
6.392406 -5.654237 -2.013631
7.043037 -6.225770 -1.991255
7.153769 -6.326671 -1.793899
7.334555 -6.428255 -1.598410
0.003623 -0.083203 -0.002216
0.003623 -0.083203 -0.002216
7.168323 -6.294932 -0.890043
0.003623 -0.083203 -0.002216
7.289664 -6.406590 -0.455295
0.003623 -0.083203 -0.002216
0.003623 -0.083203 -0.002216
0.003623 -0.083203 -0.002216
0.003623 -0.083203 -0.002216
0.003623 -0.083203 -0.002216
0.003623 -0.083203 -0.002216
0.003623 -0.083203 -0.002216
7.428644 -6.558073 1.379044
0.003623 -0.083203 -0.002216
0.003623 -0.083203 -0.002216
0.448673 -0.472845 -0.353348
0.461129 -0.484050 -0.344316
0.497443 -0.516021 -0.351711
2.831279 -2.564030 -1.892446
3.003901 -2.717288 -1.893672
3.225058 -2.912400 -1.912831
3.458883 -3.119855 -1.925429
3.778832 -3.403313 -1.967312
4.110626 -3.696313 -1.995234
4.464373 -4.010228 -2.012560
4.855212 -4.357228 -2.022119
5.273457 -4.727226 -2.018855
5.788735 -5.184834 -2.024147
6.361712 -5.691986 -2.014061
7.009049 -6.267262 -1.991637
7.094150 -6.346684 -1.787929
0.003605 -0.083006 -0.002210
0.003605 -0.083006 -0.002210
7.123527 -6.325950 -1.111030
7.113392 -6.321331 -0.887771
7.133392 -6.340963 -0.668690
7.190524 -6.395411 -0.451414
0.003605 -0.083006 -0.002210
0.003605 -0.083006 -0.002210
0.003605 -0.083006 -0.002210
0.003605 -0.083006 -0.002210
0.003605 -0.083006 -0.002210
0.003605 -0.083006 -0.002210
0.003605 -0.083006 -0.002210
7.351167 -6.565094 1.371581
0.003605 -0.083006 -0.002210
0.003605 -0.083006 -0.002210
0.442537 -0.471781 -0.350278
0.457509 -0.485319 -0.343329
0.493625 -0.517484 -0.350765
2.815602 -2.578878 -1.891531
2.992738 -2.737910 -1.896223
3.207351 -2.929479 -1.911999
3.441361 -3.139485 -1.925410
3.762470 -3.427257 -1.968748
4.086947 -3.717185 -1.993843
4.448780 -4.041927 -2.015741
4.833407 -4.387410 -2.023287
5.250945 -4.761106 -2.020483
5.749197 -5.208814 -2.020569
6.338074 -5.736047 -2.016802
6.966071 -6.300745 -1.989522
7.066795 -6.395030 -1.790121
7.082714 -6.355987 -1.559354
7.106816 -6.379438 -1.339390
7.087510 -6.366601 -1.110996
7.077400 -6.361926 -0.887737
7.109206 -6.392270 -0.669777
7.152580 -6.435121 -0.451285
0.003586 -0.082809 -0.002204
0.003586 -0.082809 -0.002204
0.003586 -0.082809 -0.002204
0.003586 -0.082809 -0.002204
0.003586 -0.082809 -0.002204
0.003586 -0.082809 -0.002204
0.003586 -0.082809 -0.002204
7.338866 -6.629468 1.376338
7.293142 -6.593102 1.600289
0.003586 -0.082809 -0.002204
6.455466 -5.866567 -5.144672
0.453886 -0.486561 -0.342342
0.492422 -0.521280 -0.351697
2.802537 -2.596009 -1.892412
2.978760 -2.756074 -1.897062
3.193643 -2.950110 -1.913608
3.420977 -3.156549 -1.923848
3.741767 -3.447383 -1.967999
4.070181 -3.744190 -1.995875
4.421714 -4.063432 -2.013795
4.804304 -4.411091 -2.021473
5.231085 -4.797457 -2.023216
5.733985 -5.254547 -2.025611
6.306891 -5.773497 -2.017232
6.938884 -6.348367 -1.991986
0.003599 -0.082612 -0.002200
7.075891 -6.422756 -1.565817
7.129453 -6.472885 -1.350515
7.058629 -6.413683 -1.112125
7.052992 -6.412960 -0.889194
7.081702 -6.440840 -0.670584
7.135238 -6.493301 -0.452470
0.003599 -0.082612 -0.002200
59.264278 -53.406601 -0.027701
58.756680 -52.985935 1.808077
42.378120 -38.264175 2.639484
0.003599 -0.082612 -0.002200
0.003599 -0.082612 -0.002200
0.003599 -0.082612 -0.002200
7.299611 -6.670023 1.376095
7.255560 -6.634721 1.600324
0.003599 -0.082612 -0.002200
0.003580 -0.082415 -0.002194
0.452842 -0.490119 -0.343315
0.492496 -0.526260 -0.353568
2.786689 -2.610674 -1.891497
2.964653 -2.774167 -1.897900
3.175733 -2.966986 -1.912776
3.400518 -3.173475 -1.922286
3.723727 -3.469892 -1.968707
4.049035 -3.767329 -1.995853
4.401542 -4.091138 -2.015053
4.780715 -4.439729 -2.022044
5.202460 -4.825956 -2.022638
5.704114 -5.287230 -2.025582
6.281221 -5.816029 -2.019510
6.899845 -6.385321 -1.991120
0.003580 -0.082415 -0.002194
7.132882 -6.547979 -1.586575
7.082314 -6.504257 -1.348529
7.036802 -6.467316 -1.114417
7.028271 -6.463917 -0.890652
7.056826 -6.491984 -0.671671
0.003580 -0.082415 -0.002194
0.003580 -0.082415 -0.002194
60.320213 -54.987686 -0.028038
0.003580 -0.082415 -0.002194
0.003580 -0.082415 -0.002194
0.003580 -0.082415 -0.002194
0.003580 -0.082415 -0.002194
0.003580 -0.082415 -0.002194
7.254270 -6.704999 1.374742
7.217744 -6.676125 1.600359
0.003580 -0.082415 -0.002194
0.003561 -0.082217 -0.002188
0.446632 -0.488963 -0.340367
0.495130 -0.533643 -0.357319
2.776051 -2.630074 -1.894174
2.950447 -2.792184 -1.898739
3.161266 -2.988019 -1.914385
3.389444 -3.199023 -1.926123
3.709647 -3.496090 -1.971598
4.025729 -3.789776 -1.995146
4.377010 -4.114894 -2.014389
4.762589 -4.473412 -2.025001
5.172831 -4.855190 -2.022059
5.671249 -5.317115 -2.024539
6.245690 -5.851622 -2.019016
6.865211 -6.428548 -1.991918
0.003561 -0.082217 -0.002188
7.092651 -6.586019 -1.585891
7.074754 -6.574028 -1.354352
7.035051 -6.539718 -1.119964
7.033946 -6.543097 -0.896023
7.043660 -6.556435 -0.674018
19.799639 -18.293144 -1.265034
0.003561 -0.082217 -0.002188
19.626680 -18.158623 -0.010560
0.003561 -0.082217 -0.002188
41.546833 -38.389801 2.615318
41.721420 -38.576977 3.949304
43.025509 -39.807354 5.442442
0.003561 -0.082217 -0.002188
7.190147 -6.724800 1.370057
7.178522 -6.718560 1.600395
0.003561 -0.082217 -0.002188
6.358713 -5.982270 -5.148659
0.442917 -0.490199 -0.339379
0.491162 -0.535150 -0.356373
2.762215 -2.647484 -1.895055
2.936984 -2.811870 -1.900434
3.136468 -2.998472 -1.909483
3.368223 -3.216322 -1.924561
3.679805 -3.508909 -1.966481
4.005731 -3.813934 -1.995809
4.354425 -4.141842 -2.015006
4.735076 -4.500045 -2.024379
5.149506 -4.888587 -2.023688
5.634469 -5.345135 -2.022482
6.210987 -5.885906 -2.018523
6.834321 -6.473061 -1.993550
7.638747 -7.230580 -1.976182
7.082900 -6.654579 -1.592353
0.003573 -0.082017 -0.002184
0.003573 -0.082017 -0.002184
7.062611 -6.646833 -0.904563
7.061823 -6.648263 -0.679309
19.646034 -18.367750 -1.262038
0.003573 -0.082017 -0.002184
19.488710 -18.239637 -0.010459
0.003573 -0.082017 -0.002184
41.218292 -38.541080 2.609113
41.394253 -38.718063 3.939482
41.944931 -39.258720 5.334303
0.003573 -0.082017 -0.002184
7.203913 -6.814523 1.380089
7.141660 -6.760867 1.600753
0.003573 -0.082017 -0.002184
6.324673 -6.018541 -5.148628
0.444363 -0.496103 -0.342313
0.493679 -0.542587 -0.360123
2.744783 -2.660668 -1.893242
2.921706 -2.827996 -1.900416
3.120979 -3.017504 -1.910279
3.343398 -3.229106 -1.920684
3.656559 -3.525333 -1.964276
3.982824 -3.835411 -1.995103
4.330315 -4.164554 -2.014342
4.710380 -4.526171 -2.024355
5.120375 -4.916594 -2.023109
5.612051 -5.382909 -2.024989
6.180310 -5.924000 -2.019415
6.798555 -6.510868 -1.993517
7.608757 -7.282317 -1.978743
8.877620 -8.416176 -2.006177
10.544522 -9.984996 -2.039401
13.655680 -12.916635 -2.195983
0.003555 -0.081820 -0.002178
0.003555 -0.081820 -0.002178
0.003555 -0.081820 -0.002178
19.447361 -18.398539 -0.630594
19.429066 -18.393744 -0.010393
19.471573 -18.446297 0.610943
40.647125 -38.434216 2.586609
40.775322 -38.581337 3.901738
19.470535 -18.469963 2.487829
0.003555 -0.081820 -0.002178
7.162172 -6.852903 1.379569
7.105735 -6.801728 1.601111
0.003555 -0.081820 -0.002178
6.296441 -6.058258 -5.152679
0.443310 -0.499558 -0.343286
0.491013 -0.545202 -0.360116
2.736835 -2.681883 -1.897716
2.907171 -2.845787 -1.901255
3.105359 -3.036452 -1.911074
3.330582 -3.253165 -1.923751
3.623224 -3.533238 -1.956976
3.962528 -3.859341 -1.995765
4.303316 -4.187310 -2.013037
4.628719 -4.501044 -2.000476
4.752015 -4.620326 -1.887877
5.542789 -5.379756 -2.011269
6.152603 -5.967039 -2.021692
6.764854 -6.557424 -1.995148
7.560271 -7.321631 -1.977221
8.818097 -8.453119 -2.003212
10.475911 -10.034355 -2.037121
13.545009 -12.955432 -2.189643
0.003536 -0.081622 -0.002172
19.281307 -18.433813 -1.871534
0.003536 -0.081622 -0.002172
19.332989 -18.501602 -0.630226
19.334969 -18.516020 -0.010311
19.342438 -18.535688 0.610298
0.003536 -0.081622 -0.002172
41.146149 -39.381416 3.959003
0.003536 -0.081622 -0.002172
0.003536 -0.081622 -0.002172
7.136207 -6.908703 1.382383
7.067173 -6.844867 1.601471
0.003536 -0.081622 -0.002172
6.256138 -6.092779 -5.149585
0.440754 -0.502033 -0.343279
0.483081 -0.543070 -0.356350
2.719627 -2.697078 -1.896800
2.891529 -2.864514 -1.902093
3.088576 -3.056395 -1.911869
3.303196 -3.265521 -1.919102
3.587338 -3.540836 -1.948946
3.933992 -3.878010 -1.993004
3.941704 -3.888049 -1.854734
4.249036 -4.187886 -1.847195
0.003548 -0.081422 -0.002168
5.065573 -4.982624 -1.848971
5.606455 -5.510004 -1.853138
6.735041 -6.607893 -1.998027
7.490540 -7.342780 -1.970506
8.773981 -8.513386 -2.004793
10.407841 -10.091003 -2.035675
13.388940 -12.963234 -2.177021
22.396149 -21.646248 -2.912014
37.018501 -35.752239 -3.612375
41.780792 -40.368942 -2.726269
0.003548 -0.081422 -0.002168
41.776215 -40.405205 -0.019672
39.975510 -38.693184 1.271373
0.003548 -0.081422 -0.002168
0.003548 -0.081422 -0.002168
32.318470 -31.349419 4.179298
0.003548 -0.081422 -0.002168
7.075920 -6.933974 1.378809
7.028602 -6.890381 1.602155
0.003548 -0.081422 -0.002168
6.226229 -6.130966 -5.152616
0.442137 -0.507913 -0.346212
0.483081 -0.547918 -0.358221
2.701144 -2.708248 -1.894090
2.877269 -2.881640 -1.902932
3.071936 -3.073359 -1.911851
3.288588 -3.285680 -1.920627
3.543983 -3.537151 -1.935821
3.771578 -3.761801 -1.921099
3.788263 -3.779314 -1.791914
4.222679 -4.206564 -1.845384
4.597001 -4.575591 -1.846990
5.040404 -5.011056 -1.849453
5.568712 -5.531826 -1.850340
6.149237 -6.104488 -1.833931
6.899893 -6.844794 -1.825081
8.743774 -8.578483 -2.008649
10.367479 -10.163868 -2.038695
13.299785 -13.020865 -2.174170
19.480846 -19.049009 -2.546799
31.979498 -31.241858 -3.137667
32.006409 -31.278374 -2.099753
0.003529 -0.081221 -0.002162
32.073399 -31.386141 -0.015541
40.063873 -39.198933 1.281071
40.353977 -39.508965 2.611854
40.538849 -39.716499 3.945194
41.288788 -40.477207 5.369285
7.150170 -7.076208 1.164263
7.037386 -6.970490 1.378565
6.989115 -6.927865 1.601865
0.003529 -0.081221 -0.002162
6.190257 -6.167554 -5.152584
0.432136 -0.502970 -0.340324
0.471496 -0.541882 -0.351638
2.691892 -2.730268 -1.898562
2.860612 -2.898428 -1.902914
3.059860 -3.095898 -1.915089
3.272173 -3.307491 -1.922150
3.504884 -3.539552 -1.925608
3.529791 -3.565288 -1.808119
3.766289 -3.801485 -1.791893
4.189995 -4.223248 -1.841781
4.557401 -4.588223 -1.841446
5.006955 -5.036545 -1.847904
5.537247 -5.563555 -1.850310
6.106159 -6.131280 -1.831402
6.852519 -6.875847 -1.822822
8.705912 -8.642394 -2.011529
10.302249 -10.216176 -2.037251
13.221460 -13.097852 -2.173875
18.661762 -18.467859 -2.453896
36.658894 -36.215134 -3.616680
0.003511 -0.081023 -0.002156
34.471828 -34.105339 -1.140942
0.003511 -0.081023 -0.002156
39.718964 -39.324432 1.277629
0.003511 -0.081023 -0.002156
40.392460 -40.030174 3.953429
0.003511 -0.081023 -0.002156
7.073275 -7.083291 1.158507
6.980735 -6.993907 1.375267
6.953818 -6.971898 1.602871
0.003511 -0.081023 -0.002156
6.157577 -6.205281 -5.154593
0.433403 -0.508922 -0.343257
0.465089 -0.540630 -0.348812
2.676590 -2.745496 -1.898545
2.846123 -2.915403 -1.903753
3.043749 -3.114524 -1.915884
3.254862 -3.327351 -1.922902
3.427543 -3.500914 -1.893555
3.449883 -3.525541 -1.777293
3.745467 -3.822222 -1.791872
4.160081 -4.239588 -1.838778
0.003522 -0.080823 -0.002152
4.977872 -5.062809 -1.847371
5.505611 -5.595104 -1.850282
6.075060 -6.167803 -1.832203
6.810330 -6.909575 -1.821675
8.656524 -8.692117 -2.011487
10.224122 -10.255492 -2.033297
13.143545 -13.170669 -2.173348
18.417463 -18.436913 -2.435547
37.309368 -37.281708 -3.701698
0.003522 -0.080823 -0.002152
0.003522 -0.080823 -0.002152
0.003522 -0.080823 -0.002152
39.635406 -39.694790 1.282432
6.936036 -7.012506 0.452154
6.941302 -7.022463 0.681246
6.956637 -7.040099 0.912748
6.968146 -7.056340 1.147651
6.947833 -7.040735 1.376691
6.918032 -7.013151 1.603553
0.003522 -0.080823 -0.002152
6.125761 -6.241763 -5.156604
0.431004 -0.511114 -0.343250
0.463747 -0.544255 -0.349744
2.666723 -2.765242 -1.902121
2.831029 -2.932798 -1.904592
3.023691 -3.129173 -1.914238
3.222403 -3.330820 -1.914398
0.003504 -0.080625 -0.002146
3.398286 -3.513047 -1.760842
3.718563 -3.838099 -1.789287
0.003504 -0.080625 -0.002146
0.003504 -0.080625 -0.002146
4.934187 -5.076002 -1.841767
0.003504 -0.080625 -0.002146
6.048481 -6.213236 -1.835086
6.862147 -7.043407 -1.846488
8.601418 -8.733048 -2.009822
10.168201 -10.316732 -2.033806
13.047932 -13.221003 -2.169568
18.191387 -18.414734 -2.419066
18.427649 -18.665497 -1.839722
18.435562 -18.679632 -1.230871
0.003504 -0.080625 -0.002146
18.472752 -18.742464 -0.009746
18.484510 -18.760504 0.600322
6.662896 -6.816228 0.436818
6.829732 -6.989673 0.674195
6.920866 -7.086652 0.913524
6.943230 -7.111636 1.150235
18.567154 -18.901228 3.705309
6.879603 -7.056615 1.604235
18.606695 -18.960316 4.983759
6.089149 -6.277754 -5.156572
0.425991 -0.510955 -0.341283
0.457278 -0.542997 -0.346919
2.650776 -2.780784 -1.902104
2.814070 -2.949312 -1.904574
3.007379 -3.147607 -1.915034
3.212130 -3.358877 -1.919779
3.318331 -3.469696 -1.854930
3.356152 -3.509481 -1.749185
3.694908 -3.858503 -1.788625
4.091229 -4.266967 -1.829787
4.469542 -4.655918 -1.837510
4.936898 -5.138182 -1.853909
0.003485 -0.080428 -0.002140
6.082741 -6.319165 -1.856290
6.841183 -7.102262 -1.851646
8.544445 -8.778028 -2.008479
10.149394 -10.415819 -2.041846
12.960084 -13.287963 -2.167877
18.128397 -18.568937 -2.425130
18.381868 -18.833668 -1.845801
18.390715 -18.855429 -1.235191
18.406469 -18.884283 -0.620540
18.435047 -18.919668 -0.009691
18.460154 -18.958143 0.603251
6.628425 -6.861094 0.437223
6.661603 -6.897311 0.661447
6.884608 -7.130399 0.914115
6.912537 -7.163816 1.152125
6.872813 -7.125429 1.377872
6.843487 -7.100090 1.605241
0.003485 -0.080428 -0.002140
6.055773 -6.314940 -5.158581
0.424695 -0.514433 -0.342255
0.460746 -0.551739 -0.351609
0.481072 -0.573030 -0.346928
2.797516 -2.965240 -1.904556
2.989138 -3.165162 -1.915015
3.197045 -3.381067 -1.922073
3.276768 -3.465749 -1.842534
3.337079 -3.530447 -1.749850
3.663873 -3.869941 -1.784118
4.069733 -4.292964 -1.830957
4.482358 -4.723622 -1.854038
4.911754 -5.170457 -1.855403
5.446471 -5.728820 -1.863122
6.112134 -6.423936 -1.876660
6.778999 -7.121227 -1.846047
8.495645 -8.828236 -2.008762
10.061764 -10.448567 -2.036497
12.859000 -13.336409 -2.163631
18.100746 -18.754202 -2.435669
0.003497 -0.080228 -0.002135
0.003497 -0.080228 -0.002135
0.003497 -0.080228 -0.002135
0.003497 -0.080228 -0.002135
40.474430 -41.953625 1.333397
6.596238 -6.906074 0.437721
6.629414 -6.945060 0.662315
0.003497 -0.080228 -0.002135
0.003497 -0.080228 -0.002135
6.818574 -7.152977 1.375408
6.801754 -7.140300 1.605277
0.003497 -0.080228 -0.002135
6.018723 -6.350514 -5.158549
0.420899 -0.515465 -0.341268
0.449401 -0.545316 -0.345026
0.480618 -0.578238 -0.348717
2.781616 -2.982861 -1.905395
2.968801 -3.179453 -1.913369
3.176141 -3.398407 -1.921282
3.250214 -3.478159 -1.838875
3.328853 -3.561599 -1.755991
0.003479 -0.080030 -0.002130
4.053912 -4.326465 -1.835107
4.458228 -4.751897 -1.855117
4.886826 -5.204867 -1.857404
5.463556 -5.811974 -1.880175
6.089043 -6.472942 -1.880793
6.731597 -7.152772 -1.844158
8.447728 -8.882489 -2.009693
10.025261 -10.530357 -2.041189
12.745844 -13.376319 -2.157756
18.062748 -18.937157 -2.445459
20.611935 -21.606060 -2.094400
20.560850 -21.567274 -1.397262
0.003479 -0.080030 -0.002130
0.003479 -0.080030 -0.002130
40.229713 -42.196873 1.333718
6.572210 -6.962169 0.438866
6.589784 -6.982862 0.662350
0.003479 -0.080030 -0.002130
0.003479 -0.080030 -0.002130
6.790072 -7.204765 1.377942
6.765108 -7.183372 1.606283
0.003479 -0.080030 -0.002130
5.986103 -6.388570 -5.161580
0.414800 -0.513865 -0.338320
0.450328 -0.551526 -0.347836
0.487562 -0.591158 -0.355892
2.766121 -2.999910 -1.906234
2.953449 -3.198916 -1.914979
3.162063 -3.421771 -1.924348
3.244680 -3.511481 -1.846863
3.302319 -3.573645 -1.752548
3.680485 -3.976807 -1.814191
4.039881 -4.360612 -1.839854
4.439176 -4.785642 -1.858403
4.849319 -5.224226 -1.854336
5.421137 -5.833175 -1.876913
6.060185 -6.516196 -1.883258
0.003460 -0.079833 -0.002124
8.401029 -8.935019 -2.010625
9.967704 -10.590509 -2.041698
6.675797 -7.122870 -1.137687
6.688377 -7.140927 -0.912008
0.003460 -0.079833 -0.002124
0.003460 -0.079833 -0.002124
6.680900 -7.144960 -0.230523
6.682964 -7.149462 -0.004822
6.688408 -7.160046 0.221249
0.003460 -0.079833 -0.002124
6.647167 -7.123480 0.672250
0.003460 -0.079833 -0.002124
0.003460 -0.079833 -0.002124
6.735394 -7.229061 1.375199
6.726826 -7.224820 1.606965
0.003460 -0.079833 -0.002124
5.955601 -6.428967 -5.166652
0.412276 -0.516027 -0.338313
0.441567 -0.547448 -0.343132
0.490703 -0.600263 -0.360374
2.746800 -3.012920 -1.904504
2.934201 -3.214308 -1.914147
3.136503 -3.432949 -1.920473
3.237573 -3.543491 -1.854123
3.284712 -3.595117 -1.753897
3.652825 -3.992157 -1.811607
4.016500 -4.384961 -1.840428
4.408100 -4.806669 -1.856723
4.822267 -5.254653 -1.855323
5.390598 -5.866898 -1.877807
6.009759 -6.536409 -1.879063
6.556119 -7.128555 -1.818130
6.599417 -7.115639 -1.589339
0.003472 -0.079633 -0.002119
0.003472 -0.079633 -0.002119
0.003472 -0.079633 -0.002119
6.611402 -7.142676 -0.681135
6.608429 -7.144314 -0.455795
0.003472 -0.079633 -0.002119
0.003472 -0.079633 -0.002119
0.003472 -0.079633 -0.002119
0.003472 -0.079633 -0.002119
0.003472 -0.079633 -0.002119
0.003472 -0.079633 -0.002119
0.003472 -0.079633 -0.002119
0.003472 -0.079633 -0.002119
6.692310 -7.270400 1.608619
0.003472 -0.079633 -0.002119
5.923651 -6.467961 -5.170702
0.409750 -0.518173 -0.338306
0.438872 -0.549759 -0.343125
0.487698 -0.602860 -0.360366
2.729871 -3.028458 -1.904486
2.919290 -3.235454 -1.916570
3.115910 -3.449366 -1.919683
3.227711 -3.572794 -1.859928
3.261257 -3.611545 -1.752508
3.637947 -4.021252 -1.815429
3.990364 -4.406374 -1.839808
4.377407 -4.829667 -1.855594
4.797678 -5.287785 -1.857325
5.357528 -5.899964 -1.878240
5.958140 -6.557297 -1.874867
6.538164 -7.193123 -1.824770
6.548083 -7.141689 -1.586706
6.551436 -7.150099 -1.359168
0.003454 -0.079439 -0.002114
6.556654 -7.162886 -0.905045
6.566695 -7.178590 -0.680819
6.571741 -7.186393 -0.456042
6.576115 -7.195942 -0.229656
6.584988 -7.210423 -0.004746
6.591569 -7.219919 0.220814
6.597374 -7.231053 0.448879
6.605012 -7.244205 0.676488
6.603602 -7.247578 0.904289
6.619904 -7.267644 1.137700
0.003454 -0.079439 -0.002114
6.652260 -7.312616 1.609301
0.003454 -0.079439 -0.002114
5.888019 -6.505286 -5.172712
0.407137 -0.520377 -0.338299
0.437259 -0.553437 -0.344057
0.494240 -0.616071 -0.367542
2.714801 -3.047037 -1.906182
2.898602 -3.249283 -1.914923
3.098368 -3.470283 -1.921206
3.216983 -3.602660 -1.865731
3.244691 -3.634199 -1.754542
3.626006 -4.055132 -1.821174
3.973629 -4.439616 -1.843958
4.346138 -4.850286 -1.853915
4.735467 -5.281565 -1.845129
5.325271 -5.931907 -1.878672
5.920753 -6.591251 -1.874835
0.003435 -0.079242 -0.002108
6.540783 -7.217997 -1.595116
6.537385 -7.216668 -1.364711
6.550666 -7.236044 -1.137351
6.541411 -7.230799 -0.908736
0.003435 -0.079242 -0.002108
0.003435 -0.079242 -0.002108
0.003435 -0.079242 -0.002108
17.645842 -19.416473 -0.009131
0.003435 -0.079242 -0.002108
0.003435 -0.079242 -0.002108
0.003435 -0.079242 -0.002108
0.003435 -0.079242 -0.002108
0.003435 -0.079242 -0.002108
6.632356 -7.369620 1.380028
6.615814 -7.356383 1.610632
0.003435 -0.079242 -0.002108
0.398190 -0.515137 -0.351163
0.404578 -0.522496 -0.338291
0.440429 -0.562276 -0.348746
0.489914 -0.617366 -0.366636
2.700078 -3.065074 -1.907876
2.880314 -3.265688 -1.914905
3.073849 -3.482357 -1.918101
3.207872 -3.633343 -1.872263
3.239292 -3.669338 -1.762737
3.586589 -4.057405 -1.812823
3.948473 -4.462189 -1.843935
4.314759 -4.870705 -1.852234
4.697706 -5.299871 -1.842061
5.277207 -5.946309 -1.873566
5.887121 -6.629350 -1.876052
6.556956 -7.380056 -1.853254
0.003447 -0.079041 -0.002103
9.733326 -10.831104 -2.044012
12.259880 -13.632352 -2.140712
21.749983 -24.143002 -3.036768
0.003447 -0.079041 -0.002103
0.003447 -0.079041 -0.002103
0.003447 -0.079041 -0.002103
0.003447 -0.079041 -0.002103
0.003447 -0.079041 -0.002103
6.814197 -7.641190 0.469792
6.803809 -7.632132 0.705883
6.804399 -7.637953 0.943817
0.003447 -0.079041 -0.002103
6.604880 -7.423628 1.383119
6.576474 -7.397032 1.611314
0.003447 -0.079041 -0.002103
0.393448 -0.514564 -0.349114
0.407927 -0.531020 -0.343186
0.436559 -0.563188 -0.347800
0.489272 -0.622534 -0.368424
2.684590 -3.081219 -1.908715
2.868020 -3.288800 -1.918957
3.057259 -3.501988 -1.919624
3.214026 -3.680164 -1.887531
3.226057 -3.696116 -1.766823
3.597113 -4.113915 -1.829462
3.927787 -4.488201 -1.845702
4.282014 -4.889481 -1.850003
4.663366 -5.319992 -1.840007
5.242054 -5.974894 -1.873074
5.848035 -6.661423 -1.875604
6.552692 -7.460063 -1.863974
8.140264 -9.168925 -2.009766
9.668653 -10.883744 -2.043405
12.188083 -13.704742 -2.141351
21.523884 -24.161264 -3.023813
0.003428 -0.078840 -0.002098
0.003428 -0.078840 -0.002098
0.003428 -0.078840 -0.002098
0.003428 -0.078840 -0.002098
0.003428 -0.078840 -0.002098
6.507510 -7.381953 0.451391
6.504246 -7.383271 0.679094
6.502733 -7.386574 0.907727
6.523907 -7.412795 1.142903
6.562506 -7.461271 1.383154
6.542132 -7.443365 1.613291
0.003428 -0.078840 -0.002098
0.394284 -0.520538 -0.352169
0.398289 -0.525376 -0.337297
0.428981 -0.560259 -0.344034
0.490777 -0.630564 -0.372008
2.666751 -3.096861 -1.908697
2.847085 -3.302292 -1.917311
3.039351 -3.522602 -1.921147
3.207422 -3.715707 -1.896247
3.220112 -3.731322 -1.775018
3.563107 -4.123572 -1.824314
3.897781 -4.506888 -1.843889
4.249188 -4.908043 -1.847771
4.632220 -5.347324 -1.839980
5.202923 -5.998886 -1.871199
5.806221 -6.690328 -1.874324
6.538626 -7.529924 -1.872097
8.084927 -9.215318 -2.009398
9.608977 -10.941933 -2.043914
12.132099 -13.804806 -2.145707
21.306955 -24.204605 -3.013276
0.003410 -0.078643 -0.002092
0.003410 -0.078643 -0.002092
0.003410 -0.078643 -0.002092
0.003410 -0.078643 -0.002092
0.003410 -0.078643 -0.002092
6.445615 -7.399177 0.450130
6.448912 -7.405365 0.677739
6.444790 -7.405690 0.905539
6.468509 -7.437677 1.140853
6.525155 -7.504627 1.384300
6.503550 -7.485102 1.614297
0.003410 -0.078643 -0.002092
0.392850 -0.523874 -0.353183
0.396860 -0.528755 -0.338270
0.434342 -0.571809 -0.350604
0.482899 -0.627774 -0.368410
2.654080 -3.117389 -1.912104
2.827285 -3.317026 -1.916478
3.018302 -3.538419 -1.920358
3.195007 -3.743714 -1.901323
3.207661 -3.759490 -1.779790
3.548499 -4.153792 -1.828778
3.862229 -4.517497 -1.839096
4.215026 -4.924937 -1.844988
4.598008 -5.369285 -1.838432
5.147091 -6.003521 -1.863323
5.766814 -6.721922 -1.873876
6.581919 -7.666690 -1.896906
8.028337 -9.257001 -2.008382
9.534595 -10.983389 -2.041355
12.025501 -13.842730 -2.140765
21.111526 -24.262041 -3.005164
0.003422 -0.078442 -0.002087
0.003422 -0.078442 -0.002087
0.003422 -0.078442 -0.002087
0.003422 -0.078442 -0.002087
0.003422 -0.078442 -0.002087
6.391597 -7.422344 0.449330
6.396197 -7.430071 0.676661
6.397318 -7.436404 0.904832
6.424745 -7.473042 1.140656
6.499204 -7.561259 1.387947
6.464735 -7.526637 1.615303
0.003422 -0.078442 -0.002087
0.385780 -0.520704 -0.349093
0.395400 -0.532130 -0.339243
0.426872 -0.568736 -0.346839
0.475046 -0.624916 -0.364811
2.634197 -3.129654 -1.910375
2.811620 -3.337665 -1.918902
2.994726 -3.551316 -1.918025
3.189662 -3.780172 -1.910767
3.196836 -3.791042 -1.785931
3.500283 -4.145188 -1.815942
3.831663 -4.533633 -1.836689
4.184950 -4.948161 -1.844410
4.554910 -5.380753 -1.833336
5.105531 -6.026325 -1.860985
5.715848 -6.742404 -1.870096
6.547026 -7.717295 -1.899835
7.972826 -9.299829 -2.007691
9.469803 -11.039491 -2.041306
11.944811 -13.909957 -2.140472
20.917446 -24.319542 -2.997239
0.003403 -0.078245 -0.002082
0.003403 -0.078245 -0.002082
0.003403 -0.078245 -0.002082
0.003403 -0.078245 -0.002082
0.003403 -0.078245 -0.002082
6.341419 -7.449680 0.448809
6.344707 -7.458549 0.675862
6.328945 -7.445261 0.901346
6.379519 -7.506639 1.140226
6.450872 -7.594912 1.387149
6.423032 -7.567592 1.615986
0.003403 -0.078245 -0.002082
0.379783 -0.518842 -0.346024
0.391551 -0.532922 -0.338256
0.425102 -0.572382 -0.347771
0.465990 -0.620703 -0.360314
2.618406 -3.147749 -1.912070
2.792824 -3.353569 -1.918884
2.980056 -3.575818 -1.921862
3.183334 -3.817248 -1.920209
3.193664 -3.830635 -1.796178
3.466299 -4.154100 -1.810794
3.811348 -4.563327 -1.839646
4.143180 -4.955818 -1.838316
4.527141 -5.411868 -1.834830
5.059921 -6.042019 -1.856802
5.677438 -6.774957 -1.870065
6.506789 -7.759112 -1.900913
7.911622 -9.339201 -2.006025
9.406567 -11.093568 -2.041257
11.854913 -13.971224 -2.139017
20.735943 -24.398926 -2.991734
23.538027 -27.695169 -2.548493
23.550278 -27.728537 -1.704854
0.003385 -0.078048 -0.002076
0.003385 -0.078048 -0.002076
0.003385 -0.078048 -0.002076
0.003385 -0.078048 -0.002076
0.003385 -0.078048 -0.002076
0.003385 -0.078048 -0.002076
6.393180 -7.612271 1.150693
6.406238 -7.630161 1.386906
6.384943 -7.610216 1.617315
0.003385 -0.078048 -0.002076
0.380582 -0.524746 -0.349079
5.678491 -6.806469 -4.950648
0.419965 -0.571903 -0.345885
0.455958 -0.614958 -0.354920
2.600702 -3.162547 -1.912052
2.773926 -3.369365 -1.918865
2.957515 -3.589861 -1.920300
3.180942 -3.858100 -1.931836
3.186538 -3.865993 -1.804372
3.456199 -4.189718 -1.817821
3.778118 -4.576187 -1.836046
4.118756 -4.983771 -1.839947
4.487675 -5.427228 -1.831255
5.023018 -6.067830 -1.855850
5.632536 -6.799793 -1.867952
6.454927 -7.787156 -1.898653
7.855677 -9.381326 -2.005334
9.336673 -11.139713 -2.039815
11.700531 -13.950887 -2.125476
20.990902 -24.986609 -3.049007
23.328651 -27.770380 -2.542919
0.003396 -0.077847 -0.002071
23.127785 -27.569740 -0.845014
0.003396 -0.077847 -0.002071
0.003396 -0.077847 -0.002071
23.639854 -28.226665 1.702935
23.051849 -27.535553 2.495845
0.003396 -0.077847 -0.002071
6.389317 -7.695891 1.157913
6.369028 -7.674256 1.388330
6.346560 -7.652647 1.618645
0.003396 -0.077847 -0.002071
0.375799 -0.524070 -0.347031
5.635232 -6.833458 -4.946696
0.419357 -0.576805 -0.347756
0.456275 -0.621474 -0.357605
2.588691 -3.184188 -1.916315
2.755539 -3.386940 -1.919661
2.937265 -3.606604 -1.920282
3.165117 -3.883283 -1.935456
3.177237 -3.900502 -1.811882
3.449428 -4.229724 -1.826769
3.747314 -4.591750 -1.833639
4.076113 -4.991602 -1.833853
4.435863 -5.427411 -1.822611
4.984948 -6.094279 -1.854898
5.586349 -6.825306 -1.865838
6.386593 -7.797798 -1.891943
7.793176 -9.415537 -2.003020
9.272210 -11.196160 -2.040044
11.555665 -13.939922 -2.113562
20.831968 -25.088367 -3.046669
0.003378 -0.077650 -0.002065
0.003378 -0.077650 -0.002065
23.524010 -28.369381 -0.865261
0.003378 -0.077650 -0.002065
22.896852 -27.643223 0.821106
23.582188 -28.488012 1.710648
22.831392 -27.602354 2.489703
0.003378 -0.077650 -0.002065
6.320006 -7.701705 1.153313
6.333991 -7.723851 1.390589
6.306577 -7.695987 1.619976
0.003378 -0.077650 -0.002065
0.374211 -0.527398 -0.348044
5.601741 -6.874605 -4.952545
0.411907 -0.573611 -0.343991
0.453044 -0.623951 -0.357598
0.490229 -0.669335 -0.365047
2.735286 -3.401111 -1.918829
2.912765 -3.619458 -1.917948
3.144326 -3.902654 -1.936163
3.169474 -3.935936 -1.820075
3.412258 -4.233171 -1.819700
3.710367 -4.599732 -1.828250
4.052670 -5.020701 -1.836037
4.397660 -5.443643 -1.819544
4.949018 -6.121135 -1.854408
5.553572 -6.862204 -1.867473
6.365820 -7.860476 -1.898583
