# This PCD file was generated using the MATLAB® pcwrite function
# from Computer Vision Toolbox®.
# .PCD v.7 - Point Cloud Data file format
VERSION .7
FIELDS x y z
SIZE 4 4 4
TYPE F F F
COUNT 1 1 1
WIDTH 1669
HEIGHT 1
VIEWPOINT 0 0 0 1 0 0 0
POINTS 1669
DATA ascii
3.942269 0.783916 -0.289865
3.936176 0.781814 -0.195495
0.005808 -0.115110 -0.003245
3.947107 0.781446 -0.007495
0.005808 -0.115110 -0.003245
0.005808 -0.115110 -0.003245
0.005808 -0.115110 -0.003245
3.910155 0.768085 0.365973
0.005808 -0.115110 -0.003245
3.930177 0.770486 0.557847
3.891685 0.760393 0.646887
3.912386 0.764354 0.746856
0.447038 -0.016277 -0.272022
0.453090 -0.015088 -0.261375
3.328688 0.626078 -1.818032
3.388625 0.638222 -1.747812
3.409870 0.641719 -1.658325
3.592766 0.681733 -1.643801
3.791353 0.724466 -1.627624
3.996769 0.768574 -1.604340
0.005794 -0.114912 -0.003239
3.978564 0.762396 -1.382728
3.986916 0.762802 -1.280035
3.975528 0.759579 -1.173448
3.991822 0.761730 -1.076239
3.977394 0.757845 -0.971240
3.977549 0.756446 -0.871998
3.990719 0.757892 -0.776267
3.951580 0.766676 -0.671850
3.938773 0.763109 -0.573901
3.943247 0.762686 -0.478570
3.941621 0.760893 -0.383680
3.949329 0.761902 -0.289990
3.937513 0.757850 -0.195287
0.005794 -0.114912 -0.003239
3.946340 0.757675 -0.007471
0.005794 -0.114912 -0.003239
0.005794 -0.114912 -0.003239
0.005794 -0.114912 -0.003239
0.005794 -0.114912 -0.003239
0.005794 -0.114912 -0.003239
3.942910 0.749812 0.558971
3.931357 0.745852 0.652703
3.930941 0.744343 0.749452
0.440851 -0.020084 -0.267926
0.451949 -0.017834 -0.260387
3.338037 0.608272 -1.820838
3.389393 0.618197 -1.745997
3.407089 0.620803 -1.654879
3.606225 0.663222 -1.647862
3.801494 0.704048 -1.629924
4.003590 0.746199 -1.605051
4.387968 0.828193 -1.640041
0.005780 -0.114714 -0.003233
5.699426 1.106270 -1.826954
6.190521 1.210481 -1.824092
6.771607 1.332548 -1.822228
7.447069 1.475714 -1.814623
8.244203 1.643115 -1.802990
9.380871 1.882263 -1.819597
3.981644 0.749628 -0.676074
3.963096 0.744886 -0.576687
3.988987 0.749074 -0.483467
3.981598 0.746034 -0.387044
3.975722 0.744053 -0.291529
3.963918 0.740069 -0.196317
3.981234 0.742372 -0.101907
3.974715 0.740261 -0.007478
3.975990 0.739100 0.086804
3.975092 0.737478 0.181838
3.981676 0.738181 0.276844
3.960931 0.732298 0.369865
3.978787 0.734694 0.467577
3.974921 0.733160 0.562857
3.963236 0.729234 0.657232
3.974257 0.730157 0.756835
0.429611 -0.024880 -0.260766
0.464399 -0.017687 -0.267249
3.335232 0.587838 -1.817059
3.397058 0.599659 -1.747780
3.409487 0.601056 -1.654005
3.600035 0.639823 -1.642953
3.800738 0.681270 -1.627589
4.012136 0.724161 -1.606493
4.402669 0.804336 -1.643451
5.269565 0.984558 -1.826459
5.708195 1.074096 -1.827527
6.202009 1.174799 -1.825173
6.785483 1.295003 -1.823727
7.465893 1.433778 -1.816910
8.256392 1.594876 -1.803377
9.409842 1.830472 -1.822913
10.783978 2.163817 -1.824955
12.694931 2.563187 -1.839642
15.697837 3.194077 -1.892755
0.005765 -0.114517 -0.003227
15.636263 3.169830 -1.136823
0.005765 -0.114517 -0.003227
0.005765 -0.114517 -0.003227
0.005765 -0.114517 -0.003227
0.005765 -0.114517 -0.003227
0.005765 -0.114517 -0.003227
0.005765 -0.114517 -0.003227
0.005765 -0.114517 -0.003227
0.005765 -0.114517 -0.003227
0.005765 -0.114517 -0.003227
3.995221 0.711587 0.661761
4.013690 0.714699 0.763481
0.438533 -0.025466 -0.265868
0.458122 -0.021607 -0.263316
3.341077 0.568651 -1.817984
3.394221 0.578321 -1.744166
3.404705 0.579860 -1.649701
3.620415 0.622623 -1.650274
3.825256 0.663016 -1.636072
4.024162 0.702790 -1.609391
4.426280 0.782971 -1.650291
5.279479 0.955222 -1.827720
5.722423 1.043002 -1.829895
6.213088 1.140109 -1.826254
6.806744 1.258876 -1.827259
7.478490 1.391831 -1.817807
8.279200 1.551752 -1.806270
9.426318 1.779375 -1.823995
9.707124 1.876423 -1.640887
12.727568 2.493972 -1.842120
15.802748 3.118786 -1.902995
0.005751 -0.114323 -0.003222
0.005751 -0.114323 -0.003222
0.005751 -0.114323 -0.003222
53.126060 10.700585 -1.318204
0.005751 -0.114323 -0.003222
0.005751 -0.114323 -0.003222
0.005751 -0.114323 -0.003222
0.005751 -0.114323 -0.003222
0.005751 -0.114323 -0.003222
51.285881 10.234138 6.059376
0.005751 -0.114323 -0.003222
4.036505 0.696936 0.667901
4.039572 0.696107 0.767550
0.437349 -0.028018 -0.264840
0.462061 -0.023253 -0.265273
3.339635 0.549207 -1.815146
3.389269 0.557872 -1.739654
3.410386 0.560850 -1.650542
3.628154 0.602727 -1.651887
3.847606 0.645480 -1.643781
4.070836 0.688160 -1.626150
4.431377 0.757735 -1.650272
5.289276 0.925812 -1.828983
5.734597 1.011417 -1.831664
6.227722 1.106074 -1.828442
6.814530 1.219949 -1.827232
7.498451 1.351275 -1.820556
8.290854 1.503287 -1.806656
9.443137 1.724863 -1.825075
9.673543 1.813634 -1.633345
12.771476 2.426786 -1.846280
15.873115 3.041337 -1.909259
0.005737 -0.114125 -0.003216
0.005737 -0.114125 -0.003216
9.541625 1.773708 -0.466642
52.683239 10.295630 -1.305566
0.005737 -0.114125 -0.003216
0.005737 -0.114125 -0.003216
56.620716 11.023179 2.627652
0.005737 -0.114125 -0.003216
0.005737 -0.114125 -0.003216
51.356159 9.941711 6.060928
0.005737 -0.114125 -0.003216
4.070274 0.678919 0.672752
4.080793 0.680252 0.774566
0.444597 -0.029075 -0.268921
0.464268 -0.025431 -0.266246
3.346956 0.530302 -1.817011
3.393176 0.538009 -1.739637
3.407238 0.539502 -1.647096
3.632210 0.582083 -1.651870
3.862905 0.624987 -1.648400
4.130372 0.674753 -1.648013
4.452924 0.735643 -1.656426
5.299055 0.895398 -1.830244
5.739295 0.977296 -1.831043
6.245978 1.072634 -1.831736
6.835596 1.182311 -1.830764
7.514408 1.309823 -1.822379
8.305755 1.456913 -1.807877
9.463225 1.672595 -1.826902
9.702211 1.759900 -1.636245
0.005723 -0.113927 -0.003210
0.005723 -0.113927 -0.003210
0.005723 -0.113927 -0.003210
0.005723 -0.113927 -0.003210
9.570279 1.720776 -0.467462
52.264801 9.891899 -1.293559
0.005723 -0.113927 -0.003210
0.005723 -0.113927 -0.003210
53.129433 10.010146 2.462763
0.005723 -0.113927 -0.003210
0.005723 -0.113927 -0.003210
51.416752 9.637999 6.061330
4.114126 0.664655 0.580060
4.099976 0.660515 0.676959
4.118268 0.662506 0.780845
0.439988 -0.032352 -0.265848
0.454481 -0.029796 -0.260350
3.347120 0.510625 -1.815112
3.389827 0.517403 -1.736023
3.409143 0.519796 -1.646221
3.641526 0.562416 -1.654298
3.877982 0.605013 -1.653019
4.151297 0.654269 -1.654558
4.465120 0.711625 -1.659150
5.308496 0.865832 -1.831506
5.751083 0.945546 -1.832811
6.245135 1.035538 -1.829497
6.852451 1.144968 -1.833279
7.537768 1.269638 -1.826054
8.328125 1.411833 -1.810770
9.481037 1.619803 -1.828354
9.683747 1.698873 -1.631314
9.434391 1.650516 -1.361398
9.432419 1.646783 -1.132963
9.509089 1.657716 -0.915145
9.551171 1.663882 -0.692217
9.570838 1.664137 -0.466949
51.965652 9.525519 -1.284610
0.005708 -0.113729 -0.003205
0.005708 -0.113729 -0.003205
0.005708 -0.113729 -0.003205
49.827221 9.075818 3.486996
0.005708 -0.113729 -0.003205
0.005708 -0.113729 -0.003205
4.141890 0.645515 0.583395
4.148999 0.645347 0.684389
4.145832 0.643298 0.785285
0.448893 -0.033119 -0.270950
0.451527 -0.032800 -0.258381
3.354128 0.492225 -1.816977
3.396916 0.498766 -1.737805
3.416275 0.501052 -1.647919
3.652540 0.542990 -1.657542
3.885654 0.583579 -1.654545
4.159300 0.631273 -1.655998
4.466075 0.685503 -1.657758
5.315877 0.835855 -1.832124
5.762724 0.913697 -1.834580
6.257296 1.000854 -1.831131
6.859552 1.105777 -1.833250
7.549423 1.227187 -1.826950
8.354073 1.367231 -1.814497
9.498585 1.566869 -1.829806
9.633805 1.632485 -1.621163
9.526222 1.611304 -1.373138
9.458000 1.595585 -1.134798
9.532849 1.605729 -0.916424
9.559258 1.608826 -0.692038
9.598600 1.612506 -0.467770
0.005694 -0.113532 -0.003199
52.842163 9.365221 -0.058318
0.005694 -0.113532 -0.003199
0.005694 -0.113532 -0.003199
49.906693 8.794403 3.489089
0.005694 -0.113532 -0.003199
53.342529 9.369860 6.275591
4.185168 0.628855 0.588940
4.180487 0.626543 0.688920
4.183034 0.625509 0.791564
0.449347 -0.035547 -0.270943
0.458856 -0.034040 -0.262299
3.354181 0.471971 -1.815079
3.402241 0.479169 -1.738687
3.412722 0.479793 -1.644472
3.656347 0.521571 -1.657524
3.900616 0.562675 -1.659163
4.174664 0.608764 -1.660355
4.472576 0.659588 -1.658423
5.323269 0.804902 -1.832743
5.768703 0.879778 -1.834555
6.269452 0.964979 -1.832763
6.881898 1.067978 -1.837289
7.562976 1.183665 -1.828308
8.368470 1.318945 -1.815716
9.510315 1.511142 -1.830141
9.657561 1.578006 -1.623408
9.631843 1.571817 -1.386838
9.640138 1.569851 -1.155352
9.554606 1.551525 -0.917512
9.575186 1.553439 -0.692425
9.659794 1.564751 -0.470207
0.005680 -0.113330 -0.003193
0.005680 -0.113330 -0.003193
0.005680 -0.113330 -0.003193
52.315201 8.914368 2.417837
49.917244 8.491806 3.486377
0.005680 -0.113330 -0.003193
0.005680 -0.113330 -0.003193
4.220724 0.609655 0.593381
4.210075 0.606340 0.693128
4.222176 0.606920 0.798214
0.451483 -0.037614 -0.271958
0.455839 -0.037029 -0.260329
3.357479 0.452902 -1.815062
3.396766 0.458342 -1.734174
3.417859 0.460690 -1.645312
3.659955 0.500768 -1.657507
3.897179 0.539245 -1.656054
4.193441 0.587435 -1.666171
4.478778 0.634393 -1.659088
5.326586 0.774197 -1.832077
5.781844 0.848077 -1.836921
6.285032 0.930721 -1.835503
6.886664 1.028305 -1.836752
7.577993 1.141666 -1.830130
8.397803 1.274550 -1.820279
9.529192 1.458266 -1.831966
10.955060 1.740754 -1.839351
12.866913 2.062213 -1.849968
9.667257 1.517608 -1.157420
9.620951 1.506390 -0.922922
9.643639 1.508530 -0.696635
9.708676 1.516043 -0.472073
9.693754 1.510107 -0.241279
47.623249 7.856910 -0.052443
47.653748 7.845162 1.069077
47.703453 7.836602 2.202405
47.743790 7.835010 3.331336
0.005665 -0.113132 -0.003187
0.005665 -0.113132 -0.003187
0.005665 -0.113132 -0.003187
0.005665 -0.113132 -0.003187
0.005665 -0.113132 -0.003187
0.441712 -0.041644 -0.265819
0.461420 -0.038583 -0.263266
3.362407 0.434096 -1.815986
3.396483 0.438455 -1.732359
3.421091 0.441257 -1.645295
3.663520 0.479305 -1.657489
3.904496 0.517645 -1.657581
4.184508 0.561462 -1.661045
4.488683 0.608972 -1.661125
5.271749 0.734158 -1.811505
5.798549 0.816859 -1.840482
6.302498 0.895525 -1.838796
6.895024 0.989227 -1.837232
7.592965 1.098210 -1.831950
8.417440 1.226854 -1.822751
9.553850 1.404492 -1.834906
10.983049 1.680834 -1.842245
12.885434 1.987148 -1.850760
16.251764 2.533214 -1.942135
9.704772 1.463425 -0.930020
9.842112 1.482272 -0.710185
9.794779 1.472894 -0.475748
9.762108 1.464157 -0.242694
0.005651 -0.112934 -0.003182
76.253288 12.172041 1.711321
0.005651 -0.112934 -0.003182
50.055599 7.915773 3.489611
0.005651 -0.112934 -0.003182
51.125755 8.060542 5.997503
0.005651 -0.112934 -0.003182
0.005651 -0.112934 -0.003182
0.005651 -0.112934 -0.003182
0.445510 -0.043497 -0.267856
0.463570 -0.040815 -0.264241
3.365598 0.414396 -1.815969
3.396151 0.417999 -1.730543
3.420661 0.421248 -1.643564
3.677671 0.460144 -1.662362
3.917263 0.496151 -1.661425
4.214072 0.541624 -1.671236
4.507617 0.585686 -1.666592
4.846037 0.637353 -1.663787
5.800024 0.783150 -1.839261
6.313866 0.860378 -1.840428
6.910792 0.951266 -1.839745
7.607481 1.055945 -1.833771
8.434462 1.181624 -1.824807
9.569911 1.352625 -1.836357
0.005637 -0.112737 -0.003176
12.887496 1.911729 -1.849309
16.343676 2.449133 -1.951199
9.806404 1.420608 -0.938809
9.853079 1.426204 -0.710288
10.182984 1.474177 -0.493986
50.258839 7.714343 -1.235556
0.005637 -0.112737 -0.003176
75.739861 11.629754 1.698445
0.005637 -0.112737 -0.003176
51.589657 7.858208 3.593591
51.663853 7.860723 4.819945
0.005637 -0.112737 -0.003176
0.005637 -0.112737 -0.003176
0.005637 -0.112737 -0.003176
0.005637 -0.112737 -0.003176
0.452679 -0.044725 -0.271937
0.458793 -0.043955 -0.261289
3.373719 0.396639 -1.818775
3.399055 0.399281 -1.730527
3.423650 0.401797 -1.643546
3.689922 0.440574 -1.666421
3.942494 0.477810 -1.670679
4.226961 0.518989 -1.674863
4.509700 0.559707 -1.665886
4.829654 0.606631 -1.656701
5.814523 0.751419 -1.842225
6.321250 0.824570 -1.840954
6.924436 0.912880 -1.841749
7.619840 1.013270 -1.835129
8.449696 1.133009 -1.826443
9.590076 1.297859 -1.838552
11.018569 1.557261 -1.844771
10.433830 1.464939 -1.496302
16.422499 2.368008 -1.958859
10.076636 1.405627 -0.963747
10.203041 1.421093 -0.734733
10.169928 1.414356 -0.492899
49.565434 7.315000 -1.217310
0.005622 -0.112539 -0.003170
53.408047 7.862897 1.195856
53.283497 7.825578 2.454293
51.776691 7.582892 3.603672
0.005622 -0.112539 -0.003170
52.084900 7.601427 6.099653
0.005622 -0.112539 -0.003170
75.964249 11.085106 12.531638
0.005622 -0.112539 -0.003170
0.449662 -0.047671 -0.269886
0.457437 -0.046694 -0.260300
3.378393 0.377122 -1.819697
3.400231 0.379107 -1.729609
3.433803 0.382765 -1.646959
3.705698 0.421400 -1.672110
3.942266 0.454146 -1.669115
4.247233 0.496548 -1.681408
4.535796 0.537195 -1.674096
0.005608 -0.112341 -0.003164
5.825208 0.717997 -1.843992
6.330343 0.788983 -1.842034
6.938054 0.873161 -1.843754
7.635807 0.971039 -1.837412
8.464463 1.085734 -1.828080
9.609705 1.244580 -1.840748
11.061430 1.497023 -1.850272
0.005608 -0.112341 -0.003164
0.005608 -0.112341 -0.003164
10.091358 1.346999 -0.964270
10.168250 1.356367 -0.731579
10.174840 1.353754 -0.492668
10.261073 1.362591 -0.254154
0.005608 -0.112341 -0.003164
74.729736 10.595357 1.673394
53.286018 7.503876 2.452479
51.946472 7.303437 3.612655
0.005608 -0.112341 -0.003164
75.164536 10.565696 8.796906
75.204674 10.558445 10.593309
75.423378 10.563066 12.432328
0.005608 -0.112341 -0.003164
0.451710 -0.049790 -0.270900
0.461244 -0.048618 -0.262256
3.375916 0.357186 -1.816858
3.397697 0.359037 -1.726895
3.433007 0.362744 -1.645226
3.710613 0.399918 -1.672907
3.938127 0.430689 -1.666004
4.243279 0.471330 -1.678470
4.528398 0.509011 -1.669959
0.005594 -0.112147 -0.003159
5.831774 0.684979 -1.844564
6.343180 0.752736 -1.844218
6.949335 0.834265 -1.845249
7.644034 0.926280 -1.837844
8.481091 1.037116 -1.830133
9.623413 1.188650 -1.841825
10.044521 1.290305 -1.678962
10.029827 1.284745 -1.435946
10.054613 1.286467 -1.198168
10.091696 1.288098 -0.963479
10.141171 1.291419 -0.728990
10.187030 1.296016 -0.492817
0.005594 -0.112147 -0.003159
0.005594 -0.112147 -0.003159
74.104630 10.071653 1.658290
52.808308 7.126326 2.428692
52.325516 7.041838 3.636219
0.005594 -0.112147 -0.003159
74.608467 10.049798 8.725084
74.656090 10.030186 10.507630
74.916031 10.039320 12.338820
74.975510 10.034513 14.172140
0.448659 -0.052692 -0.268849
0.470260 -0.049968 -0.267156
3.373387 0.336706 -1.814019
3.395112 0.338423 -1.724180
3.437452 0.343465 -1.646066
3.713479 0.378798 -1.672888
3.946759 0.408302 -1.668303
4.244699 0.446909 -1.677720
4.544905 0.484902 -1.674738
4.856460 0.525038 -1.661771
5.840017 0.652159 -1.845733
6.351857 0.716977 -1.845297
0.005610 -0.111947 -0.003154
7.653725 0.883047 -1.838737
8.495127 0.991054 -1.831770
9.646092 1.137231 -1.844764
0.005610 -0.111947 -0.003154
10.063209 1.230694 -1.439551
10.102077 1.232359 -1.202806
10.111649 1.230102 -0.964564
10.141151 1.232280 -0.728383
10.205076 1.237194 -0.493252
10.180187 1.232154 -0.251699
0.005610 -0.111947 -0.003154
73.602570 9.559084 1.645985
52.316154 6.752962 2.404357
0.005610 -0.111947 -0.003154
0.005610 -0.111947 -0.003154
74.098244 9.547065 8.659018
74.139526 9.526581 10.427197
74.370445 9.543860 12.240148
74.455475 9.528939 14.063378
0.455780 -0.054095 -0.272929
3.215621 0.298227 -1.825638
3.388086 0.319679 -1.820587
3.395799 0.319488 -1.723264
3.445388 0.324600 -1.648621
3.734348 0.359958 -1.681023
3.956905 0.387442 -1.671374
4.240431 0.421790 -1.674781
4.559446 0.460395 -1.678832
4.880706 0.499926 -1.668812
5.848113 0.619272 -1.846902
6.362216 0.681385 -1.846929
6.959761 0.754757 -1.845190
7.670878 0.840693 -1.841483
8.513151 0.942385 -1.834241
9.647485 1.079578 -1.843608
10.054098 1.174428 -1.677902
13.078133 1.556935 -1.868681
10.314338 1.202376 -1.227095
10.188098 1.182734 -0.971096
10.180371 1.178204 -0.730606
10.250094 1.185289 -0.495019
10.243273 1.180854 -0.253013
0.005596 -0.111749 -0.003148
73.095871 9.078584 1.633716
0.005596 -0.111749 -0.003148
73.355003 9.060045 5.091888
48.642624 5.953002 4.520357
73.628067 9.055939 8.598019
73.601974 9.027058 10.344274
73.858177 9.033157 12.146956
73.920425 9.028234 13.952403
0.459501 -0.056149 -0.274965
3.224883 0.280238 -1.829545
3.385312 0.299190 -1.817747
3.394722 0.299158 -1.721447
3.447911 0.304408 -1.648603
3.722492 0.336956 -1.674482
3.965274 0.364879 -1.673672
4.256474 0.398440 -1.679867
4.560782 0.434175 -1.678124
4.884220 0.471231 -1.668788
5.859917 0.585749 -1.849267
6.370506 0.645479 -1.848008
6.970534 0.714424 -1.846685
7.689755 0.798407 -1.844692
8.524899 0.894344 -1.835459
9.654140 1.024323 -1.843568
11.154489 1.248398 -1.859881
13.122879 1.486264 -1.873675
16.566545 1.899972 -1.967901
0.005582 -0.111552 -0.003143
0.005582 -0.111552 -0.003143
10.309164 1.131005 -0.497451
0.005582 -0.111552 -0.003143
0.005582 -0.111552 -0.003143
48.930012 5.746048 1.091902
49.228466 5.764661 2.259300
72.871529 8.574710 5.055019
0.005582 -0.111552 -0.003143
73.093109 8.550295 8.529649
73.122116 8.541250 10.269917
73.354713 8.543281 12.056018
73.418724 8.525324 13.848062
0.459801 -0.058565 -0.274958
3.240922 0.263519 -1.837379
3.389370 0.280145 -1.818670
3.397026 0.279861 -1.721429
3.446655 0.284392 -1.646870
3.728642 0.316191 -1.676094
3.962437 0.341671 -1.671334
4.240820 0.372074 -1.672552
4.535860 0.404980 -1.667815
4.895020 0.444221 -1.671333
5.863812 0.552272 -1.849240
6.382373 0.609931 -1.850192
6.978993 0.674996 -1.847671
7.702590 0.755283 -1.846511
8.548010 0.847504 -1.839182
9.664415 0.969465 -1.844272
11.173888 1.185847 -1.861794
13.145603 1.412620 -1.875584
16.607433 1.808352 -1.971346
22.697931 2.504723 -2.157058
0.005567 -0.111354 -0.003137
10.379633 1.079238 -0.500454
0.005567 -0.111354 -0.003137
49.614822 5.556417 -0.052542
0.005567 -0.111354 -0.003137
49.739819 5.536150 2.281458
49.922508 5.548386 3.459827
0.005567 -0.111354 -0.003137
0.005567 -0.111354 -0.003137
0.005567 -0.111354 -0.003137
0.005567 -0.111354 -0.003137
0.005567 -0.111354 -0.003137
0.465215 -0.060415 -0.278017
3.230892 0.243769 -1.830492
3.395066 0.261264 -1.820533
3.397449 0.260352 -1.720513
3.456056 0.265581 -1.650283
3.734643 0.295366 -1.677705
3.944810 0.316915 -1.662816
4.215742 0.344901 -1.661592
4.572350 0.382757 -1.680138
4.915067 0.418122 -1.677089
5.875126 0.519589 -1.851604
6.384503 0.573246 -1.849610
6.998801 0.636734 -1.851708
7.720972 0.712655 -1.849719
8.561154 0.799404 -1.840817
9.676321 0.914736 -1.845349
11.192933 1.123114 -1.863706
13.173838 1.339422 -1.878335
16.649797 1.716546 -1.975025
22.773968 2.381143 -2.162792
0.005553 -0.111156 -0.003131
0.005553 -0.111156 -0.003131
0.005553 -0.111156 -0.003131
0.005553 -0.111156 -0.003131
71.644531 7.631721 1.598732
0.005553 -0.111156 -0.003131
48.710327 5.127775 3.373770
0.005553 -0.111156 -0.003131
0.005553 -0.111156 -0.003131
0.005553 -0.111156 -0.003131
0.005553 -0.111156 -0.003131
0.005553 -0.111156 -0.003131
0.460376 -0.063471 -0.274944
3.222558 0.223772 -1.824587
3.393681 0.241008 -1.818633
3.388927 0.239349 -1.715100
3.456423 0.245144 -1.649407
3.746077 0.274406 -1.681762
3.972962 0.296410 -1.673613
4.201691 0.318444 -1.655007
4.567739 0.355131 -1.677373
4.914352 0.388848 -1.675781
5.880659 0.485203 -1.852174
6.397992 0.536614 -1.852346
7.005009 0.595686 -1.852184
7.735393 0.668116 -1.852000
8.574172 0.749691 -1.842450
9.690044 0.858419 -1.846796
11.209834 1.058050 -1.865289
13.201892 1.263651 -1.881084
16.691916 1.621409 -1.978700
22.829903 2.250747 -2.166644
10.268994 0.949290 -0.734823
0.005538 -0.110955 -0.003125
70.898422 7.163381 -1.727732
0.005538 -0.110955 -0.003125
71.128159 7.150239 1.586465
0.005538 -0.110955 -0.003125
48.605507 4.825736 3.364602
49.128597 4.861865 4.554350
71.643532 7.116311 8.345255
0.005538 -0.110955 -0.003125
0.005538 -0.110955 -0.003125
0.005538 -0.110955 -0.003125
0.470883 -0.064882 -0.281068
3.224422 0.205464 -1.824570
3.390398 0.221201 -1.815794
3.392653 0.220256 -1.715981
3.458385 0.225493 -1.649388
3.733681 0.251671 -1.675221
3.973407 0.273609 -1.672820
4.189249 0.293078 -1.649151
4.594632 0.331432 -1.686267
4.928439 0.361898 -1.679610
5.893482 0.452520 -1.855135
6.409267 0.500779 -1.854530
7.032063 0.557829 -1.858254
7.745562 0.624410 -1.853356
8.584822 0.701164 -1.843667
9.715034 0.804770 -1.850478
11.226175 0.994779 -1.866873
13.215487 1.188542 -1.881872
16.729275 1.528368 -1.981908
22.912453 2.126466 -2.173127
36.639416 3.460907 -2.613165
48.583515 4.608614 -2.327051
42.313316 3.984834 -1.031596
0.005524 -0.110757 -0.003120
70.708961 6.697226 1.576456
0.005524 -0.110757 -0.003120
70.884178 6.677580 4.905878
49.640072 4.625792 4.599390
71.149849 6.653858 8.283323
0.005524 -0.110757 -0.003120
0.005524 -0.110757 -0.003120
0.005524 -0.110757 -0.003120
0.466005 -0.067834 -0.277995
3.233110 0.187786 -1.828478
3.395762 0.202254 -1.817658
3.387386 0.200318 -1.712367
3.462051 0.205993 -1.650227
3.750247 0.231754 -1.681724
3.964499 0.249977 -1.668164
4.187801 0.268873 -1.647672
4.578370 0.303538 -1.679385
4.948063 0.335313 -1.685366
5.894701 0.418680 -1.854510
6.416483 0.464489 -1.855607
7.035779 0.517617 -1.858223
7.761282 0.581134 -1.856100
8.602991 0.653236 -1.846554
9.722092 0.749305 -1.850809
11.244155 0.931548 -1.868785
13.256256 1.115877 -1.886583
16.768078 1.435131 -1.985350
22.984421 2.000410 -2.178670
36.532181 3.238795 -2.603972
49.077347 4.372192 -2.349220
42.176838 3.727264 -1.027566
0.005510 -0.110559 -0.003114
70.239082 6.244942 1.565380
0.005510 -0.110559 -0.003114
70.425179 6.225559 4.871750
0.005510 -0.110559 -0.003114
70.667099 6.198560 8.223003
0.005510 -0.110559 -0.003114
0.005510 -0.110559 -0.003114
0.005510 -0.110559 -0.003114
0.476524 -0.069394 -0.284119
3.226086 0.168665 -1.823553
3.399246 0.183099 -1.818580
3.396219 0.181673 -1.715945
3.467422 0.186617 -1.651924
3.743046 0.209635 -1.677628
3.961007 0.226936 -1.665826
4.193609 0.245332 -1.649110
4.582545 0.277596 -1.680049
4.956184 0.307560 -1.687268
5.905244 0.385647 -1.856873
6.423519 0.428140 -1.856685
7.043140 0.477707 -1.859209
7.772877 0.537376 -1.857917
8.616972 0.604798 -1.848606
9.740574 0.694760 -1.853373
11.251920 0.867287 -1.869064
13.274894 1.040900 -1.888210
16.826172 1.343213 -1.991131
23.029903 1.871375 -2.181772
36.425594 3.018202 -2.594921
49.705444 4.141829 -2.377853
42.034840 3.471063 -1.023440
0.005495 -0.110361 -0.003108
69.768387 5.798460 1.554345
49.157555 4.035808 2.249185
69.973305 5.779876 4.838308
0.005495 -0.110361 -0.003108
70.223030 5.752507 8.167519
0.005495 -0.110361 -0.003108
70.445206 5.734906 11.539031
0.005495 -0.110361 -0.003108
0.500730 -0.069957 -0.298418
3.239788 0.151320 -1.830405
3.395592 0.163349 -1.815740
3.396055 0.162226 -1.715027
3.472674 0.167190 -1.653620
3.737590 0.187103 -1.674347
3.962876 0.204382 -1.665806
4.182578 0.220412 -1.643983
4.371265 0.233844 -1.601839
4.952849 0.278840 -1.685318
5.907995 0.351915 -1.856846
6.430429 0.390604 -1.857762
7.059883 0.438479 -1.862735
7.780440 0.491847 -1.858808
8.624967 0.554274 -1.849403
9.758889 0.638328 -1.855937
11.273059 0.804088 -1.871626
13.317028 0.965349 -1.893200
16.869881 1.249563 -1.995273
23.072651 1.741727 -2.184684
36.336098 2.794038 -2.587142
48.362942 3.747283 -2.312425
41.873363 3.215193 -1.018880
0.005481 -0.110163 -0.003103
69.334747 5.360744 1.544198
49.300041 3.762796 2.254847
49.613785 3.770368 3.428076
0.005481 -0.110163 -0.003103
69.778168 5.311922 8.112262
0.005481 -0.110163 -0.003103
69.998329 5.280869 11.460651
0.005481 -0.110163 -0.003103
0.507788 -0.072179 -0.302497
3.236079 0.131957 -1.827444
3.388359 0.142798 -1.811018
3.395812 0.142195 -1.714110
3.474229 0.146840 -1.653601
3.761093 0.167450 -1.684111
3.983066 0.182480 -1.673512
4.197476 0.196808 -1.649068
4.320696 0.205102 -1.582613
4.962630 0.250272 -1.687862
5.916330 0.317550 -1.858611
6.435115 0.353993 -1.858285
7.066859 0.397153 -1.863719
7.791559 0.447890 -1.860627
8.636418 0.505458 -1.851036
9.778692 0.583552 -1.858872
11.274343 0.737227 -1.870926
13.374321 0.892855 -1.900432
16.921200 1.153095 -2.000349
23.134840 1.609097 -2.189472
37.185822 2.647157 -2.646264
48.570229 3.474666 -2.321081
41.732773 2.955634 -1.014848
0.005467 -0.109970 -0.003097
68.867363 4.913860 1.533341
0.005467 -0.109970 -0.003097
50.542721 3.551096 3.491007
0.005467 -0.109970 -0.003097
69.295792 4.861989 8.052860
0.005467 -0.109970 -0.003097
69.553589 4.844890 11.383234
0.005467 -0.109970 -0.003097
0.005453 -0.109772 -0.003091
3.235665 0.113450 -1.826445
3.393269 0.123780 -1.812881
3.393637 0.122646 -1.712293
3.477445 0.127208 -1.654440
3.744401 0.144806 -1.675939
3.979146 0.159427 -1.671173
4.188022 0.172145 -1.644671
4.521115 0.193843 -1.655291
4.972171 0.222467 -1.690406
5.924413 0.284135 -1.860376
6.435761 0.317086 -1.857703
7.071603 0.356872 -1.864197
7.804314 0.403953 -1.862906
8.647633 0.456537 -1.852669
9.794269 0.528316 -1.861063
11.282959 0.672899 -1.871530
13.411469 0.818366 -1.904860
16.961874 1.058346 -2.004256
23.170177 1.478075 -2.191820
36.468594 2.383491 -2.594073
36.938183 2.402910 -1.765024
41.592121 2.705251 -1.010868
0.005453 -0.109772 -0.003091
68.438217 4.487453 1.523413
50.330597 3.253725 2.300488
50.616650 3.264332 3.494917
0.005453 -0.109772 -0.003091
0.005453 -0.109772 -0.003091
0.005453 -0.109772 -0.003091
0.005453 -0.109772 -0.003091
69.160370 4.394022 12.985128
0.005439 -0.109574 -0.003086
3.242089 0.095397 -1.829370
3.399825 0.104823 -1.815684
3.389570 0.103019 -1.709578
3.480571 0.107550 -1.655279
3.774988 0.124658 -1.688962
3.976931 0.136542 -1.669607
4.170982 0.147144 -1.637357
4.543459 0.168545 -1.662812
4.972080 0.193983 -1.689739
5.932286 0.250640 -1.862141
6.440075 0.279297 -1.858225
7.087670 0.317250 -1.867722
7.811100 0.358173 -1.863796
8.668401 0.406578 -1.856390
9.807678 0.471095 -1.862880
11.316813 0.610129 -1.876375
13.440443 0.740641 -1.908166
17.011921 0.963799 -2.009332
23.224609 1.347947 -2.196044
36.335381 2.158468 -2.583463
37.015808 2.194733 -1.767922
41.392071 2.453000 -1.005485
38.037384 2.232233 -0.039527
68.022453 4.067129 1.513839
0.005439 -0.109574 -0.003086
68.191620 4.030732 4.708107
0.005439 -0.109574 -0.003086
0.005439 -0.109574 -0.003086
0.005439 -0.109574 -0.003086
0.005439 -0.109574 -0.003086
68.731743 3.969780 12.900289
0.005424 -0.109376 -0.003080
3.245001 0.076516 -1.830334
3.397511 0.084703 -1.813785
3.396113 0.083468 -1.712256
3.478150 0.087557 -1.653546
3.772627 0.102969 -1.687312
3.952531 0.111759 -1.658770
4.153774 0.122344 -1.630042
4.528106 0.141707 -1.656617
4.983193 0.166141 -1.692925
5.932352 0.216651 -1.861515
6.455626 0.243227 -1.862066
7.095802 0.277036 -1.869215
7.827251 0.314221 -1.867002
8.684815 0.359211 -1.859276
9.818630 0.417065 -1.864328
11.330709 0.543880 -1.877956
13.476727 0.665404 -1.912593
17.043730 0.864713 -2.012300
23.302410 1.214541 -2.202518
36.525074 1.959826 -2.595906
41.267281 2.214375 -1.969799
41.344234 2.211775 -1.003825
0.005424 -0.109376 -0.003080
67.574806 3.638278 1.503600
0.005424 -0.109376 -0.003080
67.767975 3.614406 4.677545
0.005424 -0.109376 -0.003080
0.005424 -0.109376 -0.003080
0.005424 -0.109376 -0.003080
0.005424 -0.109376 -0.003080
68.333916 3.552401 12.821709
3.109647 0.052640 -1.850522
3.239009 0.058284 -1.826391
3.391484 0.065620 -1.810004
3.386422 0.064205 -1.706843
3.475604 0.067597 -1.651812
3.773774 0.081499 -1.687292
3.948172 0.089669 -1.656432
4.140159 0.097941 -1.624187
4.291163 0.104043 -1.569495
4.288523 0.103194 -1.456634
4.309914 0.102786 -1.352365
6.469073 0.206895 -1.865355
7.094022 0.236275 -1.868165
7.833459 0.269630 -1.867893
0.005410 -0.109178 -0.003074
9.835294 0.359779 -1.866889
11.347960 0.481653 -1.880190
13.512610 0.589783 -1.917021
17.084599 0.771764 -2.016440
23.335287 1.086181 -2.204866
36.705723 1.758674 -2.607781
41.169857 1.978979 -1.964411
41.253033 1.969073 -1.001149
66.586090 3.222664 -0.066327
66.520226 3.208226 1.479906
0.005410 -0.109178 -0.003074
66.712112 3.172112 4.603494
66.741615 3.150714 6.166608
0.005410 -0.109178 -0.003074
0.005410 -0.109178 -0.003074
0.005410 -0.109178 -0.003074
0.005410 -0.109178 -0.003074
3.110554 0.034440 -1.850504
3.243411 0.039476 -1.828335
3.394218 0.045829 -1.810926
3.389187 0.044450 -1.707724
3.485610 0.047636 -1.656080
3.776630 0.060106 -1.688087
3.928995 0.065601 -1.647912
4.145031 0.073800 -1.625624
4.258513 0.078104 -1.557127
4.265091 0.076940 -1.448265
4.272945 0.075826 -1.340392
4.279799 0.075408 -1.234248
4.301485 0.074878 -1.133087
4.307277 0.074409 -1.027591
4.322123 0.073566 -0.925703
4.326740 0.072283 -0.822193
11.365056 0.415287 -1.882424
13.546060 0.513680 -1.921166
17.117302 0.672046 -2.019642
23.405611 0.951055 -2.210775
36.851383 1.553982 -2.617250
46.142902 1.957546 -2.200552
66.558258 2.849189 -1.612748
66.394325 2.830795 -0.065867
66.688499 2.821002 1.483510
0.005396 -0.108981 -0.003068
0.005396 -0.108981 -0.003068
0.005396 -0.108981 -0.003068
66.826035 2.747300 7.754193
0.005396 -0.108981 -0.003068
0.005396 -0.108981 -0.003068
0.005396 -0.108981 -0.003068
3.109595 0.016707 -1.849465
3.240741 0.020912 -1.826355
0.005381 -0.108783 -0.003063
3.391788 0.025256 -1.708605
3.490054 0.027960 -1.657775
3.777534 0.038614 -1.688067
3.922562 0.042949 -1.644801
4.121820 0.049263 -1.616123
4.248256 0.053414 -1.552991
4.247163 0.051925 -1.441823
4.258687 0.050912 -1.335590
4.259665 0.050240 -1.228142
4.275381 0.049371 -1.125948
4.269374 0.048436 -1.018310
4.285979 0.047586 -0.917746
4.300180 0.046639 -0.816960
4.341015 0.066341 -0.720156
4.328804 0.065127 -0.615325
4.349920 0.064489 -0.514906
23.437166 0.817735 -2.213118
37.021790 1.348698 -2.628555
46.148018 1.692254 -2.200083
67.371346 2.497611 -1.631760
66.196281 2.441085 -0.065404
66.330605 2.423582 1.475443
0.005381 -0.108783 -0.003063
66.532005 2.397416 4.589292
0.005381 -0.108783 -0.003063
66.767838 2.360668 7.745931
66.796173 2.350566 9.326035
0.005381 -0.108783 -0.003063
67.039505 2.313736 12.569757
3.106808 -0.001065 -1.847403
3.246657 0.002685 -1.829281
3.409879 0.007727 -1.818413
0.005367 -0.108581 -0.003057
3.508824 0.008727 -1.666329
3.792925 0.017614 -1.694568
3.928880 0.020808 -1.647097
4.120786 0.025733 -1.615371
4.247213 0.029156 -1.552282
4.242315 0.027553 -1.439874
4.259517 0.026657 -1.335567
4.254721 0.025795 -1.226460
4.266565 0.024718 -1.123384
4.260486 0.023819 -1.015973
4.273087 0.022753 -0.914799
4.287251 0.021729 -0.814332
4.310366 0.040524 -0.714915
4.298061 0.039381 -0.610819
4.325028 0.038835 -0.511844
0.005367 -0.108581 -0.003057
0.005367 -0.108581 -0.003057
0.005367 -0.108581 -0.003057
0.005367 -0.108581 -0.003057
0.005367 -0.108581 -0.003057
0.005367 -0.108581 -0.003057
0.005367 -0.108581 -0.003057
4.404674 0.031834 0.300585
4.406438 0.030385 0.403587
66.349991 1.963654 7.696193
66.367653 1.953138 9.264647
0.005367 -0.108581 -0.003057
66.612137 1.915267 12.487489
3.090197 -0.019199 -1.837167
3.245477 -0.015809 -1.828280
3.410475 -0.011656 -1.818394
3.403800 -0.012997 -1.713961
3.500417 -0.011473 -1.662023
3.775322 -0.005134 -1.686395
3.931408 -0.001509 -1.647849
4.153139 0.003115 -1.627747
4.246070 0.004169 -1.551574
4.248693 0.003538 -1.441777
4.262130 0.002439 -1.336142
4.257357 0.000867 -1.226991
4.263371 0.000315 -1.122345
4.270916 -0.000948 -1.018265
4.269882 -0.002430 -0.913941
4.285992 -0.003488 -0.813938
4.289470 0.015342 -0.711307
4.292913 0.013977 -0.609956
4.301970 0.013519 -0.509016
4.302646 0.012071 -0.408174
4.306934 0.010723 -0.307999
4.310857 0.010113 -0.207940
0.005383 -0.108381 -0.003052
0.005383 -0.108381 -0.003052
4.346749 0.007412 0.093723
4.351315 0.006051 0.195623
0.005383 -0.108381 -0.003052
4.341491 0.002834 0.397539
0.005383 -0.108381 -0.003052
4.363737 0.001190 0.605522
4.374107 -0.000039 0.710743
4.383758 -0.000528 0.817903
3.080341 -0.037523 -1.831018
3.247721 -0.034773 -1.829244
3.416270 -0.031518 -1.821196
3.413232 -0.032741 -1.718437
3.491895 -0.032182 -1.657717
3.784973 -0.026418 -1.690450
3.952267 -0.024140 -1.656327
4.164888 -0.021028 -1.632100
0.005369 -0.108184 -0.003046
0.005369 -0.108184 -0.003046
4.262710 -0.022580 -1.336120
4.263692 -0.023270 -1.228628
4.267798 -0.024639 -1.123339
4.277266 -0.025164 -1.019631
4.274325 -0.026676 -0.914754
4.286497 -0.027901 -0.813915
4.284198 -0.009975 -0.710306
4.277699 -0.010836 -0.607692
4.292675 -0.011957 -0.507824
4.289320 -0.013494 -0.406837
4.303545 -0.013896 -0.307693
4.303493 -0.015366 -0.207537
4.309141 -0.016710 -0.106993
4.348402 -0.016600 -0.007084
4.327356 -0.018520 0.093300
4.329946 -0.019939 0.194641
4.336174 -0.020535 0.295812
4.336068 -0.022016 0.397010
0.005369 -0.108184 -0.003046
4.342486 -0.024089 0.602503
0.005369 -0.108184 -0.003046
4.358747 -0.026741 0.813136
3.082412 -0.054980 -1.832023
3.246326 -0.053252 -1.828243
3.416654 -0.050935 -1.821177
3.408237 -0.052232 -1.715721
3.494054 -0.052009 -1.658555
3.772597 -0.048161 -1.684724
3.974808 -0.046296 -1.665576
4.161572 -0.044806 -1.630618
4.239562 -0.044321 -1.548786
4.238334 -0.045782 -1.437881
4.244029 -0.047140 -1.330122
4.246809 -0.047801 -1.223629
0.005354 -0.107986 -0.003041
4.246558 -0.049952 -1.012202
0.005354 -0.107986 -0.003041
0.005354 -0.107986 -0.003041
4.288624 -0.034312 -0.710935
4.278170 -0.035202 -0.607669
4.295132 -0.036376 -0.508035
4.291778 -0.037895 -0.407002
4.298017 -0.038505 -0.307247
4.297960 -0.039971 -0.207230
4.313567 -0.041193 -0.107066
0.005354 -0.107986 -0.003041
4.315787 -0.043347 0.093056
4.326364 -0.044662 0.194482
4.326612 -0.045378 0.295147
4.326528 -0.046850 0.396113
4.343842 -0.048083 0.500293
4.338927 -0.048872 0.601973
4.341498 -0.050314 0.705307
4.347334 -0.051718 0.810948
3.082685 -0.072476 -1.832006
3.250086 -0.071655 -1.830188
3.415174 -0.070375 -1.820218
3.406722 -0.071620 -1.714803
3.499732 -0.071817 -1.661107
3.776530 -0.069587 -1.686334
3.976930 -0.068906 -1.666327
4.178618 -0.068352 -1.637159
4.211686 -0.068732 -1.538478
4.213998 -0.070143 -1.429513
4.219490 -0.071526 -1.322332
4.224006 -0.072188 -1.216969
4.229776 -0.073576 -1.113128
4.237062 -0.074220 -1.009865
4.243679 -0.075606 -0.908027
4.259602 -0.076936 -0.808660
0.005340 -0.107792 -0.003035
0.005340 -0.107792 -0.003035
0.005340 -0.107792 -0.003035
4.284143 -0.062424 -0.406229
4.308323 -0.062882 -0.307931
4.304243 -0.064391 -0.207492
4.315857 -0.065743 -0.107092
4.323121 -0.066391 -0.007013
4.326074 -0.067836 0.093301
4.330656 -0.069265 0.194687
4.332870 -0.069968 0.295583
4.330766 -0.071459 0.396504
4.344096 -0.072824 0.500316
4.345114 -0.073537 0.602826
4.341720 -0.075042 0.705331
4.339732 -0.076531 0.809496
3.081098 -0.089987 -1.830965
3.253726 -0.090097 -1.832132
3.402970 -0.089853 -1.813615
3.394350 -0.091045 -1.708490
3.501681 -0.091706 -1.661945
3.783975 -0.091705 -1.689573
3.978930 -0.091540 -1.667078
4.189940 -0.092110 -1.641512
4.226862 -0.093404 -1.543941
4.217916 -0.094132 -1.430774
4.231073 -0.095528 -1.325894
4.216444 -0.097001 -1.214734
4.231831 -0.097660 -1.113614
4.227459 -0.099107 -1.007528
4.230090 -0.100543 -0.905081
4.253823 -0.101949 -0.807522
4.267453 -0.083293 -0.707303
4.260893 -0.084778 -0.605103
4.283743 -0.085369 -0.506588
4.280345 -0.086841 -0.405831
4.294511 -0.088235 -0.306918
4.284434 -0.088995 -0.206519
0.005326 -0.107594 -0.003029
4.303280 -0.091840 -0.006972
4.308214 -0.092537 0.092923
4.304811 -0.094013 0.193522
4.327037 -0.095414 0.295192
0.005326 -0.107594 -0.003029
4.346195 -0.097561 0.500570
0.005326 -0.107594 -0.003029
4.337903 -0.100531 0.704708
0.005326 -0.107594 -0.003029
3.084583 -0.108017 -1.832991
3.250265 -0.109147 -1.830150
3.418887 -0.109797 -1.822060
3.405108 -0.110939 -1.713865
3.507136 -0.112234 -1.664497
3.778539 -0.113226 -1.687107
3.999232 -0.114924 -1.675554
4.195556 -0.116716 -1.643677
4.600735 -0.118374 -1.680384
0.005312 -0.107396 -0.003024
4.658617 -0.121674 -1.459710
0.005312 -0.107396 -0.003024
0.005312 -0.107396 -0.003024
4.373365 -0.123732 -1.042222
4.357192 -0.125151 -0.932203
4.318622 -0.126462 -0.819778
4.259632 -0.108341 -0.705977
4.247067 -0.109043 -0.603118
4.261919 -0.110497 -0.503992
4.258470 -0.111944 -0.403744
4.266613 -0.112662 -0.304916
4.262492 -0.114105 -0.205451
4.278058 -0.115585 -0.106130
4.285296 -0.116310 -0.006933
4.290241 -0.117778 0.092544
4.290808 -0.119244 0.192906
4.307052 -0.120001 0.293839
4.306982 -0.121466 0.394342
4.326300 -0.122999 0.498288
4.317453 -0.123682 0.599001
4.325986 -0.125188 0.702798
4.320096 -0.126629 0.805857
3.086230 -0.125539 -1.833994
3.255435 -0.127643 -1.833076
3.415266 -0.129209 -1.820159
3.396091 -0.130231 -1.709351
3.503423 -0.132148 -1.662763
3.793043 -0.135496 -1.693608
3.997285 -0.137676 -1.674760
4.208462 -0.140717 -1.648759
4.309391 -0.142981 -1.574068
4.717830 -0.147155 -1.600205
4.694719 -0.148553 -1.471038
4.669834 -0.149921 -1.345202
4.693929 -0.150915 -1.235043
4.701976 -0.152588 -1.120426
4.681651 -0.153982 -1.001501
4.613162 -0.154865 -0.875568
0.005297 -0.107199 -0.003018
4.278664 -0.134170 -0.607578
4.277725 -0.134872 -0.505840
4.260366 -0.136209 -0.403910
4.272480 -0.137746 -0.305317
4.260387 -0.138365 -0.205334
4.269927 -0.139890 -0.105914
4.287142 -0.141479 -0.006911
4.286088 -0.142181 0.092478
4.288677 -0.143661 0.192837
4.292941 -0.145157 0.292897
4.282898 -0.146525 0.392158
4.306241 -0.147454 0.496006
4.293487 -0.148794 0.595706
4.298180 -0.150299 0.698306
4.302203 -0.151053 0.802564
3.084344 -0.143577 -1.832954
3.251757 -0.146662 -1.831094
3.400978 -0.149040 -1.812616
3.395897 -0.150123 -1.709331
3.506847 -0.152109 -1.664458
3.776381 -0.156859 -1.686250
4.006256 -0.161255 -1.678601
4.230535 -0.164995 -1.657486
4.337276 -0.167928 -1.584331
4.723200 -0.174135 -1.602107
4.696296 -0.175343 -1.471611
4.686814 -0.176796 -1.350155
4.935366 -0.181317 -1.298550
4.841728 -0.181550 -1.153730
4.743888 -0.180827 -1.014839
4.630517 -0.180632 -0.878893
0.005283 -0.107001 -0.003012
4.652677 -0.163052 -0.660502
4.648886 -0.164589 -0.549529
4.578664 -0.165276 -0.433900
4.643275 -0.166869 -0.331580
4.721537 -0.169483 -0.227250
4.663500 -0.169489 -0.115392
4.682839 -0.171340 -0.007247
4.295791 -0.167477 0.092725
4.298366 -0.168226 0.193317
4.300612 -0.169722 0.293472
4.298543 -0.170401 0.393652
4.303957 -0.171944 0.495798
4.305060 -0.173424 0.597387
4.305732 -0.174150 0.699619
4.311703 -0.175705 0.804429
3.090963 -0.160669 -1.837023
3.249736 -0.164536 -1.830094
3.409483 -0.167937 -1.817299
0.005269 -0.106803 -0.003006
3.502916 -0.171978 -1.662724
3.797936 -0.178762 -1.696011
3.996644 -0.183190 -1.674716
4.243161 -0.189345 -1.662567
0.005269 -0.106803 -0.003006
5.056050 -0.207720 -1.715064
4.915256 -0.206577 -1.540295
4.982244 -0.209631 -1.435292
4.946434 -0.209706 -1.301573
4.852858 -0.209406 -1.156481
4.737487 -0.208575 -1.013561
4.669265 -0.208691 -0.886309
4.635787 -0.187701 -0.768178
4.666114 -0.189819 -0.662438
4.654427 -0.190382 -0.550206
4.622042 -0.191374 -0.438003
0.005269 -0.106803 -0.003006
4.767037 -0.196438 -0.229409
4.695045 -0.196678 -0.116139
4.746370 -0.199277 -0.007280
0.005269 -0.106803 -0.003006
0.005269 -0.106803 -0.003006
0.005269 -0.106803 -0.003006
0.005269 -0.106803 -0.003006
0.005269 -0.106803 -0.003006
0.005269 -0.106803 -0.003006
0.005269 -0.106803 -0.003006
0.005269 -0.106803 -0.003006
3.095740 -0.178876 -1.840070
3.263275 -0.183892 -1.837925
3.410826 -0.187952 -1.818220
3.395147 -0.188723 -1.709292
3.502463 -0.192504 -1.662704
3.812051 -0.200735 -1.702510
4.027467 -0.207424 -1.687826
4.253762 -0.214536 -1.666919
4.698766 -0.226615 -1.716630
5.049655 -0.237300 -1.713110
5.051949 -0.239071 -1.583286
4.989256 -0.238249 -1.437479
4.984407 -0.239815 -1.311712
4.912484 -0.238701 -1.170804
4.889339 -0.239736 -1.046108
4.709846 -0.236446 -0.894098
4.662838 -0.215580 -0.772718
4.681393 -0.216790 -0.664654
0.005255 -0.106605 -0.003001
0.005255 -0.106605 -0.003001
4.724012 -0.221789 -0.337324
0.005255 -0.106605 -0.003001
4.718403 -0.224859 -0.116693
4.757747 -0.226634 -0.007266
68.831573 -1.868319 1.533678
68.928001 -1.894251 3.150261
68.903786 -1.905043 4.754388
69.013123 -1.931387 6.374930
68.985542 -1.954131 8.003895
69.194695 -1.971191 9.661206
69.006447 -1.989596 11.274167
0.005255 -0.106605 -0.003001
3.096997 -0.196498 -1.841074
3.257534 -0.202277 -1.834962
3.408542 -0.207282 -1.817260
3.391047 -0.207910 -1.707474
3.501903 -0.212414 -1.662683
3.815092 -0.222535 -1.704119
4.043419 -0.230863 -1.694757
4.245615 -0.238535 -1.663979
4.698007 -0.253400 -1.716605
5.065868 -0.266641 -1.718862
5.369689 -0.278085 -1.683034
0.005240 -0.106408 -0.002995
7.185621 -0.339824 -1.890559
7.931701 -0.365385 -1.889592
8.841198 -0.398107 -1.890405
4.762044 -0.265063 -0.904118
4.703547 -0.243365 -0.779539
4.690578 -0.243761 -0.666030
4.732529 -0.246602 -0.559505
0.005240 -0.106408 -0.002995
4.761156 -0.249859 -0.339984
0.005240 -0.106408 -0.002995
4.757604 -0.252985 -0.117632
68.078499 -2.217285 -0.063814
69.241966 -2.276938 1.543385
69.317955 -2.302914 3.168918
69.261223 -2.312596 4.780158
69.411514 -2.341007 6.413125
69.392693 -2.364013 8.052826
69.549026 -2.380618 9.712665
69.390945 -2.399054 11.339275
0.005240 -0.106408 -0.002995
3.099875 -0.214194 -1.843099
3.255187 -0.220714 -1.833961
3.416707 -0.226962 -1.821942
3.413626 -0.228005 -1.719142
3.501220 -0.232318 -1.662663
3.819814 -0.245102 -1.706543
4.066611 -0.254755 -1.704777
4.257804 -0.263193 -1.669059
4.697031 -0.281000 -1.716579
5.070537 -0.295747 -1.720761
5.402938 -0.310019 -1.693760
0.005226 -0.106206 -0.002989
7.189943 -0.381121 -1.892048
7.941678 -0.412586 -1.892329
8.845178 -0.450468 -1.891615
10.066588 -0.501458 -1.909369
4.738156 -0.271407 -0.785381
4.747049 -0.273335 -0.674127
4.741564 -0.273924 -0.560649
4.753181 -0.275950 -0.450495
0.005226 -0.106206 -0.002989
0.005226 -0.106206 -0.002989
0.005226 -0.106206 -0.002989
68.506493 -2.636529 -0.063913
69.629951 -2.689569 1.552653
69.669510 -2.714752 3.185938
69.645668 -2.737571 4.808005
69.783096 -2.766518 6.449125
69.795433 -2.778543 8.101534
69.940048 -2.807883 9.769665
0.005226 -0.106206 -0.002989
69.965698 -2.844248 13.123976
3.095727 -0.232194 -1.841036
3.256188 -0.239845 -1.834924
3.414162 -0.246904 -1.820981
3.396780 -0.247330 -1.711031
3.505850 -0.252447 -1.665214
3.807987 -0.266377 -1.701630
4.074865 -0.279009 -1.708616
4.251256 -0.287206 -1.666849
4.710970 -0.308421 -1.722040
5.058003 -0.324179 -1.716883
5.411216 -0.341267 -1.696719
6.553060 -0.393184 -1.888626
7.194056 -0.422483 -1.893538
7.945622 -0.458269 -1.893680
8.856802 -0.500155 -1.894496
10.070116 -0.557605 -1.910438
4.784395 -0.301178 -0.793179
4.783587 -0.301934 -0.679424
4.774217 -0.303171 -0.564596
4.771972 -0.304701 -0.452345
4.856801 -0.309044 -0.346855
0.005211 -0.106008 -0.002983
49.410576 -2.198582 -1.194834
68.868446 -3.046177 -0.063957
0.005211 -0.106008 -0.002983
0.005211 -0.106008 -0.002983
0.005211 -0.106008 -0.002983
0.005211 -0.106008 -0.002983
0.005211 -0.106008 -0.002983
0.005211 -0.106008 -0.002983
0.005211 -0.106008 -0.002983
0.005211 -0.106008 -0.002983
3.094956 -0.249230 -1.841018
3.255390 -0.257772 -1.834905
3.427445 -0.266372 -1.828487
3.415563 -0.266969 -1.720900
3.506737 -0.272466 -1.666051
3.805203 -0.287293 -1.700794
4.079360 -0.301764 -1.710912
4.242700 -0.311059 -1.663909
4.707877 -0.334365 -1.721329
5.049071 -0.352660 -1.714288
5.411661 -0.372245 -1.697288
6.551345 -0.429485 -1.888593
7.201763 -0.464093 -1.896043
7.957148 -0.503011 -1.896882
8.862204 -0.551234 -1.896124
10.067335 -0.615269 -1.910390
11.613210 -0.644678 -1.922675
13.830458 -0.749894 -1.960537
0.005197 -0.105810 -0.002978
4.838396 -0.334269 -0.458695
0.005197 -0.105810 -0.002978
49.666481 -2.478368 -2.365411
50.002831 -2.511465 -1.209221
0.005197 -0.105810 -0.002978
0.005197 -0.105810 -0.002978
70.594696 -3.562036 3.230497
70.512131 -3.569674 4.870858
70.603714 -3.598219 6.528846
70.666794 -3.625396 8.207490
0.005197 -0.105810 -0.002978
0.005197 -0.105810 -0.002978
0.005197 -0.105810 -0.002978
3.092387 -0.266705 -1.839978
3.263157 -0.276721 -1.839791
3.405285 -0.284739 -1.817180
3.409225 -0.286095 -1.718183
3.511129 -0.292689 -1.668602
3.811344 -0.309999 -1.704032
4.063409 -0.324200 -1.704708
4.260023 -0.336233 -1.671176
4.704566 -0.361924 -1.720618
5.036243 -0.380839 -1.710410
5.406239 -0.402917 -1.696066
6.551224 -0.468170 -1.889113
7.193793 -0.504945 -1.894482
7.964342 -0.550457 -1.899155
8.865252 -0.603823 -1.897333
10.095553 -0.676439 -1.916295
11.641448 -0.712850 -1.927837
13.846164 -0.832619 -1.963273
17.636959 -1.034649 -2.080302
0.005183 -0.105616 -0.002972
44.271198 -2.468196 -3.141810
45.887646 -2.562072 -2.186086
49.750595 -2.785830 -1.203274
68.049225 -3.794926 -0.062684
0.005183 -0.105616 -0.002972
71.014526 -3.991662 3.251002
70.938606 -4.011673 4.902162
71.031151 -4.040969 6.570745
71.077774 -4.055315 8.258055
71.267303 -4.090120 9.964188
53.624264 -3.121897 8.771967
53.602436 -3.129532 10.062677
3.094789 -0.285001 -1.842002
3.269040 -0.296232 -1.843697
3.421795 -0.305716 -1.826565
3.415215 -0.306487 -1.721759
3.511758 -0.313369 -1.669439
3.801009 -0.331139 -1.699936
4.067579 -0.348371 -1.707003
4.279051 -0.362469 -1.679174
4.706746 -0.388967 -1.721963
5.040177 -0.410785 -1.712308
5.429132 -0.436223 -1.703803
6.554794 -0.505955 -1.890739
7.200957 -0.547917 -1.896987
7.965556 -0.596250 -1.900043
8.868098 -0.654919 -1.898543
10.052852 -0.731799 -1.908805
11.647484 -0.782143 -1.929411
13.867458 -0.913475 -1.966850
17.666838 -1.140967 -2.084427
0.005169 -0.105419 -0.002966
44.314632 -2.725842 -3.145715
0.005169 -0.105419 -0.002966
74.358650 -4.553301 -1.797319
68.476082 -4.212747 -0.062785
0.005169 -0.105419 -0.002966
71.442955 -4.439418 3.272065
71.372986 -4.447001 4.934156
71.490349 -4.478505 6.615775
0.005169 -0.105419 -0.002966
57.360535 -3.643150 8.022066
50.152493 -3.215637 8.206820
53.773853 -3.458547 10.098666
3.100556 -0.303008 -1.846070
3.264425 -0.314577 -1.841716
3.413527 -0.324712 -1.822783
3.412223 -0.325779 -1.720840
3.512312 -0.333446 -1.670276
3.803246 -0.353667 -1.701544
4.062427 -0.371285 -1.705436
4.270039 -0.386351 -1.676232
4.697507 -0.416120 -1.719195
5.023200 -0.438531 -1.707146
5.988969 -0.504710 -1.880009
6.552298 -0.544551 -1.890705
7.204073 -0.589474 -1.898475
7.972211 -0.643858 -1.902317
8.864678 -0.707214 -1.898499
10.062690 -0.792047 -1.911361
11.669003 -0.850500 -1.933594
13.888124 -0.997027 -1.970426
17.696243 -1.244582 -2.088552
24.592678 -1.697115 -2.323244
38.252300 -2.594539 -2.716558
45.815990 -3.094412 -2.183787
74.820679 -5.012501 -1.808798
68.197090 -4.601306 -0.062264
0.005154 -0.105221 -0.002961
71.873329 -4.880110 3.293312
71.831764 -4.901839 4.968087
71.938057 -4.933466 6.660078
0.005154 -0.105221 -0.002961
0.005154 -0.105221 -0.002961
50.605782 -3.544484 8.284449
52.820099 -3.703721 9.923447
3.097628 -0.321025 -1.845030
3.254415 -0.333077 -1.836789
3.422745 -0.345449 -1.828406
3.407275 -0.345514 -1.719021
3.512699 -0.354152 -1.671113
3.801742 -0.375307 -1.701522
4.060777 -0.395124 -1.705413
4.340742 -0.416625 -1.704643
4.699381 -0.443170 -1.720541
5.017370 -0.467781 -1.705835
5.984585 -0.539817 -1.879380
6.559252 -0.582685 -1.893436
7.210700 -0.632619 -1.900979
7.972850 -0.689739 -1.903203
8.864963 -0.758232 -1.899290
10.060545 -0.849803 -1.911685
11.684052 -0.920756 -1.936797
13.916348 -1.078976 -1.975122
17.728813 -1.351943 -2.093143
24.656298 -1.847725 -2.330070
39.676140 -2.916121 -2.818503
45.883148 -3.371601 -2.187663
0.005171 -0.105021 -0.002956
67.545692 -4.948245 -0.061427
0.005171 -0.105021 -0.002956
72.331978 -5.340814 3.316032
72.282570 -5.349215 5.001606
72.340096 -5.378070 6.700333
72.413826 -5.408135 8.423855
53.812763 -4.054731 7.532091
54.207127 -4.102164 8.878140
52.991879 -4.030605 9.960173
3.098033 -0.338740 -1.846032
3.258267 -0.351958 -1.839714
3.423045 -0.365033 -1.829325
3.402280 -0.364601 -1.717204
3.505853 -0.373096 -1.668521
3.798295 -0.396795 -1.700685
4.066384 -0.418810 -1.708479
4.368643 -0.442894 -1.716284
4.702959 -0.470395 -1.722572
5.007697 -0.494934 -1.703241
5.983974 -0.573098 -1.879947
6.562129 -0.620616 -1.895061
7.213427 -0.673041 -1.902467
7.981001 -0.736261 -1.905940
8.868984 -0.808029 -1.900917
10.056223 -0.905650 -1.911636
11.698845 -0.989175 -1.940001
13.936173 -1.160684 -1.978698
17.758982 -1.456481 -2.097502
24.743164 -1.996649 -2.339147
0.005156 -0.104823 -0.002950
45.779949 -3.628639 -2.183476
0.005156 -0.104823 -0.002950
67.728111 -5.352586 -0.061316
0.005156 -0.104823 -0.002950
