# This PCD file was generated using the MATLAB® pcwrite function
# from Computer Vision Toolbox®.
# .PCD v.7 - Point Cloud Data file format
VERSION .7
FIELDS x y z
SIZE 4 4 4
TYPE F F F
COUNT 1 1 1
WIDTH 1677
HEIGHT 1
VIEWPOINT 0 0 0 1 0 0 0
POINTS 1677
DATA ascii
64.773911 23.598862 9.694916
0.004989 -0.120641 -0.003208
0.004989 -0.120641 -0.003208
0.423689 0.031867 -0.267405
3.007356 0.970524 -1.797781
3.142145 1.018922 -1.777604
3.328523 1.085348 -1.778027
3.545229 1.162609 -1.785319
3.786103 1.249200 -1.793414
4.020723 1.332646 -1.786680
4.311634 1.436265 -1.791064
4.629054 1.550132 -1.792352
4.966859 1.670271 -1.785291
5.373498 1.814969 -1.783547
5.823632 1.976162 -1.776273
6.369429 2.170378 -1.773520
7.046120 2.412632 -1.775741
7.422560 2.545209 -1.678067
7.537614 2.583654 -1.510586
7.562809 2.628575 -1.323998
7.554688 2.624197 -1.131689
7.561552 2.623783 -0.941436
7.515391 2.604131 -0.748081
9.675839 3.386056 -0.721905
0.004981 -0.120439 -0.003204
0.004981 -0.120439 -0.003204
0.004981 -0.120439 -0.003204
0.004981 -0.120439 -0.003204
0.004981 -0.120439 -0.003204
67.345840 24.167267 5.007074
0.004981 -0.120439 -0.003204
0.004981 -0.120439 -0.003204
0.004981 -0.120439 -0.003204
0.004981 -0.120439 -0.003204
0.004981 -0.120439 -0.003204
0.424573 0.029660 -0.267401
3.016848 0.954621 -1.799730
3.156933 1.004038 -1.782288
3.337082 1.067025 -1.778914
3.555954 1.143651 -1.787020
3.795627 1.228255 -1.794216
4.029011 1.309741 -1.786669
4.320509 1.411683 -1.791052
4.645653 1.526241 -1.795075
4.980617 1.643184 -1.786558
5.395321 1.788101 -1.787107
5.841032 1.944805 -1.777912
6.380660 2.133312 -1.772998
7.066073 2.374262 -1.777108
7.478335 2.517046 -1.687195
7.593787 2.554885 -1.518711
7.619383 2.599891 -1.331112
7.609500 2.594941 -1.137514
7.622101 2.596517 -0.946982
7.568465 2.574481 -0.751778
9.596216 3.295136 -0.714497
10.897830 3.754454 -0.541630
0.004973 -0.120240 -0.003200
0.004973 -0.120240 -0.003200
0.004973 -0.120240 -0.003200
0.004973 -0.120240 -0.003200
72.048637 25.396564 5.346101
68.718163 24.190632 6.801485
0.004973 -0.120240 -0.003200
0.004973 -0.120240 -0.003200
0.004973 -0.120240 -0.003200
0.004973 -0.120240 -0.003200
0.425395 0.027447 -0.267395
3.042705 0.944410 -1.811475
3.166677 0.987269 -1.784156
3.338783 1.046281 -1.776212
3.559754 1.122229 -1.785298
3.803313 1.206643 -1.794205
4.042368 1.288611 -1.788969
4.334518 1.388891 -1.793223
4.658570 1.500975 -1.796430
4.997825 1.617247 -1.789105
5.404403 1.756658 -1.786498
5.861889 1.914578 -1.780654
6.395319 2.097460 -1.773488
7.074768 2.331918 -1.775708
7.537747 2.489616 -1.697155
7.668473 2.531987 -1.530540
7.729849 2.589591 -1.347623
7.716545 2.583488 -1.151129
7.671333 2.564703 -0.951137
7.638314 2.550226 -0.757144
9.576113 3.226316 -0.711548
10.848244 3.666940 -0.538072
0.004965 -0.120038 -0.003196
0.004965 -0.120038 -0.003196
0.004965 -0.120038 -0.003196
0.004965 -0.120038 -0.003196
0.004965 -0.120038 -0.003196
69.910179 24.161327 6.905722
0.004965 -0.120038 -0.003196
69.518158 23.985722 10.341891
0.004965 -0.120038 -0.003196
0.004965 -0.120038 -0.003196
0.427869 0.025791 -0.268410
0.004957 -0.119836 -0.003191
3.172994 0.969278 -1.784146
3.347131 1.027881 -1.777099
3.570238 1.103147 -1.786999
3.814315 1.186174 -1.795820
4.050386 1.265581 -1.788958
4.346627 1.365387 -1.794665
4.666048 1.473789 -1.795734
5.007745 1.588719 -1.789093
5.418725 1.727024 -1.787676
5.875296 1.881699 -1.781190
6.415289 2.063384 -1.775499
7.103473 2.296456 -1.779379
7.593353 2.460327 -1.706282
7.702214 2.494413 -1.534224
7.732233 2.540843 -1.345337
7.722601 2.536094 -1.149720
7.737357 2.538228 -0.957379
7.689328 2.518790 -0.760654
9.631062 3.183747 -0.714176
10.860371 3.601508 -0.537583
0.004957 -0.119836 -0.003191
0.004957 -0.119836 -0.003191
0.004957 -0.119836 -0.003191
0.004957 -0.119836 -0.003191
0.004957 -0.119836 -0.003191
0.004957 -0.119836 -0.003191
0.004957 -0.119836 -0.003191
0.004957 -0.119836 -0.003191
0.004957 -0.119836 -0.003191
0.004957 -0.119836 -0.003191
0.425421 0.022457 -0.266365
0.436139 0.025915 -0.258852
3.180875 0.951815 -1.785075
3.348588 1.007136 -1.774397
3.580634 1.083989 -1.788699
3.823720 1.164373 -1.796623
4.053032 1.240741 -1.786634
4.351579 1.339418 -1.793199
4.684294 1.449343 -1.799140
5.026443 1.563143 -1.792280
5.432867 1.697288 -1.788853
5.888870 1.847705 -1.781726
6.442427 2.031608 -1.779535
7.123219 2.256419 -1.780746
7.749541 2.462564 -1.737856
7.756713 2.462020 -1.541979
7.794141 2.512378 -1.353422
7.788872 2.507637 -1.157214
7.793921 2.507906 -0.962461
7.751535 2.490672 -0.765277
0.004949 -0.119634 -0.003187
10.885376 3.540518 -0.537746
0.004949 -0.119634 -0.003187
0.004949 -0.119634 -0.003187
0.004949 -0.119634 -0.003187
0.004949 -0.119634 -0.003187
0.004949 -0.119634 -0.003187
0.004949 -0.119634 -0.003187
31.707962 10.473444 3.908039
0.004949 -0.119634 -0.003187
0.004949 -0.119634 -0.003187
0.004949 -0.119634 -0.003187
0.426247 0.020163 -0.266360
0.432040 0.021920 -0.255909
3.187157 0.933189 -1.785065
3.358587 0.988637 -1.776181
3.596273 1.065821 -1.792966
3.837983 1.144891 -1.799865
4.055767 1.215209 -1.784311
4.365446 1.315597 -1.795369
4.695010 1.423206 -1.799812
5.038130 1.534167 -1.792907
5.441689 1.664711 -1.788243
5.911045 1.817647 -1.785019
6.464247 1.996656 -1.782051
7.149692 2.219903 -1.783955
7.892547 2.460163 -1.766521
7.808773 2.429825 -1.549364
7.852690 2.480671 -1.360858
7.843316 2.476125 -1.163038
7.854590 2.476898 -0.968006
7.812236 2.459939 -0.769714
10.835970 3.456921 -0.799987
17.659344 5.703307 -0.868808
0.004941 -0.119433 -0.003183
0.004941 -0.119433 -0.003183
0.004941 -0.119433 -0.003183
0.004941 -0.119433 -0.003183
73.471497 24.000921 5.409333
0.004941 -0.119433 -0.003183
0.004941 -0.119433 -0.003183
0.004941 -0.119433 -0.003183
0.004941 -0.119433 -0.003183
0.004941 -0.119433 -0.003183
0.428691 0.018475 -0.267375
0.431181 0.019123 -0.254924
3.196513 0.916171 -1.786933
3.373411 0.972298 -1.780658
3.611617 1.048142 -1.797233
3.845401 1.122368 -1.799854
4.070396 1.194370 -1.787382
4.373600 1.290708 -1.795356
4.707638 1.396756 -1.801167
5.051144 1.506570 -1.794173
5.464595 1.637725 -1.792399
5.926051 1.784009 -1.786105
6.476280 1.959687 -1.782035
7.168962 2.179527 -1.785320
7.892783 2.408825 -1.763177
7.883650 2.402936 -1.561191
7.912545 2.450357 -1.368619
7.905644 2.445142 -1.169975
7.914741 2.446645 -0.973552
7.868599 2.428720 -0.773780
0.004933 -0.119231 -0.003178
0.004933 -0.119231 -0.003178
0.004933 -0.119231 -0.003178
0.004933 -0.119231 -0.003178
0.004933 -0.119231 -0.003178
0.004933 -0.119231 -0.003178
0.004933 -0.119231 -0.003178
0.004933 -0.119231 -0.003178
0.004933 -0.119231 -0.003178
0.004933 -0.119231 -0.003178
0.004933 -0.119231 -0.003178
0.004933 -0.119231 -0.003178
0.432762 0.017206 -0.269410
0.430294 0.016271 -0.253939
3.207641 0.899056 -1.789740
3.379800 0.952530 -1.780647
3.616742 1.026416 -1.796366
3.854417 1.100353 -1.800656
4.085121 1.172699 -1.790453
4.387199 1.266697 -1.797526
4.720117 1.370209 -1.802521
5.064289 1.477996 -1.795440
5.474906 1.605559 -1.792385
5.948220 1.752573 -1.789397
6.494011 1.923265 -1.783538
7.162035 2.130838 -1.780233
7.840443 2.341164 -1.748195
7.920923 2.363484 -1.565614
7.974615 2.418645 -1.376702
7.969737 2.414105 -1.177189
7.977108 2.414993 -0.979328
8.016394 2.424480 -0.786756
10.805300 3.305854 -0.794643
0.004926 -0.119029 -0.003174
0.004926 -0.119029 -0.003174
0.004926 -0.119029 -0.003174
0.004926 -0.119029 -0.003174
0.004926 -0.119029 -0.003174
0.004926 -0.119029 -0.003174
0.004926 -0.119029 -0.003174
0.004926 -0.119029 -0.003174
0.004926 -0.119029 -0.003174
0.004926 -0.119029 -0.003174
0.004926 -0.119029 -0.003174
0.433525 0.014952 -0.269405
0.436079 0.015585 -0.256873
3.213418 0.880834 -1.789729
3.387609 0.933849 -1.781534
3.621328 1.005936 -1.795500
3.861142 1.079085 -1.800645
4.087189 1.147790 -1.788129
4.400191 1.244109 -1.799696
4.731952 1.345225 -1.803878
5.073119 1.449975 -1.795428
5.489898 1.576940 -1.794158
5.956712 1.719056 -1.788831
6.512683 1.889554 -1.785548
7.163297 2.087677 -1.777450
7.909683 2.316308 -1.760647
7.992454 2.338829 -1.577072
8.088923 2.404158 -1.393861
8.074495 2.398186 -1.190525
8.035171 2.382922 -0.984641
7.990953 2.366165 -0.782840
10.774671 3.230402 -0.790997
0.004917 -0.118823 -0.003170
17.563423 5.331848 -0.428644
0.004917 -0.118823 -0.003170
0.004917 -0.118823 -0.003170
0.004917 -0.118823 -0.003170
0.004917 -0.118823 -0.003170
72.751122 22.355797 7.105997
0.004917 -0.118823 -0.003170
0.004917 -0.118823 -0.003170
0.004917 -0.118823 -0.003170
0.004917 -0.118823 -0.003170
0.437531 0.013768 -0.271439
0.438465 0.013890 -0.257847
3.230762 0.866748 -1.796291
3.396840 0.916221 -1.783319
3.632939 0.986913 -1.798057
3.866205 1.056567 -1.799820
4.097716 1.126292 -1.789660
4.404387 1.217939 -1.798230
4.736680 1.317135 -1.802497
5.094745 1.424868 -1.799895
5.499536 1.545583 -1.794144
5.970864 1.686126 -1.789919
6.527822 1.853432 -1.786545
7.181454 2.048381 -1.778817
7.970783 2.283769 -1.771020
8.036982 2.300750 -1.582976
8.093414 2.356373 -1.392222
8.090719 2.352538 -1.190784
8.098391 2.353413 -0.990651
8.054208 2.336924 -0.787649
10.759396 3.158174 -0.788465
17.620352 5.245454 -0.860482
17.621229 5.239166 -0.429256
0.004909 -0.118621 -0.003165
0.004909 -0.118621 -0.003165
0.004909 -0.118621 -0.003165
0.004909 -0.118621 -0.003165
0.004909 -0.118621 -0.003165
0.004909 -0.118621 -0.003165
0.004909 -0.118621 -0.003165
0.004909 -0.118621 -0.003165
0.004909 -0.118621 -0.003165
0.428439 0.008445 -0.265315
0.439232 0.011521 -0.257842
3.251776 0.852378 -1.804731
3.402899 0.896314 -1.783308
3.632481 0.963538 -1.794623
3.883409 1.037686 -1.804689
4.106795 1.102758 -1.790419
4.413999 1.192592 -1.798945
4.752036 1.292256 -1.805220
5.098351 1.393278 -1.797962
5.509305 1.513212 -1.794130
5.990362 1.654734 -1.792660
6.541250 1.815516 -1.787035
7.212451 2.012811 -1.783410
7.997601 2.242018 -1.773912
8.095974 2.268082 -1.591840
8.164645 2.325612 -1.401926
8.157913 2.322119 -1.198556
8.162362 2.320427 -0.996658
8.108674 2.301368 -0.791528
10.734073 3.083376 -0.785237
0.004902 -0.118423 -0.003161
17.702477 5.149764 -0.430423
89.563736 26.525103 0.004136
0.004902 -0.118423 -0.003161
0.004902 -0.118423 -0.003161
0.004902 -0.118423 -0.003161
68.909096 20.291363 6.707051
68.992439 20.290506 8.415759
0.004902 -0.118423 -0.003161
0.004902 -0.118423 -0.003161
0.004902 -0.118423 -0.003161
0.434102 0.007662 -0.268370
0.439967 0.009224 -0.257837
3.267440 0.836878 -1.810352
3.410379 0.877468 -1.784195
3.633440 0.941348 -1.792047
3.900707 1.017964 -1.809558
4.117266 1.080391 -1.791948
4.428634 1.169511 -1.801843
4.760313 1.264313 -1.805207
5.110588 1.365230 -1.799229
5.524072 1.483340 -1.795902
6.004444 1.620521 -1.793747
6.568981 1.782956 -1.791577
7.217468 1.968122 -1.781549
8.018942 2.197007 -1.775556
8.157181 2.233941 -1.601075
8.225905 2.292753 -1.410010
8.223546 2.289019 -1.206048
8.227709 2.288762 -1.002898
8.185522 2.273386 -0.797635
10.710707 3.007669 -0.782147
0.004894 -0.118221 -0.003157
0.004894 -0.118221 -0.003157
0.004894 -0.118221 -0.003157
69.397179 20.066694 1.680480
0.004894 -0.118221 -0.003157
0.004894 -0.118221 -0.003157
70.394409 20.278803 6.839944
0.004894 -0.118221 -0.003157
0.004894 -0.118221 -0.003157
0.004894 -0.118221 -0.003157
0.004894 -0.118221 -0.003157
0.436462 0.005791 -0.269384
0.437363 0.005887 -0.255873
0.473448 0.016145 -0.262261
3.426542 0.860434 -1.789569
3.646590 0.922026 -1.795457
3.903660 0.994750 -1.807920
4.127860 1.057227 -1.793479
4.443336 1.145527 -1.804739
4.773615 1.238702 -1.807246
5.122926 1.336201 -1.800495
5.537123 1.451865 -1.797079
6.018029 1.587255 -1.794835
6.580106 1.744245 -1.791560
7.248055 1.932127 -1.786141
8.052811 2.156955 -1.780109
8.210277 2.198453 -1.608829
8.287463 2.257821 -1.418092
8.284842 2.255582 -1.212984
8.289564 2.253888 -1.008674
8.249307 2.239327 -0.802442
10.695886 2.936956 -0.779756
46.188984 13.062174 -2.238978
48.796230 13.788283 -1.176921
0.004886 -0.118019 -0.003153
0.004886 -0.118019 -0.003153
0.004886 -0.118019 -0.003153
0.004886 -0.118019 -0.003153
70.106247 19.759405 6.800838
0.004886 -0.118019 -0.003153
0.004886 -0.118019 -0.003153
0.004886 -0.118019 -0.003153
0.004886 -0.118019 -0.003153
0.427238 0.000722 -0.263259
0.441409 0.004542 -0.257827
0.472503 0.013178 -0.261317
3.432094 0.840950 -1.789558
3.652499 0.901276 -1.795447
3.909965 0.972520 -1.807908
4.139877 1.035196 -1.795779
4.454103 1.121195 -1.806181
4.783132 1.211971 -1.807917
5.129344 1.306450 -1.799841
5.549742 1.421264 -1.798256
6.033288 1.554405 -1.796473
6.598150 1.708684 -1.793569
7.265350 1.892217 -1.787507
8.071428 2.112422 -1.781338
8.263241 2.162434 -1.616584
8.677198 2.315955 -1.482241
8.851342 2.363246 -1.293637
8.832932 2.354839 -1.072861
8.350939 2.216772 -0.810962
0.004878 -0.117817 -0.003148
46.348637 12.820304 -2.242984
49.029446 13.550733 -1.180532
0.004878 -0.117817 -0.003148
0.004878 -0.117817 -0.003148
0.004878 -0.117817 -0.003148
0.004878 -0.117817 -0.003148
70.273064 19.371193 6.806171
0.004878 -0.117817 -0.003148
0.004878 -0.117817 -0.003148
0.004878 -0.117817 -0.003148
0.004878 -0.117817 -0.003148
0.437869 0.001225 -0.269375
0.445456 0.003155 -0.259781
0.474963 0.011156 -0.262251
3.439276 0.821904 -1.790445
3.658288 0.880492 -1.795436
3.919686 0.951218 -1.809524
4.139279 1.009666 -1.792684
4.457542 1.094820 -1.804715
4.797955 1.186659 -1.810641
5.142952 1.278663 -1.801749
5.562181 1.390563 -1.799433
6.050222 1.521937 -1.798663
6.612274 1.671965 -1.794566
7.276774 1.850645 -1.787490
8.106781 2.072343 -1.786308
8.414741 2.152515 -1.643585
0.004870 -0.117615 -0.003144
0.004870 -0.117615 -0.003144
0.004870 -0.117615 -0.003144
8.744533 2.272988 -0.847695
0.004870 -0.117615 -0.003144
15.009000 3.978365 -0.727131
49.226822 13.301496 -1.183310
0.004870 -0.117615 -0.003144
0.004870 -0.117615 -0.003144
0.004870 -0.117615 -0.003144
0.004870 -0.117615 -0.003144
0.004870 -0.117615 -0.003144
0.004870 -0.117615 -0.003144
0.004870 -0.117615 -0.003144
0.004870 -0.117615 -0.003144
0.004870 -0.117615 -0.003144
0.435200 -0.001957 -0.267329
0.437726 -0.001434 -0.254878
0.473987 0.008195 -0.261308
3.446338 0.802812 -1.791332
3.667460 0.860610 -1.797136
3.923996 0.928425 -1.808699
4.158169 0.989410 -1.798067
4.468039 1.070363 -1.806157
4.799896 1.157834 -1.808575
5.154531 1.250276 -1.803015
5.574440 1.359775 -1.800610
6.057676 1.486867 -1.798097
6.624333 1.634648 -1.795057
7.289844 1.809510 -1.787934
8.134343 2.029929 -1.789614
8.431436 2.105338 -1.644306
0.004862 -0.117413 -0.003140
8.517738 2.164848 -1.241023
10.841096 2.783780 -1.312022
10.714613 2.746007 -1.036442
0.004862 -0.117413 -0.003140
0.004862 -0.117413 -0.003140
0.004862 -0.117413 -0.003140
0.004862 -0.117413 -0.003140
0.004862 -0.117413 -0.003140
0.004862 -0.117413 -0.003140
0.004862 -0.117413 -0.003140
70.207565 18.486931 6.778903
0.004862 -0.117413 -0.003140
0.004862 -0.117413 -0.003140
0.004862 -0.117413 -0.003140
0.004862 -0.117413 -0.003140
0.434187 -0.004666 -0.266304
0.448494 -0.001074 -0.260750
0.483235 0.007934 -0.265996
3.449838 0.782762 -1.790424
3.673007 0.839740 -1.797125
3.937197 0.907241 -1.811942
4.162686 0.965252 -1.797286
4.480204 1.046295 -1.808327
4.812818 1.131032 -1.810614
5.167811 1.222281 -1.804922
5.593932 1.330807 -1.804170
6.078218 1.454080 -1.801387
6.639894 1.598224 -1.796560
7.314301 1.769935 -1.791142
8.171545 1.988292 -1.794999
8.473003 2.062941 -1.649839
8.477341 2.103595 -1.441350
0.004854 -0.117211 -0.003135
10.842209 2.717621 -1.310144
0.004854 -0.117211 -0.003135
14.889329 3.765427 -1.077426
0.004854 -0.117211 -0.003135
15.006746 3.787947 -0.361674
0.004854 -0.117211 -0.003135
0.004854 -0.117211 -0.003135
0.004854 -0.117211 -0.003135
0.004854 -0.117211 -0.003135
69.859573 17.952791 6.734963
0.004854 -0.117211 -0.003135
0.004854 -0.117211 -0.003135
0.004854 -0.117211 -0.003135
0.004854 -0.117211 -0.003135
0.433175 -0.007436 -0.265279
0.449172 -0.003503 -0.260745
0.470255 0.001804 -0.258480
3.458557 0.763426 -1.792208
3.682118 0.819092 -1.798826
3.941236 0.884369 -1.811117
4.172592 0.941717 -1.798815
4.483403 1.019055 -1.806860
4.825374 1.104960 -1.812653
5.181163 1.193273 -1.806828
5.600556 1.297415 -1.803560
6.094618 1.421228 -1.803577
6.655567 1.560514 -1.798062
7.332589 1.729991 -1.792969
8.192999 1.943899 -1.797058
9.202120 2.194563 -1.788987
8.505630 2.057486 -1.443923
8.528419 2.061812 -1.238758
11.203367 2.741530 -1.351609
0.004846 -0.117013 -0.003131
14.965511 3.693791 -1.081297
14.907664 3.673646 -0.718855
0.004846 -0.117013 -0.003131
0.004846 -0.117013 -0.003131
0.004846 -0.117013 -0.003131
0.004846 -0.117013 -0.003131
69.510704 17.462263 5.016745
0.004846 -0.117013 -0.003131
0.004846 -0.117013 -0.003131
0.004846 -0.117013 -0.003131
0.004846 -0.117013 -0.003131
0.004846 -0.117013 -0.003131
0.445473 -0.006781 -0.272414
0.451506 -0.005437 -0.261720
0.479506 0.001463 -0.263169
3.465289 0.744191 -1.793095
3.692685 0.799447 -1.801381
3.945153 0.861485 -1.810292
4.183984 0.919276 -1.801116
4.498907 0.995732 -1.810485
4.832320 1.077431 -1.812640
5.184915 1.162790 -1.805535
5.610423 1.265880 -1.804141
6.105212 1.386856 -1.804113
6.674485 1.524767 -1.800578
7.348749 1.689433 -1.794335
8.217998 1.900263 -1.799949
9.251513 2.150750 -1.795999
0.004838 -0.116811 -0.003127
0.004838 -0.116811 -0.003127
11.244649 2.683551 -1.354597
14.973698 3.607215 -1.440799
15.037525 3.620442 -1.084889
15.010642 3.608332 -0.722730
0.004838 -0.116811 -0.003127
0.004838 -0.116811 -0.003127
0.004838 -0.116811 -0.003127
0.004838 -0.116811 -0.003127
0.004838 -0.116811 -0.003127
0.004838 -0.116811 -0.003127
0.004838 -0.116811 -0.003127
0.004838 -0.116811 -0.003127
0.004838 -0.116811 -0.003127
0.004838 -0.116811 -0.003127
0.437741 -0.011149 -0.267309
0.447024 -0.009042 -0.258775
0.483600 -0.000233 -0.265042
3.473653 0.725330 -1.794879
3.692640 0.777157 -1.798805
3.931180 0.834290 -1.801335
4.195257 0.896738 -1.803416
4.503408 0.969643 -1.809746
4.840936 1.050302 -1.813312
5.201393 1.135413 -1.808721
5.625703 1.235623 -1.806509
6.119368 1.353313 -1.805752
6.687562 1.487507 -1.801574
7.364669 1.648750 -1.795700
8.257984 1.860055 -1.806165
9.287337 2.103244 -1.800420
0.004830 -0.116609 -0.003122
12.563278 2.940246 -1.818410
0.004830 -0.116609 -0.003122
21.864803 5.188566 -2.099644
0.004830 -0.116609 -0.003122
15.472550 3.628945 -0.743805
59.678814 14.312097 -1.422765
0.004830 -0.116609 -0.003122
0.004830 -0.116609 -0.003122
0.004830 -0.116609 -0.003122
0.004830 -0.116609 -0.003122
57.546486 13.714096 5.523744
0.004830 -0.116609 -0.003122
0.004830 -0.116609 -0.003122
0.004830 -0.116609 -0.003122
0.004830 -0.116609 -0.003122
0.445046 -0.011922 -0.271384
0.454459 -0.009848 -0.262689
0.473960 -0.005306 -0.259404
3.476845 0.704566 -1.793971
3.658985 0.747005 -1.779972
3.675320 0.749549 -1.681768
4.204776 0.872955 -1.804946
4.505937 0.943117 -1.808278
4.851410 1.022706 -1.814666
5.210340 1.106161 -1.809348
5.642690 1.205678 -1.809474
6.133571 1.318592 -1.807389
6.702348 1.450594 -1.803078
7.384488 1.607549 -1.797988
8.250168 1.808337 -1.801990
9.338202 2.058975 -1.807801
10.593019 2.396394 -1.789955
12.590788 2.868302 -1.819773
15.685919 3.596656 -1.883209
21.901630 5.060580 -2.100156
0.004822 -0.116403 -0.003118
42.551758 9.920053 -2.037549
0.004822 -0.116403 -0.003118
0.004822 -0.116403 -0.003118
0.004822 -0.116403 -0.003118
0.004822 -0.116403 -0.003118
0.004822 -0.116403 -0.003118
57.770432 13.417369 5.537796
0.004822 -0.116403 -0.003118
0.004822 -0.116403 -0.003118
0.004822 -0.116403 -0.003118
0.004822 -0.116403 -0.003118
0.447284 -0.013786 -0.272399
0.463519 -0.010191 -0.267581
0.484875 -0.005335 -0.265031
3.488329 0.687007 -1.797550
3.619836 0.716049 -1.758574
3.671324 0.726592 -1.677691
3.879245 0.773711 -1.663131
4.528305 0.921178 -1.814812
4.861547 0.995864 -1.816021
5.220992 1.077264 -1.810615
5.648306 1.173021 -1.808863
6.137962 1.282686 -1.806272
6.722531 1.414849 -1.806099
7.405634 1.567889 -1.800735
8.272865 1.762270 -1.804465
9.364347 2.006902 -1.810371
10.626080 2.341985 -1.793173
12.621248 2.799227 -1.821694
15.729578 3.514754 -1.885959
21.970903 4.948043 -2.104013
0.004814 -0.116201 -0.003114
0.004814 -0.116201 -0.003114
0.004814 -0.116201 -0.003114
15.644907 3.470041 -0.001559
0.004814 -0.116201 -0.003114
0.004814 -0.116201 -0.003114
55.863960 12.642381 4.009128
57.641808 13.027804 5.518007
0.004814 -0.116201 -0.003114
0.004814 -0.116201 -0.003114
0.004814 -0.116201 -0.003114
0.004814 -0.116201 -0.003114
0.451217 -0.015451 -0.274433
0.452219 -0.015387 -0.260719
3.326781 0.630453 -1.813057
3.491249 0.666171 -1.796641
3.564742 0.681388 -1.729478
3.629762 0.695329 -1.656535
3.830414 0.738877 -1.640000
4.534359 0.894569 -1.814799
4.862332 0.966902 -1.813956
5.235361 1.048194 -1.813162
5.663303 1.141432 -1.811231
6.157152 1.250109 -1.809563
6.731492 1.375236 -1.806083
7.409491 1.524255 -1.799336
8.293069 1.717023 -1.806524
9.380229 1.954114 -1.811090
0.004806 -0.115999 -0.003109
12.655177 2.730768 -1.824171
15.768235 3.425673 -1.888011
0.004806 -0.115999 -0.003109
0.004806 -0.115999 -0.003109
0.004806 -0.115999 -0.003109
15.467314 3.338778 -0.369393
15.634040 3.373301 -0.001531
0.004806 -0.115999 -0.003109
0.004806 -0.115999 -0.003109
55.856514 12.303504 4.003502
0.004806 -0.115999 -0.003109
0.004806 -0.115999 -0.003109
0.004806 -0.115999 -0.003109
0.004806 -0.115999 -0.003109
0.004806 -0.115999 -0.003109
0.448423 -0.018554 -0.272388
0.459595 -0.016268 -0.264632
3.322385 0.609659 -1.808353
3.507935 0.648990 -1.802912
0.004798 -0.115797 -0.003105
3.607570 0.668846 -1.644325
3.831656 0.716289 -1.638448
4.540076 0.868714 -1.814787
4.877666 0.941154 -1.817363
5.245654 1.019111 -1.814428
5.676043 1.110293 -1.813004
6.168672 1.215730 -1.810651
6.753180 1.339598 -1.809611
7.443522 1.487194 -1.805310
8.313036 1.671606 -1.808584
9.405408 1.903274 -1.813660
10.698363 2.227974 -1.800579
12.679078 2.659898 -1.825257
15.312862 3.231243 -1.831199
15.324114 3.228234 -1.464400
15.486238 3.260929 -1.109533
15.490723 3.256389 -0.740610
15.537699 3.261078 -0.370563
0.004798 -0.115797 -0.003105
0.004798 -0.115797 -0.003105
0.004798 -0.115797 -0.003105
56.012760 12.000989 4.009752
57.047474 12.204508 5.447357
0.004798 -0.115797 -0.003105
0.004798 -0.115797 -0.003105
0.004798 -0.115797 -0.003105
0.004798 -0.115797 -0.003105
0.442250 -0.022338 -0.268304
0.458461 -0.019045 -0.263648
3.319586 0.589307 -1.804588
3.505265 0.627555 -1.799313
3.525902 0.630690 -1.706358
3.619303 0.649208 -1.647567
0.004790 -0.115595 -0.003101
4.541999 0.842057 -1.813320
4.882011 0.912088 -1.816667
5.255796 0.989949 -1.815694
5.690461 1.079445 -1.815372
6.183956 1.180982 -1.812839
6.761428 1.300984 -1.809595
7.456684 1.444104 -1.806214
8.325371 1.622966 -1.808979
9.432587 1.850972 -1.816599
10.746406 2.174071 -1.806389
12.681734 2.582091 -1.823283
15.205572 3.116536 -1.816105
15.366462 3.145277 -1.466596
15.611334 3.191709 -1.117022
15.564584 3.179099 -0.743182
15.609683 3.183098 -0.371779
0.004790 -0.115595 -0.003101
58.259628 12.167972 1.385230
55.412663 11.547961 2.643225
0.004790 -0.115595 -0.003101
56.706284 11.779944 5.408035
0.004790 -0.115595 -0.003101
87.499748 18.193930 12.569237
0.004790 -0.115595 -0.003101
0.004790 -0.115595 -0.003101
0.449503 -0.023339 -0.272378
0.457298 -0.021885 -0.262663
3.321978 0.569507 -1.803640
3.507852 0.606648 -1.798405
3.510775 0.606015 -1.696937
3.621828 0.628251 -1.646743
3.837471 0.671227 -1.636884
4.551241 0.816119 -1.814762
4.895195 0.885746 -1.819389
5.262237 0.959028 -1.815680
5.704923 1.047476 -1.817739
6.191309 1.145640 -1.812824
6.775399 1.262298 -1.811098
7.480786 1.404546 -1.809884
8.342905 1.576866 -1.810623
9.455307 1.799285 -1.818800
10.800356 2.119009 -1.813170
12.685402 2.506971 -1.821588
15.917027 3.169630 -1.898575
22.280077 4.475352 -2.122581
15.637899 3.103751 -1.117548
15.791244 3.129723 -0.753003
15.726872 3.110909 -0.374058
0.004782 -0.115393 -0.003096
0.004782 -0.115393 -0.003096
55.604095 11.244965 2.649212
0.004782 -0.115393 -0.003096
0.004782 -0.115393 -0.003096
0.004782 -0.115393 -0.003096
86.708824 17.508987 12.440982
0.004782 -0.115393 -0.003096
0.004782 -0.115393 -0.003096
0.444955 -0.026712 -0.269313
0.456100 -0.024631 -0.261678
3.334503 0.552366 -1.808323
3.503179 0.584948 -1.793909
3.507761 0.584636 -1.693504
3.642180 0.610866 -1.654052
3.850971 0.651189 -1.640726
4.556534 0.790170 -1.814750
4.902697 0.858183 -1.820060
5.275761 0.930464 -1.818227
5.711492 1.014891 -1.817725
6.207898 1.112122 -1.815565
6.786976 1.224306 -1.812093
7.489387 1.361745 -1.809866
8.365915 1.531754 -1.813513
9.471948 1.746269 -1.819890
10.853641 2.065284 -1.819951
12.715781 2.437353 -1.823786
15.968762 3.084944 -1.902483
22.327583 4.351723 -2.124579
15.640518 3.010903 -1.116403
15.821398 3.041467 -0.753529
0.004774 -0.115195 -0.003092
0.004774 -0.115195 -0.003092
0.004774 -0.115195 -0.003092
0.004774 -0.115195 -0.003092
54.898186 10.763113 3.916029
0.004774 -0.115195 -0.003092
0.004774 -0.115195 -0.003092
86.015907 16.854059 12.327486
0.004774 -0.115195 -0.003092
0.004774 -0.115195 -0.003092
0.447137 -0.028712 -0.270328
0.458317 -0.026691 -0.262652
3.336568 0.533080 -1.807375
3.493083 0.562304 -1.786720
3.509955 0.564345 -1.692639
0.004766 -0.114993 -0.003088
3.867995 0.631718 -1.646110
4.570790 0.765955 -1.818374
4.910205 0.829713 -1.820730
5.289137 0.901783 -1.820774
5.721657 0.982990 -1.818902
6.213165 1.075202 -1.814999
6.805972 1.187682 -1.815115
7.509494 1.319785 -1.812615
8.387036 1.484602 -1.815987
9.500164 1.693674 -1.823198
10.898928 2.009505 -1.825436
12.746231 2.365249 -1.825984
16.037571 3.003182 -1.908475
22.376337 4.228084 -2.126762
15.690064 2.924510 -1.118598
40.070614 7.642070 -1.901839
40.443535 7.699987 -0.954912
0.004766 -0.114993 -0.003088
0.004766 -0.114993 -0.003088
0.004766 -0.114993 -0.003088
54.675606 10.383054 3.895732
0.004766 -0.114993 -0.003088
0.004766 -0.114993 -0.003088
85.327057 16.193914 12.214830
0.004766 -0.114993 -0.003088
0.004766 -0.114993 -0.003088
0.445941 -0.031451 -0.269302
0.460537 -0.028855 -0.263627
3.349002 0.515171 -1.812057
3.504050 0.543152 -1.790298
3.504905 0.542716 -1.688351
3.646806 0.568092 -1.652404
3.883232 0.611061 -1.650722
4.540987 0.733388 -1.804544
4.913726 0.801355 -1.820034
5.293019 0.871241 -1.820120
5.733500 0.951357 -1.820674
6.227445 1.041098 -1.817187
6.819054 1.149825 -1.816618
7.523355 1.277887 -1.813980
8.399670 1.438769 -1.816800
9.517824 1.642346 -1.824659
10.936532 1.949903 -1.829625
12.777799 2.295471 -1.828461
0.004758 -0.114791 -0.003084
22.438866 4.102692 -2.130244
10.665923 1.887614 -0.760436
0.004758 -0.114791 -0.003084
40.501556 7.470171 -0.955161
0.004758 -0.114791 -0.003084
60.148052 11.107522 1.424048
51.498409 9.484713 2.445379
0.004758 -0.114791 -0.003084
59.550968 10.954666 5.654158
0.004758 -0.114791 -0.003084
84.574196 15.546842 12.094088
45.582932 8.318131 7.617451
0.004758 -0.114791 -0.003084
0.449782 -0.033089 -0.271337
0.459306 -0.031507 -0.262643
3.345506 0.495453 -1.808292
3.486560 0.519992 -1.779521
3.510399 0.523110 -1.689196
3.666840 0.550286 -1.659713
3.874488 0.587329 -1.645316
0.004750 -0.114589 -0.003079
4.928138 0.774994 -1.823440
5.302321 0.841699 -1.821387
5.733887 0.917597 -1.818873
6.239655 1.006532 -1.818825
6.833818 1.112202 -1.818627
7.538869 1.236214 -1.815806
8.420285 1.391288 -1.819275
9.545479 1.589281 -1.827968
10.957582 1.890918 -1.831223
0.004750 -0.114589 -0.003079
16.107531 2.825474 -1.912582
10.691675 1.832883 -1.015332
0.004750 -0.114589 -0.003079
0.004750 -0.114589 -0.003079
40.721531 7.269561 -0.959243
0.004750 -0.114589 -0.003079
0.004750 -0.114589 -0.003079
51.452469 9.170646 2.440710
0.004750 -0.114589 -0.003079
57.010754 10.133707 5.407069
0.004750 -0.114589 -0.003079
83.923958 14.928184 11.988662
0.004750 -0.114589 -0.003079
0.004750 -0.114589 -0.003079
0.441788 -0.037025 -0.266233
0.468361 -0.032484 -0.267535
3.350801 0.476162 -1.809221
3.484984 0.498631 -1.776820
3.490965 0.498467 -1.678064
3.667120 0.528155 -1.658076
3.885842 0.565872 -1.648387
4.174354 0.614980 -1.655429
4.929627 0.745375 -1.822059
5.309745 0.810833 -1.822013
5.749280 0.885481 -1.821835
6.259449 0.972087 -1.822667
6.850499 1.073588 -1.821142
7.552487 1.192764 -1.817170
8.432894 1.342284 -1.820085
9.557317 1.533278 -1.828315
10.971194 1.826554 -1.831522
0.004742 -0.114387 -0.003075
10.656802 1.765351 -1.264857
0.004742 -0.114387 -0.003075
0.004742 -0.114387 -0.003075
0.004742 -0.114387 -0.003075
40.849243 7.043304 -0.961151
0.004742 -0.114387 -0.003075
0.004742 -0.114387 -0.003075
51.433727 8.853252 2.437353
0.004742 -0.114387 -0.003075
57.184235 9.815836 5.417966
0.004742 -0.114387 -0.003075
0.004742 -0.114387 -0.003075
0.004742 -0.114387 -0.003075
0.004742 -0.114387 -0.003075
0.440528 -0.039705 -0.265207
0.461964 -0.036201 -0.263612
3.355976 0.456833 -1.810149
3.493830 0.479109 -1.779500
3.490961 0.477407 -1.676342
3.672649 0.506957 -1.658878
3.887993 0.542767 -1.647606
4.162037 0.587679 -1.648871
4.940185 0.717326 -1.824097
5.318876 0.780227 -1.823279
5.758886 0.852275 -1.823013
6.263871 0.934905 -1.822100
6.859306 1.033538 -1.821631
7.585062 1.152407 -1.823144
8.441376 1.292540 -1.820066
9.580489 1.479128 -1.830885
0.004734 -0.114185 -0.003071
10.541715 1.682755 -1.504089
0.004734 -0.114185 -0.003071
0.004734 -0.114185 -0.003071
10.654241 1.692662 -0.757162
10.680753 1.695335 -0.506800
0.004734 -0.114185 -0.003071
0.004734 -0.114185 -0.003071
58.571747 9.761538 1.382677
51.314537 8.519835 2.429325
0.004734 -0.114185 -0.003071
0.004734 -0.114185 -0.003071
0.004734 -0.114185 -0.003071
82.554947 13.675947 11.769183
0.004734 -0.114185 -0.003071
0.004734 -0.114185 -0.003071
0.440957 -0.042003 -0.265203
0.467541 -0.037777 -0.266545
3.352224 0.436619 -1.806384
3.468949 0.454615 -1.765135
3.481712 0.456125 -1.670344
3.681468 0.487596 -1.661307
3.882579 0.519152 -1.643741
4.160391 0.563804 -1.646679
4.957707 0.692123 -1.828871
5.340609 0.753538 -1.829026
5.777349 0.822533 -1.827166
6.277208 0.901436 -1.824289
6.871317 0.996448 -1.823134
7.586234 1.109413 -1.821745
8.456569 1.248421 -1.821711
9.598660 1.429170 -1.832716
10.502385 1.617883 -1.749823
10.543738 1.622913 -1.502954
10.576062 1.624543 -1.252760
10.620122 1.628075 -1.005427
10.660206 1.632836 -0.756861
10.728414 1.640270 -0.508542
0.004726 -0.113979 -0.003066
0.004726 -0.113979 -0.003066
0.004726 -0.113979 -0.003066
57.060741 9.160251 2.699339
50.637341 8.098454 3.589777
53.652500 8.578358 5.073670
0.004726 -0.113979 -0.003066
81.883606 13.095320 11.662910
0.004726 -0.113979 -0.003066
0.004726 -0.113979 -0.003066
0.451541 -0.042609 -0.271318
0.469668 -0.039883 -0.267519
3.355230 0.418154 -1.806374
3.484441 0.437455 -1.771406
3.481374 0.435766 -1.668624
3.674005 0.464943 -1.656416
3.876920 0.496295 -1.639877
4.164188 0.540108 -1.646666
4.962269 0.663840 -1.828858
5.334258 0.721289 -1.825172
5.782650 0.789536 -1.827153
6.284825 0.865859 -1.824825
6.885245 0.958350 -1.825143
7.589293 1.065416 -1.820805
8.464477 1.198536 -1.821691
9.609565 1.372820 -1.833064
10.494320 1.556751 -1.746885
13.035762 1.956938 -1.855860
10.807303 1.600985 -1.278923
10.672927 1.575934 -1.009486
10.691750 1.575181 -0.758371
10.761703 1.584410 -0.509635
10.747339 1.578390 -0.254270
0.004718 -0.113777 -0.003062
59.560768 9.236516 1.403695
51.620182 7.971831 2.439503
50.520092 7.781877 3.578271
51.812191 7.965764 4.895009
51.458523 7.901859 6.092875
0.004718 -0.113777 -0.003062
0.004718 -0.113777 -0.003062
0.004718 -0.113777 -0.003062
0.446835 -0.045841 -0.268252
0.456305 -0.044544 -0.259678
3.351346 0.397435 -1.802609
3.473486 0.414885 -1.764217
3.482758 0.415092 -1.667757
3.677292 0.444041 -1.656406
3.876816 0.472997 -1.638325
4.167984 0.515659 -1.646654
4.964791 0.635252 -1.828161
5.355986 0.692450 -1.830918
5.786011 0.755213 -1.826542
6.297970 0.831088 -1.827014
6.899104 0.918928 -1.827150
7.597859 1.022285 -1.821248
8.477685 1.150953 -1.822918
9.629600 1.319520 -1.835263
11.061954 1.580260 -1.839527
13.078754 1.886992 -1.860282
0.004710 -0.113575 -0.003058
10.755601 1.524014 -1.016329
10.746633 1.520822 -0.761551
10.779482 1.522067 -0.509983
15.772617 2.274548 -0.371412
0.004710 -0.113575 -0.003058
0.004710 -0.113575 -0.003058
80.045830 11.939659 3.781379
50.870430 7.537554 3.600026
0.004710 -0.113575 -0.003058
51.782074 7.638623 6.125761
0.004710 -0.113575 -0.003058
0.004710 -0.113575 -0.003058
0.004710 -0.113575 -0.003058
0.450622 -0.047679 -0.270288
0.468756 -0.045165 -0.266529
3.357706 0.378902 -1.804476
3.471143 0.394361 -1.761514
3.482174 0.394770 -1.666036
3.676811 0.422594 -1.654769
3.889243 0.452260 -1.642166
4.171538 0.491919 -1.646643
4.974594 0.607736 -1.830200
5.358628 0.661604 -1.830264
5.794671 0.722714 -1.827718
6.307089 0.795645 -1.828101
6.906837 0.879753 -1.827640
7.602327 0.978542 -1.820770
8.486764 1.102705 -1.823315
9.649365 1.266040 -1.837463
11.093005 1.520037 -1.843068
13.101784 1.813733 -1.861923
0.004703 -0.113377 -0.003053
15.919271 2.217227 -1.501686
10.921665 1.483501 -0.773226
10.905320 1.477322 -0.515442
0.004703 -0.113377 -0.003053
0.004703 -0.113377 -0.003053
0.004703 -0.113377 -0.003053
53.425240 7.617331 2.520684
51.112999 7.274050 3.614234
53.442894 7.592246 5.040671
0.004703 -0.113377 -0.003053
0.004703 -0.113377 -0.003053
0.004703 -0.113377 -0.003053
0.004703 -0.113377 -0.003053
0.452687 -0.049802 -0.271302
0.453596 -0.049826 -0.257709
3.358819 0.358991 -1.803527
3.470467 0.374128 -1.759710
3.481436 0.374471 -1.664314
3.676293 0.400531 -1.653131
3.898021 0.430209 -1.644467
4.176797 0.468417 -1.647359
4.984344 0.579266 -1.832238
5.363137 0.630084 -1.830250
5.807069 0.689652 -1.830085
6.316163 0.759028 -1.829187
6.924098 0.840643 -1.830661
7.612687 0.932928 -1.821672
8.497894 1.051696 -1.824126
9.667092 1.210424 -1.839291
11.111953 1.457852 -1.844663
13.134554 1.739370 -1.864954
10.876830 1.418978 -1.283719
10.949211 1.425378 -1.032795
10.942777 1.420675 -0.774037
15.839212 2.101807 -0.746699
0.004695 -0.113175 -0.003049
0.004695 -0.113175 -0.003049
0.004695 -0.113175 -0.003049
78.813629 10.815415 3.717124
54.489769 7.433157 3.850105
79.105675 10.815072 7.456739
0.004695 -0.113175 -0.003049
79.391251 10.799438 11.269027
0.004695 -0.113175 -0.003049
0.004695 -0.113175 -0.003049
0.447919 -0.053024 -0.268236
0.459153 -0.051663 -0.260642
3.366812 0.340027 -1.806333
3.471598 0.352950 -1.758802
3.484274 0.354071 -1.664304
3.673829 0.378248 -1.650680
3.890189 0.405875 -1.639832
4.183854 0.444390 -1.648801
4.982758 0.549218 -1.830173
5.369195 0.599718 -1.830877
5.815369 0.656986 -1.831262
6.328846 0.722837 -1.831375
6.940983 0.802573 -1.833683
7.622455 0.889884 -1.822578
8.506186 1.004792 -1.824523
9.680374 1.155825 -1.840379
11.135022 1.392146 -1.846907
13.168844 1.664951 -1.868263
10.876105 1.351531 -1.282535
0.004656 -0.112974 -0.003044
0.004656 -0.112974 -0.003044
15.947106 2.020902 -0.751126
52.687847 6.929701 -1.230444
53.160275 6.974425 0.003646
0.004656 -0.112974 -0.003044
0.004656 -0.112974 -0.003044
50.186218 6.534617 3.543011
51.359612 6.681382 4.836420
0.004656 -0.112974 -0.003044
0.004656 -0.112974 -0.003044
0.004656 -0.112974 -0.003044
79.030304 10.246818 15.023912
0.451676 -0.054852 -0.270272
3.229935 0.304033 -1.829730
3.369270 0.321479 -1.806323
3.481243 0.334735 -1.762381
3.485083 0.334031 -1.663438
3.678303 0.358223 -1.651482
3.903996 0.385815 -1.644445
4.190669 0.421029 -1.650244
4.991983 0.522373 -1.832212
5.373180 0.569071 -1.830862
5.829169 0.624972 -1.834225
6.342942 0.688985 -1.834116
6.944199 0.762641 -1.833160
7.641419 0.849310 -1.825786
8.531854 0.958545 -1.828659
9.703109 1.102340 -1.843319
11.156947 1.332062 -1.849152
13.190312 1.593274 -1.869905
0.004648 -0.112772 -0.003039
22.797184 2.820488 -2.144089
0.004648 -0.112772 -0.003039
47.411152 5.963744 -2.225836
51.351048 6.450981 -1.198307
0.004648 -0.112772 -0.003039
52.960659 6.629471 1.243127
0.004648 -0.112772 -0.003039
50.147293 6.245465 3.537788
0.004648 -0.112772 -0.003039
0.004648 -0.112772 -0.003039
0.004648 -0.112772 -0.003039
0.004648 -0.112772 -0.003039
0.004648 -0.112772 -0.003039
0.453680 -0.057011 -0.271286
3.220172 0.284191 -1.822864
3.369963 0.302116 -1.805374
3.474887 0.313855 -1.757885
3.482214 0.313559 -1.660861
3.686480 0.337324 -1.653912
3.904959 0.363370 -1.643663
4.193678 0.397160 -1.650233
5.004972 0.494158 -1.835617
5.384552 0.539311 -1.833409
5.840897 0.592598 -1.836593
6.343742 0.651169 -1.832997
6.958707 0.724093 -1.835674
7.643103 0.803800 -1.824845
8.541929 0.908685 -1.829470
9.714017 1.045542 -1.844036
11.176811 1.269582 -1.851072
13.213969 1.517042 -1.871824
16.698404 1.944103 -1.964848
22.829458 2.691560 -2.145528
40.562035 4.856065 -2.855033
47.141891 5.654210 -2.211533
51.074326 6.117650 -1.190918
0.004640 -0.112570 -0.003035
76.997482 9.240540 1.807610
53.617737 6.381833 2.522387
50.130573 5.942094 3.534110
0.004640 -0.112570 -0.003035
0.004640 -0.112570 -0.003035
0.004640 -0.112570 -0.003035
0.004640 -0.112570 -0.003035
0.004640 -0.112570 -0.003035
0.459111 -0.058865 -0.274341
3.218974 0.264934 -1.820894
3.377596 0.282997 -1.808179
3.461354 0.291626 -1.749800
3.481014 0.293345 -1.659140
3.687180 0.316143 -1.653087
3.918707 0.341738 -1.648275
4.196535 0.373270 -1.650221
5.000910 0.464743 -1.832869
5.390066 0.508794 -1.834035
5.848658 0.559674 -1.837770
6.359481 0.616230 -1.836288
6.971108 0.685187 -1.837683
7.654046 0.760738 -1.826210
8.549438 0.861506 -1.829867
9.728140 0.992494 -1.845496
11.194582 1.204739 -1.852666
13.236870 1.442900 -1.873743
16.751728 1.850246 -1.969679
22.950481 2.568767 -2.155315
40.262924 4.584884 -2.831980
47.143459 5.371418 -2.209956
50.789520 5.787027 -1.183391
0.004632 -0.112368 -0.003031
76.459633 8.716194 1.793843
0.004632 -0.112368 -0.003031
50.206150 5.658827 3.537138
51.184216 5.762652 4.809914
51.753105 5.810104 6.094941
0.004632 -0.112368 -0.003031
77.245026 8.687963 12.779632
0.004632 -0.112368 -0.003031
0.461115 -0.061006 -0.275356
3.215817 0.246632 -1.817946
3.386761 0.265172 -1.811924
3.463558 0.272556 -1.749790
3.474279 0.272558 -1.654852
3.687758 0.294965 -1.652263
3.926680 0.320725 -1.650576
4.199240 0.349367 -1.650209
5.005999 0.436418 -1.833540
5.399215 0.478647 -1.835942
5.858102 0.526893 -1.839541
6.369293 0.580515 -1.837925
6.981342 0.645957 -1.839186
7.664748 0.717581 -1.827576
8.566728 0.812340 -1.832341
9.746241 0.936345 -1.847695
11.217457 1.144307 -1.855236
13.257384 1.368332 -1.875383
16.792015 1.760371 -1.973122
23.190720 2.466117 -2.176422
39.968021 4.317972 -2.809347
50.419930 5.468139 -2.361770
50.784813 5.491024 -1.182420
0.004624 -0.112166 -0.003026
75.859711 8.218930 1.778757
52.997711 5.689754 2.490071
0.004624 -0.112166 -0.003026
51.815960 5.524652 4.866196
52.017334 5.537826 6.122246
0.004624 -0.112166 -0.003026
76.654175 8.161245 12.673664
0.004624 -0.112166 -0.003026
0.464823 -0.063145 -0.277391
3.217890 0.227810 -1.817936
3.388935 0.245338 -1.811913
0.004616 -0.111968 -0.003022
0.004616 -0.111968 -0.003022
3.691865 0.274181 -1.653066
3.927339 0.297496 -1.649795
4.203743 0.324911 -1.650924
5.018412 0.408833 -1.836945
5.408254 0.447469 -1.837847
5.863678 0.492608 -1.840122
6.376997 0.544513 -1.839012
6.993404 0.605612 -1.841194
7.679070 0.674728 -1.829862
8.575776 0.763705 -1.833152
9.765787 0.881923 -1.850263
11.242342 1.079945 -1.858126
13.267639 1.292531 -1.875634
16.822584 1.663195 -1.975404
23.292700 2.338106 -2.184538
39.703144 4.057938 -2.788943
50.028862 5.125321 -2.341886
50.353771 5.141999 -1.171570
0.004616 -0.111968 -0.003022
75.313072 7.707944 1.764940
0.004616 -0.111968 -0.003022
51.799248 5.239779 3.645092
0.004616 -0.111968 -0.003022
52.188187 5.244045 6.138625
0.004616 -0.111968 -0.003022
76.089851 7.658325 12.572881
0.004616 -0.111968 -0.003022
0.459953 -0.066108 -0.274326
3.221516 0.209708 -1.818906
3.394455 0.226428 -1.813781
0.004609 -0.111766 -0.003018
0.004609 -0.111766 -0.003018
3.704923 0.254259 -1.657935
3.944300 0.276591 -1.655948
4.204344 0.300784 -1.650186
5.028785 0.380936 -1.839667
5.413255 0.416783 -1.838473
5.872761 0.459675 -1.841894
6.390244 0.509000 -1.841752
7.010875 0.566933 -1.844720
7.677644 0.630238 -1.828462
8.590412 0.715558 -1.835211
9.777205 0.826560 -1.851352
11.260800 1.016711 -1.860046
13.285341 1.217453 -1.876996
16.925417 1.575956 -1.986260
0.004609 -0.111766 -0.003018
39.402813 3.797749 -2.766171
43.151333 4.154875 -2.019070
50.020977 4.816993 -1.163077
0.004609 -0.111766 -0.003018
74.863281 7.226722 1.753497
53.924728 5.155548 2.530822
52.025723 4.961314 3.659027
0.004609 -0.111766 -0.003018
52.168659 4.939387 6.132907
0.004609 -0.111766 -0.003018
75.555687 7.165382 12.477615
0.004609 -0.111766 -0.003018
0.461931 -0.068356 -0.275341
3.216374 0.190764 -1.814978
3.391048 0.206646 -1.810954
3.446561 0.210691 -1.738094
3.467855 0.211499 -1.648833
3.707020 0.232543 -1.657924
3.944629 0.253972 -1.655166
4.208483 0.277013 -1.650901
5.029763 0.351203 -1.838971
5.421864 0.386413 -1.840379
5.879737 0.426488 -1.843070
6.393776 0.471373 -1.841735
7.010798 0.526503 -1.843691
7.701289 0.586745 -1.833052
8.604900 0.665778 -1.837269
9.796282 0.770103 -1.853920
11.294603 0.954792 -1.864558
13.308774 1.140463 -1.879193
16.962505 1.481469 -1.989469
9.426461 0.770296 -0.884566
0.004600 -0.111560 -0.003013
0.004600 -0.111560 -0.003013
43.779049 3.948169 -1.017666
0.004600 -0.111560 -0.003013
53.236122 4.798027 1.245443
53.259785 4.781917 2.498309
52.299221 4.675689 3.676319
0.004600 -0.111560 -0.003013
74.750847 6.692814 8.784586
0.004600 -0.111560 -0.003013
75.001877 6.664171 12.379428
0.004600 -0.111560 -0.003013
0.470735 -0.070106 -0.280436
3.225060 0.172551 -1.818886
3.396380 0.187094 -1.812821
3.450207 0.190655 -1.738982
3.467887 0.191024 -1.647966
3.698005 0.210505 -1.653033
3.955898 0.231627 -1.659007
4.212562 0.252468 -1.651616
5.032324 0.322513 -1.838957
5.430391 0.355004 -1.842286
5.886636 0.392209 -1.844246
6.404705 0.435495 -1.843925
7.022170 0.485853 -1.845699
7.707104 0.542857 -1.833495
8.626763 0.618011 -1.840989
9.691496 0.704762 -1.833176
11.308581 0.888799 -1.865829
13.363080 1.068345 -1.885839
16.997360 1.383463 -1.992445
0.004592 -0.111358 -0.003009
0.004592 -0.111358 -0.003009
0.004592 -0.111358 -0.003009
49.672714 4.198397 -1.153569
0.004592 -0.111358 -0.003009
73.742599 6.249318 1.725614
0.004592 -0.111358 -0.003009
0.004592 -0.111358 -0.003009
0.004592 -0.111358 -0.003009
74.231659 6.202686 8.719141
74.247818 6.191642 10.479321
74.475174 6.185406 12.286429
74.552490 6.166388 14.103068
0.489819 -0.071026 -0.291650
3.223132 0.153949 -1.816916
3.401568 0.168084 -1.814688
3.446531 0.170609 -1.736280
3.474985 0.171755 -1.650523
3.714361 0.190654 -1.659528
3.954124 0.208814 -1.657454
4.203428 0.227574 -1.647241
5.045974 0.294711 -1.843047
5.432984 0.324012 -1.842272
5.895117 0.359042 -1.846017
6.417322 0.399660 -1.846664
7.031260 0.446161 -1.847201
7.708780 0.498615 -1.833016
8.628865 0.568482 -1.840555
9.647042 0.645421 -1.823904
9.715058 0.691781 -1.602421
13.393315 0.993690 -1.889147
0.004584 -0.111156 -0.003005
9.473805 0.663758 -0.888048
9.529656 0.666734 -0.669933
0.004584 -0.111156 -0.003005
49.698650 3.913169 -1.153523
0.004584 -0.111156 -0.003005
73.227859 5.781259 1.712858
52.598351 4.103135 2.464960
73.455505 5.762118 5.160007
0.004584 -0.111156 -0.003005
73.688507 5.730239 8.651361
73.737869 5.721836 10.402555
73.953346 5.713547 12.194724
74.038696 5.694911 13.999442
0.505455 -0.072425 -0.300824
3.224603 0.135645 -1.816907
3.399585 0.148485 -1.812800
3.442730 0.150612 -1.733578
3.474748 0.151865 -1.649657
3.716064 0.168877 -1.659517
3.944846 0.185474 -1.652820
4.214589 0.204330 -1.650865
5.048269 0.265044 -1.843033
5.439155 0.293282 -1.843537
5.897726 0.325378 -1.846003
6.420219 0.361871 -1.846648
7.045934 0.406813 -1.850222
7.727786 0.454309 -1.836684
8.646383 0.518587 -1.843443
9.322024 0.564617 -1.761719
0.004576 -0.110954 -0.003001
0.004576 -0.110954 -0.003001
0.004576 -0.110954 -0.003001
9.432430 0.606037 -0.883761
9.494278 0.607492 -0.667125
9.523168 0.608088 -0.446796
0.004576 -0.110954 -0.003001
0.004576 -0.110954 -0.003001
0.004576 -0.110954 -0.003001
48.923931 3.526011 2.291612
48.817097 3.501346 3.426654
0.004576 -0.110954 -0.003001
73.185928 5.267450 8.588696
73.216064 5.244599 10.324399
73.429497 5.235078 12.103024
73.490593 5.227274 13.889884
0.515974 -0.074462 -0.306939
3.229497 0.117014 -1.818856
3.406348 0.128945 -1.815606
3.446010 0.130570 -1.734465
3.472592 0.131862 -1.647936
3.719447 0.147866 -1.660320
3.939190 0.161823 -1.649727
4.188444 0.178401 -1.639945
5.050345 0.236247 -1.843019
5.441383 0.262233 -1.843524
5.911570 0.292476 -1.849561
6.434316 0.325966 -1.849938
7.052643 0.366789 -1.851217
7.734778 0.410365 -1.837588
8.657554 0.471133 -1.845086
9.282504 0.509989 -1.753559
9.316243 0.549882 -1.535318
9.329576 0.549271 -1.315449
9.387583 0.550170 -1.099951
9.484189 0.553727 -0.888192
9.494257 0.552850 -0.666826
9.557141 0.553977 -0.448167
0.004569 -0.110753 -0.002996
49.570473 3.313127 0.004164
49.478317 3.289825 1.155506
52.695107 3.502140 2.467585
0.004569 -0.110753 -0.002996
48.701309 3.203500 4.557806
0.004569 -0.110753 -0.002996
0.004569 -0.110753 -0.002996
0.004569 -0.110753 -0.002996
0.004569 -0.110753 -0.002996
0.004561 -0.110551 -0.002992
3.223746 0.098784 -1.814928
3.411150 0.110412 -1.817473
3.441938 0.111242 -1.731763
3.479328 0.112472 -1.650491
3.724507 0.126942 -1.661935
3.936954 0.139855 -1.648174
4.193772 0.154783 -1.641389
5.039126 0.206609 -1.838220
5.441532 0.231060 -1.842869
5.909958 0.258477 -1.848355
6.438644 0.289316 -1.850473
7.057207 0.326589 -1.851707
7.753192 0.367083 -1.841257
8.676470 0.421033 -1.848390
9.851013 0.489664 -1.860102
9.307977 0.497397 -1.533354
9.327281 0.495473 -1.314595
9.422835 0.500113 -1.103638
9.527480 0.503643 -0.891881
9.509863 0.499256 -0.667640
9.618505 0.504622 -0.450840
0.004561 -0.110551 -0.002992
0.004561 -0.110551 -0.002992
71.752083 4.419353 1.676589
50.422020 3.055399 2.360204
0.004561 -0.110551 -0.002992
0.004561 -0.110551 -0.002992
72.180214 4.360302 8.464294
0.004561 -0.110551 -0.002992
0.004561 -0.110551 -0.002992
0.004561 -0.110551 -0.002992
0.004553 -0.110349 -0.002988
3.228398 0.080121 -1.816877
3.408855 0.090224 -1.815585
3.443178 0.091080 -1.731752
3.476982 0.091877 -1.648770
3.723989 0.105648 -1.661111
3.918077 0.115592 -1.639686
4.208265 0.130912 -1.646466
4.611167 0.153274 -1.681625
5.454815 0.199697 -1.846695
5.919657 0.224125 -1.850722
6.448522 0.252958 -1.852662
7.059676 0.285010 -1.851690
7.759702 0.322951 -1.842161
8.693061 0.372132 -1.851280
9.862137 0.433688 -1.861560
11.411542 0.567235 -1.878664
13.494393 0.688712 -1.900157
9.662273 0.458418 -1.131184
9.576666 0.450108 -0.896125
9.563002 0.447712 -0.671100
9.681795 0.451340 -0.453604
9.608023 0.443777 -0.224902
0.004553 -0.110349 -0.002988
71.310547 3.967790 1.665792
0.004553 -0.110349 -0.002988
71.466324 3.940365 5.012769
48.396664 2.616156 4.526170
71.719482 3.905706 8.407443
0.004553 -0.110349 -0.002988
3.770128 0.098609 0.617196
3.729172 0.095065 0.700403
3.079637 0.054841 -1.828658
3.225947 0.061601 -1.814908
3.417028 0.071230 -1.819330
3.438913 0.071226 -1.729050
3.478083 0.072115 -1.648760
3.734324 0.084296 -1.665166
3.913786 0.093004 -1.637363
4.205869 0.106756 -1.645001
4.558192 0.123392 -1.661783
5.456497 0.168562 -1.846681
5.919577 0.190221 -1.850112
6.450540 0.214985 -1.852645
7.077286 0.245424 -1.855723
7.769895 0.277599 -1.843986
8.703575 0.321250 -1.852922
9.876966 0.376073 -1.863758
11.431005 0.502697 -1.881231
13.485052 0.608262 -1.898182
17.187733 0.802726 -2.009614
10.025165 0.418783 -0.937653
9.789289 0.402992 -0.686670
9.750709 0.399343 -0.456647
9.654975 0.391044 -0.225896
49.918175 2.465052 0.004487
70.801643 3.530699 1.653495
0.004545 -0.110150 -0.002983
70.974991 3.491134 4.976832
49.738480 2.396534 4.650379
71.223541 3.467569 8.346868
0.004545 -0.110150 -0.002983
0.004545 -0.110150 -0.002983
0.004545 -0.110150 -0.002983
3.104598 0.037977 -1.842926
3.226921 0.042721 -1.814898
3.412724 0.050966 -1.816503
3.436375 0.050919 -1.727246
3.482660 0.052515 -1.650459
3.731702 0.062883 -1.663528
3.913062 0.069962 -1.636581
4.193999 0.082202 -1.639898
0.004537 -0.109948 -0.002979
5.467485 0.137849 -1.849867
