# This PCD file was generated using the MATLAB® pcwrite function
# from Computer Vision Toolbox®.
# .PCD v.7 - Point Cloud Data file format
VERSION .7
FIELDS x y z
SIZE 4 4 4
TYPE F F F
COUNT 1 1 1
WIDTH 1633
HEIGHT 1
VIEWPOINT 0 0 0 1 0 0 0
POINTS 1633
DATA ascii
48.261517 -19.700583 2.444381
48.830185 -19.941374 3.701061
48.131073 -19.676632 4.862766
5.117653 -2.178092 0.644939
48.298977 -19.774090 7.344775
47.613266 -19.513903 8.462891
0.005222 -0.095966 -0.002520
2.896453 -1.280583 -1.854101
3.051492 -1.345344 -1.851019
3.232309 -1.420160 -1.855733
3.396733 -1.489005 -1.841807
3.398014 -1.490911 -1.737396
3.518596 -1.541197 -1.692423
3.787257 -1.653248 -1.709308
4.096476 -1.782243 -1.728758
4.411871 -1.913145 -1.735606
4.709990 -2.037992 -1.720438
5.652211 -2.429244 -1.906818
6.208189 -2.660239 -1.924712
6.858330 -2.931800 -1.941396
7.559610 -3.223529 -1.936869
8.494427 -3.614012 -1.952484
9.732790 -4.131182 -1.982991
11.325603 -4.736436 -2.008293
13.538173 -5.646161 -2.053089
17.347969 -7.215714 -2.185047
24.816250 -10.291812 -2.495830
0.005218 -0.095768 -0.002515
0.005218 -0.095768 -0.002515
0.005218 -0.095768 -0.002515
0.005218 -0.095768 -0.002515
66.234299 -27.419519 1.685430
48.548775 -20.142769 2.464760
47.343487 -19.654535 3.596768
47.992020 -19.941942 4.860169
5.065225 -2.190515 0.639819
47.416630 -19.732735 7.227598
46.345142 -19.307739 8.256906
0.005218 -0.095768 -0.002515
2.888011 -1.296309 -1.853076
3.044261 -1.362621 -1.851014
3.223010 -1.437790 -1.854789
3.408452 -1.516526 -1.852562
3.411626 -1.519238 -1.748506
3.510247 -1.561155 -1.692418
3.790147 -1.679731 -1.714693
4.098735 -1.810557 -1.733840
4.392677 -1.934594 -1.732183
4.705737 -2.067716 -1.722991
5.643970 -2.463662 -1.908597
6.193341 -2.695627 -1.924706
6.836568 -2.968667 -1.939873
7.545093 -3.268182 -1.937783
8.490303 -3.669354 -1.956215
9.713077 -4.188322 -1.983724
11.313344 -4.807262 -2.010875
13.506051 -5.723610 -2.053082
17.319590 -7.320379 -2.186657
24.793999 -10.449326 -2.499522
0.005215 -0.095566 -0.002510
0.005215 -0.095566 -0.002510
0.005215 -0.095566 -0.002510
0.005215 -0.095566 -0.002510
51.474289 -21.676718 1.312402
48.313057 -20.370865 2.458672
47.384853 -19.990858 3.608557
46.627068 -19.691650 4.733198
5.058581 -2.221661 0.640524
47.142395 -19.936987 7.203057
0.005215 -0.095566 -0.002510
0.005215 -0.095566 -0.002510
2.885785 -1.314658 -1.856128
3.036906 -1.379854 -1.851007
3.215213 -1.456052 -1.854782
3.398556 -1.535152 -1.851659
3.386730 -1.531513 -1.739950
3.504864 -1.583099 -1.694038
3.769081 -1.696190 -1.709296
4.099086 -1.838219 -1.738195
4.383462 -1.961063 -1.732862
0.005182 -0.095364 -0.002504
5.630261 -2.495811 -1.908591
6.177837 -2.732006 -1.924700
6.809264 -3.003096 -1.936831
7.536932 -3.317146 -1.940540
0.005182 -0.095364 -0.002504
9.697693 -4.249383 -1.985565
11.295158 -4.875791 -2.012486
13.477972 -5.805546 -2.053908
17.286924 -7.423405 -2.187806
24.800095 -10.619370 -2.506177
34.614330 -14.799084 -2.619005
0.005182 -0.095364 -0.002504
64.757706 -27.645140 -1.612120
0.005182 -0.095364 -0.002504
0.005182 -0.095364 -0.002504
49.608902 -21.250549 2.530858
47.440529 -20.345192 3.621889
46.907570 -20.136881 4.773674
5.033489 -2.244988 0.638899
0.005182 -0.095364 -0.002504
46.696507 -20.094440 8.360579
0.005182 -0.095364 -0.002504
2.880107 -1.332165 -1.857143
3.034035 -1.399644 -1.853939
3.205494 -1.474123 -1.853839
3.393248 -1.556424 -1.853447
3.389785 -1.556315 -1.745929
3.504638 -1.606599 -1.698097
3.783259 -1.728489 -1.720073
4.092117 -1.863696 -1.739643
4.370931 -1.985235 -1.732172
5.153600 -2.326191 -1.896306
5.605446 -2.524304 -1.905015
6.160826 -2.766456 -1.924144
6.793692 -3.043890 -1.937331
7.530760 -3.365587 -1.943756
8.453413 -3.770015 -1.957447
9.670040 -4.303224 -1.984819
11.275722 -4.946232 -2.014097
13.457683 -5.888127 -2.055845
17.254189 -7.530086 -2.189186
24.777597 -10.783107 -2.510241
0.005179 -0.095162 -0.002499
0.005179 -0.095162 -0.002499
0.005179 -0.095162 -0.002499
0.005179 -0.095162 -0.002499
0.005179 -0.095162 -0.002499
49.546959 -21.571417 2.534155
48.059196 -20.936295 3.678260
0.005179 -0.095162 -0.002499
4.986039 -2.259477 0.634478
0.005179 -0.095162 -0.002499
5.004930 -2.270763 0.895252
0.005179 -0.095162 -0.002499
2.874513 -1.349144 -1.858157
3.031278 -1.418913 -1.856870
3.202361 -1.494405 -1.856648
0.005176 -0.094960 -0.002494
3.391262 -1.579888 -1.751054
3.489183 -1.623537 -1.694839
3.768723 -1.747736 -1.717757
4.076749 -1.884693 -1.737457
4.337601 -2.000243 -1.723282
5.147620 -2.358579 -1.898858
5.593128 -2.557001 -1.905604
6.129519 -2.794590 -1.919182
6.783731 -3.085759 -1.939349
7.526081 -3.414848 -1.947434
8.435716 -3.819867 -1.958271
9.694255 -4.379936 -1.994794
11.262118 -5.017021 -2.016679
13.425983 -5.965907 -2.056116
17.223911 -7.634429 -2.190798
24.765017 -10.946624 -2.515230
0.005176 -0.094960 -0.002494
0.005176 -0.094960 -0.002494
0.005176 -0.094960 -0.002494
0.005176 -0.094960 -0.002494
63.493828 -28.025290 1.631692
50.048061 -22.130829 2.566263
48.451717 -21.437841 3.717666
4.913671 -2.259408 0.499851
4.929905 -2.268605 0.628892
4.905736 -2.258944 0.752273
4.950821 -2.280902 0.887785
0.005176 -0.094960 -0.002494
2.868826 -1.366101 -1.859171
3.028399 -1.438196 -1.859802
3.192631 -1.511832 -1.855704
3.381135 -1.597027 -1.856127
3.384317 -1.599846 -1.751904
3.483666 -1.644812 -1.696460
3.764228 -1.771383 -1.720062
4.071494 -1.910129 -1.739632
4.331734 -2.027195 -1.725327
4.800627 -2.238617 -1.775413
4.629019 -2.163816 -1.581272
0.005173 -0.094761 -0.002489
6.771699 -3.126822 -1.940860
7.508665 -3.458595 -1.947889
8.426681 -3.873638 -1.961172
9.673043 -4.436935 -1.995526
11.253496 -5.090217 -2.020232
13.395628 -6.044312 -2.056664
17.182121 -7.733828 -2.191022
24.731358 -11.101439 -2.518184
0.005173 -0.094761 -0.002489
0.005173 -0.094761 -0.002489
0.005173 -0.094761 -0.002489
64.437225 -28.856260 0.021746
0.005173 -0.094761 -0.002489
49.437332 -22.201630 2.541402
48.849125 -21.948650 3.757773
4.895680 -2.284931 0.499297
4.910087 -2.293411 0.627966
4.907661 -2.293347 0.754511
4.932757 -2.306652 0.886816
4.956489 -2.319367 1.022158
2.864373 -1.384235 -1.861204
3.009249 -1.450837 -1.852943
3.187391 -1.531917 -1.857575
3.380313 -1.620457 -1.860605
3.393732 -1.627222 -1.761304
3.469421 -1.662905 -1.694015
3.757560 -1.794918 -1.721596
4.066085 -1.935557 -1.741807
4.309957 -2.047903 -1.721221
4.584611 -2.173487 -1.699936
0.005139 -0.094556 -0.002483
0.005139 -0.094556 -0.002483
4.593151 -2.182141 -1.320192
4.587324 -2.181411 -1.193666
4.601982 -2.189045 -1.074403
4.622653 -2.200395 -0.956864
11.229107 -5.158937 -2.021196
13.367391 -6.126521 -2.057768
17.192715 -7.860514 -2.198184
4.662918 -2.201047 -0.477635
0.005139 -0.094556 -0.002483
0.005139 -0.094556 -0.002483
0.005139 -0.094556 -0.002483
62.486271 -28.429901 0.021087
57.683544 -26.275951 1.489917
0.005139 -0.094556 -0.002483
48.553608 -22.162056 3.745025
4.873950 -2.308662 0.498370
4.908200 -2.326287 0.629370
4.896364 -2.322943 0.754796
4.900225 -2.325715 0.883247
4.925739 -2.339414 1.018454
2.858708 -1.400654 -1.862219
3.004827 -1.468797 -1.854896
3.176115 -1.547944 -1.855693
3.375015 -1.640519 -1.862393
3.394724 -1.650986 -1.766429
3.457040 -1.681050 -1.692385
3.743009 -1.813276 -1.719281
4.046985 -1.954758 -1.738168
4.266212 -2.057456 -1.708231
4.551933 -2.190039 -1.692256
4.558096 -2.194798 -1.565193
4.554163 -2.194891 -1.437378
4.568784 -2.202581 -1.316645
4.568186 -2.204233 -1.191819
4.573514 -2.208622 -1.070661
4.590477 -2.218404 -0.952792
0.005136 -0.094354 -0.002478
0.005136 -0.094354 -0.002478
0.005136 -0.094354 -0.002478
4.625768 -2.215130 -0.475038
4.650078 -2.228232 -0.358155
0.005136 -0.094354 -0.002478
0.005136 -0.094354 -0.002478
4.657639 -2.236585 -0.000718
0.005136 -0.094354 -0.002478
0.005136 -0.094354 -0.002478
4.664267 -2.244524 0.358113
4.670932 -2.249564 0.478797
0.005136 -0.094354 -0.002478
4.674976 -2.254364 0.722434
4.697086 -2.266569 0.848811
4.700560 -2.269156 0.974311
2.847792 -1.415866 -1.860174
2.993463 -1.484854 -1.852933
3.173854 -1.569467 -1.859441
3.373888 -1.664010 -1.866871
3.393638 -1.674639 -1.770699
3.449493 -1.701422 -1.693191
3.734431 -1.835947 -1.720045
4.012259 -1.967399 -1.727986
4.273589 -2.090454 -1.715743
4.544579 -2.219124 -1.694169
4.538683 -2.218266 -1.562808
4.536799 -2.218337 -1.435721
4.550941 -2.226890 -1.315122
4.548923 -2.226900 -1.189972
4.557754 -2.232966 -1.069826
4.576425 -2.243672 -0.952418
4.589980 -2.226620 -0.831443
4.578881 -2.222419 -0.709689
4.608088 -2.237953 -0.593605
4.600475 -2.236350 -0.473737
0.005133 -0.094152 -0.002474
0.005133 -0.094152 -0.002474
4.619047 -2.249860 -0.118959
4.627114 -2.254605 -0.000720
4.625079 -2.255610 0.117702
0.005133 -0.094152 -0.002474
0.005133 -0.094152 -0.002474
4.635026 -2.265143 0.476378
0.005133 -0.094152 -0.002474
4.633793 -2.267488 0.717975
0.005133 -0.094152 -0.002474
4.646688 -2.277471 0.965785
2.835486 -1.429767 -1.857111
2.988560 -1.503284 -1.854885
3.162127 -1.585932 -1.857559
3.358339 -1.680076 -1.863279
3.386114 -1.694651 -1.771548
3.440191 -1.720978 -1.693186
3.722667 -1.856351 -1.719269
4.004783 -1.991781 -1.729434
4.258646 -2.113127 -1.714371
4.535724 -2.246588 -1.695443
4.528100 -2.244892 -1.563397
4.531450 -2.247438 -1.437918
4.543864 -2.255263 -1.316635
4.545388 -2.256951 -1.192269
4.545379 -2.258882 -1.069820
4.565762 -2.270541 -0.952782
4.568711 -2.248507 -0.829819
4.568344 -2.249300 -0.709960
0.005099 -0.093950 -0.002467
0.005099 -0.093950 -0.002467
0.005099 -0.093950 -0.002467
0.005099 -0.093950 -0.002467
0.005099 -0.093950 -0.002467
4.592924 -2.270636 -0.000722
4.608983 -2.280199 0.117612
4.608028 -2.281705 0.236953
4.619411 -2.288090 0.356581
4.613483 -2.287227 0.475451
4.640817 -2.302210 0.599797
4.626567 -2.296399 0.718818
4.632607 -2.301247 0.841674
4.632278 -2.303054 0.965419
2.835498 -1.449516 -1.862203
2.981971 -1.520950 -1.855859
3.155097 -1.604603 -1.858492
3.344325 -1.696791 -1.860583
3.391511 -1.720890 -1.779238
3.438753 -1.745039 -1.697246
3.717467 -1.879875 -1.721575
3.987097 -2.011290 -1.726522
4.246591 -2.138069 -1.714365
4.562543 -2.291308 -1.710149
4.543167 -2.283914 -1.572913
4.539407 -2.284026 -1.444520
4.547019 -2.288675 -1.321181
4.550004 -2.292060 -1.196868
4.553615 -2.295747 -1.074797
4.570477 -2.305865 -0.956473
4.563370 -2.277901 -0.831108
4.569787 -2.282925 -0.712176
4.586717 -2.292011 -0.594057
4.575548 -2.288604 -0.473726
4.585213 -2.295200 -0.356056
4.583807 -2.295489 -0.237640
4.593941 -2.302327 -0.118948
4.597993 -2.306233 -0.000711
4.599913 -2.308146 0.117713
4.602570 -2.311383 0.237333
4.606322 -2.315166 0.356587
4.602186 -2.315134 0.475643
4.628053 -2.328605 0.599802
4.617009 -2.325243 0.719381
4.619458 -2.328400 0.841679
4.626556 -2.332828 0.966909
2.833620 -1.469053 -1.866276
2.976617 -1.539867 -1.857812
3.142918 -1.621471 -1.856611
3.339573 -1.718673 -1.863268
3.389939 -1.744665 -1.783508
3.420982 -1.760528 -1.693176
3.706826 -1.901612 -1.721570
3.960598 -2.027257 -1.719975
4.234767 -2.162198 -1.714360
0.005093 -0.093550 -0.002458
5.514357 -2.792745 -1.914492
6.052943 -3.057905 -1.931258
6.684590 -3.370384 -1.947403
7.451608 -3.748256 -1.964892
8.318064 -4.177083 -1.967780
9.478916 -4.751410 -1.987730
4.571650 -2.315002 -0.834986
4.569596 -2.314979 -0.714115
4.580763 -2.322370 -0.594977
4.576777 -2.322400 -0.475201
4.583249 -2.326523 -0.356884
4.579656 -2.326736 -0.238097
4.595152 -2.336272 -0.119309
4.604960 -2.342042 -0.000698
4.593910 -2.338621 0.117906
4.598333 -2.342753 0.237808
4.607820 -2.348384 0.357713
4.605429 -2.349198 0.477326
4.618278 -2.357485 0.600274
4.614774 -2.356738 0.721060
4.611840 -2.357285 0.842659
4.623805 -2.365150 0.969140
2.828730 -1.486599 -1.868310
2.972942 -1.559025 -1.860744
3.135642 -1.640050 -1.857543
3.338192 -1.741558 -1.867747
3.382017 -1.764683 -1.784358
3.401515 -1.775053 -1.688294
3.673232 -1.911171 -1.710782
3.936057 -2.043123 -1.714155
4.243022 -2.196281 -1.722556
5.054207 -2.600995 -1.905210
5.493605 -2.821597 -1.912701
6.042667 -3.095821 -1.933454
6.653509 -3.402461 -1.943857
7.447904 -3.799445 -1.969492
8.299714 -4.227183 -1.969021
9.446718 -4.802923 -1.986616
4.652582 -2.387296 -0.852129
0.005090 -0.093348 -0.002453
0.005090 -0.093348 -0.002453
0.005090 -0.093348 -0.002453
0.005090 -0.093348 -0.002453
0.005090 -0.093348 -0.002453
0.005090 -0.093348 -0.002453
0.005090 -0.093348 -0.002453
4.616742 -2.382524 0.118853
4.624687 -2.388458 0.239877
4.626925 -2.390571 0.360242
4.615570 -2.386918 0.479755
4.640759 -2.401455 0.604938
4.661944 -2.413007 0.730553
4.634051 -2.401121 0.849163
4.645836 -2.409000 0.976564
2.828377 -1.506442 -1.873403
2.955092 -1.571160 -1.854864
3.129871 -1.659388 -1.859415
3.328666 -1.760477 -1.867742
3.401425 -1.798452 -1.799743
3.426067 -1.811560 -1.705358
3.677531 -1.939473 -1.717708
3.934753 -2.070494 -1.718511
4.658963 -2.435905 -1.896816
5.039709 -2.629756 -1.905205
5.496592 -2.862335 -1.919242
6.028769 -3.131984 -1.934551
6.646491 -3.446502 -1.947393
7.423007 -3.840185 -1.968566
8.288017 -4.280742 -1.971921
9.423012 -4.858659 -1.987350
11.126567 -5.662249 -2.041541
13.153605 -6.680114 -2.064116
16.943195 -8.585929 -2.208320
24.449789 -12.360339 -2.544604
52.725258 -26.561302 -4.107153
0.005056 -0.093146 -0.002447
0.005056 -0.093146 -0.002447
0.005056 -0.093146 -0.002447
55.941738 -28.261127 1.473147
0.005056 -0.093146 -0.002447
0.005056 -0.093146 -0.002447
0.005056 -0.093146 -0.002447
0.005056 -0.093146 -0.002447
0.005056 -0.093146 -0.002447
0.005056 -0.093146 -0.002447
0.005056 -0.093146 -0.002447
2.827871 -1.526329 -1.878496
2.960531 -1.594990 -1.863671
3.122380 -1.677909 -1.860349
3.314250 -1.776904 -1.865047
3.380303 -1.811987 -1.793754
3.407988 -1.826833 -1.701289
3.647138 -1.950273 -1.708461
3.908387 -2.085211 -1.711964
4.655478 -2.467526 -1.900912
5.025058 -2.658432 -1.905201
5.472096 -2.889286 -1.916262
6.024882 -3.173342 -1.938951
6.642580 -3.492334 -1.951940
7.401339 -3.882532 -1.968560
8.270795 -4.331624 -1.973577
9.400709 -4.915173 -1.988454
0.005053 -0.092948 -0.002442
13.126116 -6.760722 -2.065776
16.927786 -8.700001 -2.212710
24.400209 -12.511205 -2.546821
0.005053 -0.092948 -0.002442
0.005053 -0.092948 -0.002442
0.005053 -0.092948 -0.002442
0.005053 -0.092948 -0.002442
55.771851 -28.578178 1.472962
55.538101 -28.483086 2.927577
56.919537 -29.201694 4.489811
0.005053 -0.092948 -0.002442
53.757305 -27.631449 7.081452
49.153965 -25.283745 7.778792
48.107407 -24.768408 8.898735
50.367409 -25.949810 10.684014
2.808880 -1.536803 -1.871354
2.947220 -1.609342 -1.860729
3.113200 -1.695590 -1.860343
3.307675 -1.797325 -1.866835
3.381589 -1.836954 -1.799733
3.409023 -1.852616 -1.706974
3.639688 -1.972656 -1.709997
3.881987 -2.099689 -1.705418
4.641324 -2.494809 -1.900907
5.018635 -2.691383 -1.908394
5.476269 -2.930991 -1.923398
6.004817 -3.207832 -1.938395
6.619503 -3.528423 -1.950924
7.383959 -3.928737 -1.969937
8.249016 -4.382081 -1.974403
9.377241 -4.973225 -1.989559
11.068874 -5.792870 -2.042826
13.084672 -6.837162 -2.065494
16.899233 -8.807804 -2.215481
24.385088 -12.680178 -2.552741
53.976284 -27.981873 -4.229591
0.005050 -0.092746 -0.002437
0.005050 -0.092746 -0.002437
70.066551 -36.373306 0.024681
57.817585 -30.042953 1.531615
0.005050 -0.092746 -0.002437
56.742691 -29.536060 4.489533
0.005050 -0.092746 -0.002437
56.499519 -29.447123 7.464947
51.994469 -27.129227 8.253700
0.005050 -0.092746 -0.002437
50.967541 -26.628822 10.843538
0.525044 -0.364271 -0.350114
2.938154 -1.626529 -1.860723
3.106796 -1.715392 -1.862215
3.302281 -1.819125 -1.869520
3.375993 -1.859223 -1.802293
3.395595 -1.870242 -1.705343
3.631729 -1.995650 -1.711531
3.860137 -2.117198 -1.701052
4.635743 -2.525570 -1.904318
5.006512 -2.722576 -1.909668
5.461055 -2.964015 -1.923988
5.997032 -3.247418 -1.941694
6.599062 -3.567312 -1.950920
7.370401 -3.975398 -1.972235
8.231150 -4.432816 -1.976059
9.355975 -5.030450 -1.991032
11.050659 -5.866286 -2.045733
13.057977 -6.918411 -2.067433
16.863163 -8.915742 -2.217557
24.356003 -12.848092 -2.557549
0.005047 -0.092544 -0.002432
0.005047 -0.092544 -0.002432
0.005047 -0.092544 -0.002432
0.005047 -0.092544 -0.002432
0.005047 -0.092544 -0.002432
0.005047 -0.092544 -0.002432
56.148853 -29.638348 4.455887
0.005047 -0.092544 -0.002432
55.996151 -29.607626 7.421381
52.057247 -27.542747 8.288581
60.060978 -31.790224 11.178378
50.713978 -26.879360 10.823136
0.532579 -0.371886 -0.356226
2.929293 -1.643147 -1.860719
3.102071 -1.735465 -1.865025
3.282819 -1.832807 -1.864135
3.372172 -1.881752 -1.805709
3.385341 -1.889485 -1.705339
3.619098 -2.015384 -1.710756
3.848429 -2.139109 -1.701047
4.620026 -2.551043 -1.903630
4.989637 -2.750169 -1.909024
5.449506 -2.997805 -1.925769
5.990677 -3.287924 -1.945544
6.590913 -3.611314 -1.954455
7.349674 -4.018360 -1.972691
8.206076 -4.479798 -1.976054
9.337856 -5.089453 -1.993246
11.032993 -5.937760 -2.048641
13.030791 -6.999576 -2.069373
16.799906 -9.005720 -2.215935
24.342096 -13.019333 -2.563838
35.767517 -19.096016 -2.820349
0.005013 -0.092342 -0.002426
0.005013 -0.092342 -0.002426
0.005013 -0.092342 -0.002426
56.483219 -30.192005 1.505426
0.005013 -0.092342 -0.002426
55.883148 -29.909492 4.448318
56.759018 -30.402185 6.022550
56.055134 -30.051279 7.451903
0.005013 -0.092342 -0.002426
57.988285 -31.123295 10.825515
0.005013 -0.092342 -0.002426
0.529382 -0.373983 -0.355201
2.920042 -1.660223 -1.860713
3.090750 -1.752721 -1.864082
3.277178 -1.854512 -1.866820
3.384118 -1.912861 -1.817675
3.389094 -1.917061 -1.712649
3.597903 -2.031272 -1.706130
3.841510 -2.163601 -1.703223
4.611994 -2.581683 -1.906359
4.984273 -2.783958 -1.912856
5.434397 -3.029732 -1.926359
5.973316 -3.324005 -1.946089
6.589286 -3.659021 -1.960014
7.333143 -4.065265 -1.974528
8.187595 -4.530359 -1.977710
9.317597 -5.147464 -1.995089
10.984271 -5.995248 -2.046048
12.998379 -7.081041 -2.070756
16.731119 -9.096291 -2.213850
24.363329 -13.215846 -2.574201
0.005010 -0.092136 -0.002421
0.005010 -0.092136 -0.002421
0.005010 -0.092136 -0.002421
0.005010 -0.092136 -0.002421
55.954029 -30.336367 1.496052
55.647854 -30.183281 2.969347
0.005010 -0.092136 -0.002421
0.005010 -0.092136 -0.002421
0.005010 -0.092136 -0.002421
0.005010 -0.092136 -0.002421
59.793373 -32.532356 11.197222
61.532101 -33.503407 13.213731
0.521766 -0.373406 -0.351118
2.909727 -1.675396 -1.859730
3.075227 -1.766295 -1.860323
3.262594 -1.869938 -1.864125
3.379932 -1.935506 -1.821090
3.383373 -1.938895 -1.715083
3.582171 -2.048397 -1.703815
3.826282 -2.183613 -1.701765
4.594331 -2.606096 -1.904988
4.968731 -2.812315 -1.912852
5.427467 -3.066177 -1.929925
5.954659 -3.358032 -1.946085
6.561904 -3.692858 -1.957987
7.274364 -4.087408 -1.964854
8.157745 -4.576627 -1.976876
9.280641 -5.198504 -1.993608
10.959898 -6.060831 -2.047662
12.973643 -7.163899 -2.073251
16.656267 -9.175798 -2.210608
24.314312 -13.364483 -2.576790
0.005007 -0.091938 -0.002417
0.005007 -0.091938 -0.002417
0.005007 -0.091938 -0.002417
76.321182 -41.879883 0.027464
0.005007 -0.091938 -0.002417
55.234077 -30.370678 2.956488
0.005007 -0.091938 -0.002417
0.005007 -0.091938 -0.002417
59.192623 -32.607674 7.918334
59.849419 -32.995556 9.619538
0.005007 -0.091938 -0.002417
58.861645 -32.492317 12.679891
0.538139 -0.386241 -0.363348
2.904896 -1.694888 -1.862663
3.068362 -1.785947 -1.862196
3.259816 -1.893314 -1.868604
3.375268 -1.958750 -1.824505
3.391868 -1.968700 -1.724832
3.564090 -2.065752 -1.700730
3.807300 -2.202374 -1.698852
4.581429 -2.633129 -1.905666
4.957482 -2.844208 -1.914766
5.411425 -3.098947 -1.930516
5.952595 -3.401304 -1.951587
6.538773 -3.730461 -1.957477
7.246181 -4.126057 -1.963468
8.148915 -4.632714 -1.981023
9.280315 -5.267785 -1.999887
10.922614 -6.124415 -2.047334
12.920662 -7.231375 -2.071304
16.614363 -9.280731 -2.212224
24.230062 -13.505048 -2.576231
0.005004 -0.091736 -0.002412
0.005004 -0.091736 -0.002412
63.868675 -35.525135 -1.672980
0.005004 -0.091736 -0.002412
0.005004 -0.091736 -0.002412
0.005004 -0.091736 -0.002412
61.529453 -34.310982 4.944757
61.097919 -34.098751 6.545030
61.168175 -34.165672 8.209562
59.176743 -33.069641 9.541688
59.157524 -33.085865 11.149456
0.005004 -0.091736 -0.002412
0.534942 -0.388254 -0.362323
2.889524 -1.707906 -1.858741
3.055461 -1.801583 -1.860314
3.255643 -1.915275 -1.872187
3.379020 -1.985256 -1.832196
3.379430 -1.987027 -1.724015
3.541394 -2.079629 -1.695333
3.798729 -2.225143 -1.700302
4.570013 -2.661019 -1.907028
4.945357 -2.873405 -1.916040
5.401225 -3.132564 -1.932891
5.931803 -3.434266 -1.951032
6.520086 -3.767544 -1.957979
7.238137 -4.176000 -1.967609
8.126896 -4.679729 -1.981849
9.247887 -5.317230 -1.999143
10.851624 -6.166576 -2.040536
12.907079 -7.320741 -2.075744
16.571697 -9.381624 -2.213609
24.150856 -13.642817 -2.576044
0.004970 -0.091534 -0.002406
0.004970 -0.091534 -0.002406
0.004970 -0.091534 -0.002406
0.004970 -0.091534 -0.002406
67.972198 -38.360523 1.835318
60.631870 -34.241352 3.266480
0.004970 -0.091534 -0.002406
0.004970 -0.091534 -0.002406
0.004970 -0.091534 -0.002406
58.950081 -33.388401 9.535825
60.158260 -34.084591 11.373646
0.004970 -0.091534 -0.002406
0.527263 -0.387606 -0.358239
2.889558 -1.728911 -1.864611
3.048646 -1.820620 -1.862185
3.239211 -1.929618 -1.868595
3.377489 -2.009768 -1.837322
3.382750 -2.014316 -1.731325
3.518695 -2.093312 -1.689937
4.218586 -2.493056 -1.894362
4.556804 -2.687927 -1.907707
4.925505 -2.900517 -1.914756
5.384784 -3.165195 -1.933482
5.925840 -3.475691 -1.955433
6.506584 -3.810646 -1.960503
7.225627 -4.225309 -1.970827
8.100485 -4.729904 -1.982261
9.215082 -5.370672 -1.998770
10.822744 -6.229622 -2.041503
12.875665 -7.400406 -2.077407
16.533487 -9.481409 -2.215456
24.071533 -13.774936 -2.575673
31.912117 -18.247549 -2.556847
0.004967 -0.091332 -0.002401
0.004967 -0.091332 -0.002401
0.004967 -0.091332 -0.002401
0.004967 -0.091332 -0.002401
60.468548 -34.622227 3.268635
0.004967 -0.091332 -0.002401
0.004967 -0.091332 -0.002401
58.203770 -33.395775 7.862410
0.004967 -0.091332 -0.002401
0.004967 -0.091332 -0.002401
0.004967 -0.091332 -0.002401
0.522472 -0.388864 -0.356195
2.878011 -1.745385 -1.863627
3.041413 -1.840168 -1.864058
3.229491 -1.949980 -1.869487
3.373908 -2.034009 -1.841592
3.376063 -2.036810 -1.733760
3.503571 -2.112026 -1.688392
4.222037 -2.528004 -1.902353
4.544605 -2.716505 -1.909070
4.920773 -2.935177 -1.919230
5.367018 -3.195846 -1.933478
5.910664 -3.513367 -1.957080
6.506876 -3.860347 -1.967076
7.196705 -4.263588 -1.969442
8.067737 -4.770798 -1.980596
9.172704 -5.416381 -1.996179
10.781716 -6.293257 -2.040853
12.840736 -7.481204 -2.078791
16.487988 -9.588696 -2.217072
24.004950 -13.931084 -2.577522
31.781630 -18.422937 -2.555043
0.004964 -0.091130 -0.002396
0.004964 -0.091130 -0.002396
67.212357 -38.940502 0.024225
61.865246 -35.878269 1.681361
0.004964 -0.091130 -0.002396
61.797916 -35.882248 5.015686
0.004964 -0.091130 -0.002396
59.626709 -34.666080 8.081409
0.004964 -0.091130 -0.002396
67.150787 -39.076019 12.781182
0.004964 -0.091130 -0.002396
0.510371 -0.385478 -0.349053
2.867234 -1.760279 -1.862643
3.030098 -1.855958 -1.863115
3.219060 -1.967711 -1.869482
3.368930 -2.056777 -1.845008
3.362010 -2.053510 -1.732129
3.490643 -2.130348 -1.687617
4.207951 -2.551988 -1.902349
4.534782 -2.744396 -1.911116
4.899445 -2.960294 -1.917307
5.352385 -3.228328 -1.934664
5.886530 -3.543084 -1.955424
6.475090 -3.891552 -1.964036
7.171668 -4.302395 -1.968978
8.039012 -4.815844 -1.980177
9.148736 -5.472744 -1.997655
10.741872 -6.350004 -2.039878
12.794230 -7.549392 -2.077955
16.433117 -9.679159 -2.216839
23.894787 -14.045271 -2.574004
0.004961 -0.090932 -0.002391
0.004961 -0.090932 -0.002391
0.004961 -0.090932 -0.002391
67.276222 -39.478786 0.024329
61.946098 -36.386871 1.689033
0.004961 -0.090932 -0.002391
60.647686 -35.668438 4.938290
0.004961 -0.090932 -0.002391
60.194313 -35.458687 8.185780
0.004961 -0.090932 -0.002391
63.539165 -37.468632 12.134263
0.004961 -0.090932 -0.002391
0.517575 -0.393422 -0.355166
2.860583 -1.778266 -1.864596
3.024157 -1.876329 -1.865926
3.209748 -1.986848 -1.870374
3.377792 -2.087840 -1.856119
3.369177 -2.084324 -1.741879
3.470577 -2.146032 -1.683762
4.192133 -2.574937 -1.901617
4.518967 -2.770960 -1.911111
4.892139 -2.994818 -1.921140
5.338645 -3.262647 -1.936445
5.869308 -3.579604 -1.956522
6.447495 -3.926612 -1.962515
7.142506 -4.343792 -1.968053
8.010056 -4.864511 -1.980173
9.126814 -5.532611 -1.999868
10.709130 -6.413384 -2.040523
12.763498 -7.632822 -2.080174
16.381153 -9.775198 -2.217299
23.819374 -14.185122 -2.574560
0.004927 -0.090730 -0.002385
0.004927 -0.090730 -0.002385
0.004927 -0.090730 -0.002385
0.004927 -0.090730 -0.002385
0.004927 -0.090730 -0.002385
0.004927 -0.090730 -0.002385
0.004927 -0.090730 -0.002385
60.122192 -35.868256 6.548548
0.004927 -0.090730 -0.002385
0.004927 -0.090730 -0.002385
63.804913 -38.134972 12.227834
0.004927 -0.090730 -0.002385
0.515698 -0.396340 -0.355161
2.851739 -1.796330 -1.865571
3.002898 -1.887610 -1.859352
3.198151 -2.006139 -1.870370
3.372092 -2.111287 -1.859535
3.369838 -2.111525 -1.748377
3.452022 -2.162502 -1.680677
4.183753 -2.603316 -1.904521
4.501418 -2.796457 -1.910424
4.878588 -3.024598 -1.922414
5.325225 -3.295988 -1.938226
5.851810 -3.616036 -1.957618
6.426987 -3.964356 -1.963017
7.122948 -4.387538 -1.969430
7.971614 -4.901742 -1.977264
9.100458 -5.587771 -2.000975
10.675474 -6.481339 -2.041490
12.720321 -7.709026 -2.080449
16.337183 -9.883803 -2.219379
23.785963 -14.361546 -2.580297
32.068317 -19.339344 -2.604606
0.004924 -0.090528 -0.002380
0.004924 -0.090528 -0.002380
0.004924 -0.090528 -0.002380
0.004924 -0.090528 -0.002380
60.850792 -36.733521 3.334307
0.004924 -0.090528 -0.002380
0.004924 -0.090528 -0.002380
60.459656 -36.569496 8.279192
63.843227 -38.641453 10.504572
63.558250 -38.484364 12.222624
0.004924 -0.090528 -0.002380
0.513970 -0.398981 -0.355155
2.842190 -1.811956 -1.865567
3.004933 -1.911406 -1.866855
3.185871 -2.022764 -1.869468
3.371221 -2.136971 -1.865515
3.380382 -2.143327 -1.759753
3.445146 -2.184350 -1.682983
4.172420 -2.629016 -1.905971
4.489464 -2.823215 -1.911787
4.858408 -3.050368 -1.921131
5.306722 -3.326296 -1.938223
5.837023 -3.651351 -1.959267
6.424441 -4.013087 -1.969084
7.102209 -4.428947 -1.970348
7.952173 -4.952331 -1.979336
9.067032 -5.638704 -2.000602
10.641378 -6.541496 -2.041811
12.681043 -7.781592 -2.081002
16.278963 -9.972361 -2.218915
23.777569 -14.537024 -2.588072
0.004921 -0.090326 -0.002375
0.004921 -0.090326 -0.002375
0.004921 -0.090326 -0.002375
0.004921 -0.090326 -0.002375
0.004921 -0.090326 -0.002375
61.174801 -37.408985 3.363766
0.004921 -0.090326 -0.002375
63.907940 -39.122105 7.009475
64.052231 -39.240803 8.801993
0.004921 -0.090326 -0.002375
66.905067 -41.032524 12.911440
0.004921 -0.090326 -0.002375
0.513656 -0.402597 -0.356170
2.829269 -1.826197 -1.863604
2.995905 -1.929332 -1.867788
3.174711 -2.040803 -1.869464
3.364032 -2.158912 -1.868076
3.375928 -2.167861 -1.763812
3.440880 -2.208718 -1.686829
4.157749 -2.652712 -1.905966
4.476405 -2.851485 -1.913150
4.847773 -3.081984 -1.923686
5.294516 -3.360516 -1.940599
5.820710 -3.688645 -1.960914
6.403411 -4.050718 -1.969585
7.083034 -4.474779 -1.972187
7.918264 -4.995991 -1.978088
9.035682 -5.693079 -2.000968
10.600760 -6.600224 -2.041161
12.647120 -7.863547 -2.082944
16.225306 -10.067568 -2.219377
23.858654 -14.774416 -2.606027
0.004888 -0.090128 -0.002369
0.004888 -0.090128 -0.002369
0.004888 -0.090128 -0.002369
0.004888 -0.090128 -0.002369
0.004888 -0.090128 -0.002369
62.159206 -38.501072 3.430014
0.004888 -0.090128 -0.002369
0.004888 -0.090128 -0.002369
63.714775 -39.538906 8.786607
0.004888 -0.090128 -0.002369
0.004888 -0.090128 -0.002369
0.004888 -0.090128 -0.002369
0.507386 -0.402674 -0.353106
2.821890 -1.844523 -1.865558
2.981965 -1.944935 -1.865908
3.163102 -2.059327 -1.869460
0.004885 -0.089926 -0.002365
3.368235 -2.190481 -1.766247
3.437681 -2.234681 -1.691447
4.137744 -2.674082 -1.903781
4.461551 -2.878697 -1.913828
4.828359 -3.109386 -1.923042
5.276660 -3.392577 -1.941190
5.802567 -3.724846 -1.962012
6.381481 -4.089347 -1.970087
7.061873 -4.519499 -1.973564
7.900677 -5.049828 -1.980991
9.005675 -5.748327 -2.001704
10.558670 -6.660540 -2.040511
12.590781 -7.931759 -2.081276
16.172684 -10.167408 -2.220300
23.808487 -14.938340 -2.610100
0.004885 -0.089926 -0.002365
0.004885 -0.089926 -0.002365
0.004885 -0.089926 -0.002365
71.731804 -44.953606 0.026554
0.004885 -0.089926 -0.002365
65.967331 -41.395870 3.653743
0.004885 -0.089926 -0.002365
0.004885 -0.089926 -0.002365
63.298405 -39.801140 8.761433
0.004885 -0.089926 -0.002365
0.004885 -0.089926 -0.002365
0.004885 -0.089926 -0.002365
0.511461 -0.408930 -0.357180
2.815014 -1.861838 -1.867512
2.971572 -1.961279 -1.865903
3.156612 -2.079541 -1.872146
3.350736 -2.203719 -1.874054
3.367278 -2.215810 -1.771933
3.840591 -2.516025 -1.896320
4.135892 -2.704826 -1.909592
4.450716 -2.906287 -1.915875
4.816249 -3.139040 -1.924957
5.251744 -3.417592 -1.938806
5.780612 -3.755842 -1.961458
6.359118 -4.124594 -1.970085
7.046933 -4.564793 -1.976324
7.866319 -5.089324 -1.979327
8.978979 -5.801333 -2.002811
10.515224 -6.714805 -2.039214
12.560300 -8.009983 -2.083496
16.136436 -10.269820 -2.223074
23.711931 -15.061980 -2.608621
0.004881 -0.089720 -0.002360
42.992393 -27.269953 -2.356738
0.004881 -0.089720 -0.002360
71.490913 -45.358654 0.026543
0.004881 -0.089720 -0.002360
65.778404 -41.789188 3.656074
66.196709 -42.086670 5.506165
0.004881 -0.089720 -0.002360
0.004881 -0.089720 -0.002360
0.004881 -0.089720 -0.002360
67.144516 -42.802654 13.099204
0.004881 -0.089720 -0.002360
0.516801 -0.416351 -0.362273
2.804469 -1.878239 -1.867507
2.964894 -1.981455 -1.868714
3.135729 -2.092180 -1.866761
3.348807 -2.230106 -1.880034
3.473477 -2.310766 -1.834517
3.827719 -2.539479 -1.897086
4.117188 -2.727016 -1.908135
4.440770 -2.935636 -1.918604
4.801301 -3.169311 -1.926232
5.241586 -3.454579 -1.942373
5.762663 -3.790838 -1.962556
6.341608 -4.166118 -1.972104
7.021106 -4.604971 -1.976321
7.848951 -5.141615 -1.982230
8.947686 -5.853653 -2.003179
10.480818 -6.779885 -2.040183
0.004878 -0.089518 -0.002355
16.075891 -10.364926 -2.223074
23.651411 -15.220092 -2.611770
30.841814 -19.828522 -2.550061
43.680298 -28.067957 -2.403449
0.004878 -0.089518 -0.002355
0.004878 -0.089518 -0.002355
66.363037 -42.679832 1.855243
0.004878 -0.089518 -0.002355
0.004878 -0.089518 -0.002355
0.004878 -0.089518 -0.002355
0.004878 -0.089518 -0.002355
0.004878 -0.089518 -0.002355
0.004878 -0.089518 -0.002355
0.004878 -0.089518 -0.002355
0.509116 -0.415349 -0.358189
2.795605 -1.895036 -1.868482
2.948048 -1.994385 -1.864956
3.125677 -2.110898 -1.867654
3.342518 -2.253009 -1.883451
3.575245 -2.405646 -1.895477
3.821294 -2.566221 -1.900933
4.100383 -2.749377 -1.907403
4.427004 -2.963688 -1.919968
4.786705 -3.198676 -1.927508
5.220544 -3.483364 -1.941774
5.742259 -3.825699 -1.963103
6.316450 -4.201196 -1.971595
7.000766 -4.650473 -1.978160
7.818916 -5.187754 -1.982228
8.928206 -5.915955 -2.006503
10.428941 -6.831179 -2.037593
12.445414 -8.141495 -2.079883
16.026590 -10.463357 -2.224461
23.579128 -15.365231 -2.613438
30.374550 -19.783623 -2.521048
36.013416 -23.449202 -1.989307
0.004845 -0.089316 -0.002349
75.571701 -49.186611 0.028388
0.004845 -0.089316 -0.002349
0.004845 -0.089316 -0.002349
0.004845 -0.089316 -0.002349
0.004845 -0.089316 -0.002349
0.004845 -0.089316 -0.002349
0.004845 -0.089316 -0.002349
0.004845 -0.089316 -0.002349
0.004845 -0.089316 -0.002349
0.515808 -0.423781 -0.364302
2.792164 -1.916099 -1.873374
0.004842 -0.089118 -0.002344
3.115114 -2.130116 -1.868546
3.326618 -2.270541 -1.881736
3.560348 -2.424912 -1.894661
3.809631 -2.590592 -1.902469
4.083008 -2.772343 -1.906673
4.416660 -2.992975 -1.922697
4.769777 -3.227768 -1.928144
5.201949 -3.515024 -1.942366
5.722294 -3.859453 -1.963650
6.293626 -4.239346 -1.972099
6.977685 -4.692529 -1.979078
7.794390 -5.235591 -1.983471
8.901136 -5.971255 -2.007979
10.385550 -6.890400 -2.036944
12.402269 -8.214797 -2.080437
15.978204 -10.566525 -2.226312
23.493248 -15.507582 -2.613994
30.254244 -19.953184 -2.520498
36.014759 -23.753904 -1.997083
0.004842 -0.089118 -0.002344
0.004842 -0.089118 -0.002344
0.004842 -0.089118 -0.002344
0.004842 -0.089118 -0.002344
0.004842 -0.089118 -0.002344
0.004842 -0.089118 -0.002344
0.004842 -0.089118 -0.002344
66.686462 -44.126591 11.256167
0.004842 -0.089118 -0.002344
0.004842 -0.089118 -0.002344
0.509566 -0.423659 -0.361238
2.775795 -1.928018 -1.869453
2.925600 -2.028177 -1.864948
3.106327 -2.149724 -1.870336
3.317029 -2.291384 -1.883442
3.548385 -2.446107 -1.895470
3.796746 -2.613226 -1.903236
4.079916 -2.803789 -1.912484
4.398355 -3.017025 -1.922011
4.756394 -3.258037 -1.930059
5.186931 -3.547798 -1.944148
5.700529 -3.892032 -1.963647
6.279299 -4.281650 -1.975130
6.955978 -4.735552 -1.980457
7.774421 -5.286582 -1.985959
8.873697 -6.026435 -2.009455
10.344636 -6.948625 -2.036618
12.365260 -8.292253 -2.082102
15.911117 -10.653516 -2.225387
23.389355 -15.632139 -2.612331
30.093088 -20.095499 -2.516615
0.004839 -0.088916 -0.002339
0.004839 -0.088916 -0.002339
75.155724 -50.153221 0.028411
0.004839 -0.088916 -0.002339
0.004839 -0.088916 -0.002339
0.004839 -0.088916 -0.002339
0.004839 -0.088916 -0.002339
66.515533 -44.547718 9.380850
0.004839 -0.088916 -0.002339
0.004839 -0.088916 -0.002339
0.004839 -0.088916 -0.002339
0.506181 -0.425392 -0.360213
2.768070 -1.945648 -1.871407
2.915863 -2.045706 -1.865882
3.092947 -2.166304 -1.869435
3.302812 -2.309164 -1.882583
3.540810 -2.470305 -1.898716
3.783708 -2.635794 -1.904002
4.062710 -2.825908 -1.911754
4.389223 -3.047269 -1.925423
4.738111 -3.285078 -1.930056
5.166979 -3.577307 -1.944145
5.686535 -3.929869 -1.966397
6.256729 -4.318507 -1.975634
6.929166 -4.775203 -1.980454
7.755766 -5.338607 -1.988863
8.855721 -6.088112 -2.013150
10.300133 -7.004410 -2.035646
12.316282 -8.361815 -2.081823
15.825409 -10.727888 -2.221918
23.334351 -15.789369 -2.616221
29.942907 -20.244417 -2.513706
0.004835 -0.088714 -0.002334
0.004835 -0.088714 -0.002334
0.004835 -0.088714 -0.002334
0.004835 -0.088714 -0.002334
0.004835 -0.088714 -0.002334
0.004835 -0.088714 -0.002334
0.004835 -0.088714 -0.002334
0.004835 -0.088714 -0.002334
0.004835 -0.088714 -0.002334
0.004835 -0.088714 -0.002334
0.004835 -0.088714 -0.002334
0.505653 -0.429031 -0.361228
2.764559 -1.966193 -1.876298
2.908930 -2.065176 -1.868692
3.082404 -2.184812 -1.870327
3.294459 -2.330921 -1.885144
3.520614 -2.486873 -1.895461
3.772031 -2.659341 -1.905538
4.054608 -2.854226 -1.915384
4.370071 -3.071905 -1.924736
4.721227 -3.313082 -1.930692
5.143674 -3.604547 -1.942951
5.655755 -3.957800 -1.963641
6.238675 -4.358523 -1.977653
6.910898 -4.822505 -1.983213
7.735850 -5.391938 -1.991767
8.821663 -6.141307 -2.013518
10.260225 -7.063233 -2.035645
12.275263 -8.439918 -2.083210
15.757452 -10.813925 -2.220993
23.436331 -16.054129 -2.637883
29.673061 -20.318787 -2.501078
0.004802 -0.088512 -0.002328
0.004802 -0.088512 -0.002328
74.807724 -51.190704 0.028468
0.004802 -0.088512 -0.002328
0.004802 -0.088512 -0.002328
0.004802 -0.088512 -0.002328
0.004802 -0.088512 -0.002328
65.525093 -44.982990 9.313249
0.004802 -0.088512 -0.002328
0.004802 -0.088512 -0.002328
0.004802 -0.088512 -0.002328
0.503621 -0.431788 -0.361223
2.766290 -1.991199 -1.885105
2.894277 -2.080121 -1.866812
3.074370 -2.205836 -1.873014
3.276674 -2.347068 -1.882575
3.511279 -2.509942 -1.897896
3.752205 -2.678242 -1.903225
4.035069 -2.875823 -1.913926
4.360602 -3.102077 -1.928151
4.705142 -3.342897 -1.931967
5.130613 -3.640135 -1.945923
5.639746 -3.994376 -1.965840
6.218073 -4.398454 -1.979169
6.882004 -4.860788 -1.982751
7.718082 -5.444989 -1.995085
8.799644 -6.200626 -2.016473
10.220379 -7.124734 -2.035967
12.240124 -8.519057 -2.085432
15.687149 -10.902267 -2.220069
23.372524 -16.213835 -2.641403
0.004799 -0.088310 -0.002323
0.004799 -0.088310 -0.002323
0.004799 -0.088310 -0.002323
0.004799 -0.088310 -0.002323
0.004799 -0.088310 -0.002323
0.004799 -0.088310 -0.002323
0.004799 -0.088310 -0.002323
0.004799 -0.088310 -0.002323
0.004799 -0.088310 -0.002323
0.004799 -0.088310 -0.002323
0.004799 -0.088310 -0.002323
0.004799 -0.088310 -0.002323
0.493165 -0.428542 -0.355100
0.485376 -0.423364 -0.331291
2.884232 -2.097494 -1.867747
3.063611 -2.224252 -1.873907
3.262147 -2.364589 -1.881716
3.495795 -2.528793 -1.897079
3.741767 -2.702698 -1.905531
4.026629 -2.904073 -1.917558
4.346269 -3.129005 -1.929514
4.687918 -3.370730 -1.932604
5.119488 -3.675897 -1.949490
5.620351 -4.028689 -1.966938
6.191620 -4.432762 -1.978661
6.854452 -4.900016 -1.982748
7.695174 -5.494631 -1.997159
8.765984 -6.251979 -2.016841
10.184637 -7.186489 -2.036937
12.196359 -8.592403 -2.086265
15.623116 -10.990839 -2.219839
23.343182 -16.392086 -2.648627
0.004796 -0.088112 -0.002319
39.186195 -27.490305 -2.215766
0.004796 -0.088112 -0.002319
0.004796 -0.088112 -0.002319
0.004796 -0.088112 -0.002319
0.004796 -0.088112 -0.002319
0.004796 -0.088112 -0.002319
0.004796 -0.088112 -0.002319
0.004796 -0.088112 -0.002319
0.004796 -0.088112 -0.002319
0.004796 -0.088112 -0.002319
0.004796 -0.088112 -0.002319
0.482769 -0.425189 -0.348978
0.484848 -0.426924 -0.332265
2.875513 -2.115835 -1.869619
3.043969 -2.236426 -1.869419
3.253425 -2.386192 -1.884277
3.484700 -2.550715 -1.898702
3.726689 -2.723919 -1.905528
4.001249 -2.920462 -1.913193
4.333332 -3.156951 -1.931561
4.670509 -3.398475 -1.933240
5.098796 -3.705017 -1.949488
5.589790 -4.055112 -1.964183
6.166539 -4.468029 -1.978658
6.831452 -4.942463 -1.984128
7.656015 -5.532848 -1.995081
8.744822 -6.312268 -2.020166
10.140459 -7.242371 -2.036288
12.147282 -8.662098 -2.086264
15.547248 -11.071011 -2.217990
23.323914 -16.578581 -2.657146
29.266201 -20.788445 -2.496515
0.004793 -0.087910 -0.002314
0.004793 -0.087910 -0.002314
0.004793 -0.087910 -0.002314
0.004793 -0.087910 -0.002314
0.004793 -0.087910 -0.002314
0.004793 -0.087910 -0.002314
0.004793 -0.087910 -0.002314
0.004793 -0.087910 -0.002314
0.004793 -0.087910 -0.002314
0.004793 -0.087910 -0.002314
0.004793 -0.087910 -0.002314
0.494814 -0.437729 -0.359169
0.477210 -0.425416 -0.328344
2.862357 -2.131063 -1.868677
3.031574 -2.253645 -1.869415
3.238682 -2.403559 -1.883418
3.465583 -2.567872 -1.896259
3.708485 -2.742899 -1.903984
3.990953 -2.947515 -1.916097
4.316603 -3.183413 -1.932241
4.652946 -3.426122 -1.933877
5.079473 -3.735135 -1.950080
5.574004 -4.093511 -1.966933
6.158525 -4.515581 -1.984219
6.808899 -4.987133 -1.985967
7.637933 -5.588130 -1.998816
8.718969 -6.371735 -2.022752
10.105602 -7.304867 -2.037582
12.099534 -8.735923 -2.086820
15.485482 -11.161068 -2.218222
23.351831 -16.800161 -2.671219
29.092873 -20.925072 -2.492219
0.004759 -0.087708 -0.002308
0.004759 -0.087708 -0.002308
0.004759 -0.087708 -0.002308
0.004759 -0.087708 -0.002308
0.004759 -0.087708 -0.002308
0.004759 -0.087708 -0.002308
0.004759 -0.087708 -0.002308
0.004759 -0.087708 -0.002308
0.004759 -0.087708 -0.002308
0.004759 -0.087708 -0.002308
0.004759 -0.087708 -0.002308
0.492720 -0.440421 -0.359164
0.492138 -0.440274 -0.340088
2.850198 -2.147740 -1.868672
3.021568 -2.273420 -1.871204
3.227844 -2.424582 -1.885125
3.447887 -2.585964 -1.894630
3.692681 -2.764574 -1.903980
3.964907 -2.964284 -1.911732
4.293640 -3.205360 -1.930188
4.633110 -3.453374 -1.933874
5.057785 -3.764904 -1.950077
5.564166 -4.136390 -1.971886
6.129091 -4.549447 -1.983206
6.787629 -5.032852 -1.988267
7.603659 -5.631864 -1.998400
8.724466 -6.454299 -2.032731
10.075473 -7.373582 -2.040169
12.049727 -8.808323 -2.087098
15.411629 -11.246482 -2.217068
23.267015 -16.948385 -2.672891
28.946394 -21.080286 -2.490283
0.004756 -0.087506 -0.002303
0.004756 -0.087506 -0.002303
0.004756 -0.087506 -0.002303
0.004756 -0.087506 -0.002303
0.004756 -0.087506 -0.002303
0.004756 -0.087506 -0.002303
0.004756 -0.087506 -0.002303
0.004756 -0.087506 -0.002303
0.004756 -0.087506 -0.002303
0.004756 -0.087506 -0.002303
0.004756 -0.087506 -0.002303
0.489331 -0.441910 -0.358139
0.491579 -0.443807 -0.341062
2.842947 -2.166478 -1.871484
3.012216 -2.292094 -1.872994
3.210399 -2.439080 -1.882556
3.435386 -2.605977 -1.895439
3.679196 -2.785958 -1.904747
3.968324 -3.000433 -1.921178
4.285278 -3.235677 -1.934285
4.614284 -3.478893 -1.933871
5.040273 -3.795048 -1.951264
5.535321 -4.162522 -1.969681
6.110339 -4.587872 -1.985226
6.761547 -5.071504 -1.988726
7.575793 -5.676216 -1.999228
8.718909 -6.524752 -2.039753
10.047482 -7.438681 -2.042758
11.981773 -8.861025 -2.083766
0.004753 -0.087300 -0.002298
23.219294 -17.111637 -2.678265
28.795237 -21.216167 -2.487376
0.004753 -0.087300 -0.002298
54.183056 -39.891411 -1.540418
0.004753 -0.087300 -0.002298
0.004753 -0.087300 -0.002298
0.004753 -0.087300 -0.002298
0.004753 -0.087300 -0.002298
0.004753 -0.087300 -0.002298
0.004753 -0.087300 -0.002298
0.004753 -0.087300 -0.002298
0.004753 -0.087300 -0.002298
0.004753 -0.087300 -0.002298
0.485852 -0.443550 -0.357115
0.499246 -0.453752 -0.347911
2.829154 -2.181986 -1.870541
3.001994 -2.311785 -1.874784
3.197862 -2.458890 -1.883408
3.419375 -2.624352 -1.894623
3.666117 -2.809660 -1.906284
3.939053 -3.014742 -1.915360
4.261085 -3.255522 -1.931548
4.598673 -3.509311 -1.935787
5.019767 -3.825726 -1.951857
5.522598 -4.202072 -1.973533
6.089788 -4.628362 -1.987247
6.739031 -5.114692 -1.990566
7.543541 -5.719416 -1.999227
8.677035 -6.570971 -2.038643
10.002166 -7.496622 -2.042434
11.923224 -8.923583 -2.082379
15.229721 -11.383283 -2.209440
23.198048 -17.307907 -2.687526
28.620518 -21.341757 -2.482803
0.004719 -0.087103 -0.002292
0.004719 -0.087103 -0.002292
0.004719 -0.087103 -0.002292
0.004719 -0.087103 -0.002292
0.004719 -0.087103 -0.002292
0.004719 -0.087103 -0.002292
0.004719 -0.087103 -0.002292
0.004719 -0.087103 -0.002292
0.004719 -0.087103 -0.002292
0.004719 -0.087103 -0.002292
0.004719 -0.087103 -0.002292
0.475512 -0.439910 -0.350992
0.498507 -0.457434 -0.348885
2.817075 -2.197971 -1.870538
2.990588 -2.329836 -1.875678
3.184168 -2.476988 -1.883404
3.404724 -2.643720 -1.894619
3.645962 -2.827116 -1.903970
3.938529 -3.049419 -1.923352
4.254797 -3.288767 -1.937012
4.580432 -3.536584 -1.936424
5.004307 -3.858871 -1.954235
5.497334 -4.232340 -1.972980
6.068241 -4.666536 -1.988763
6.720888 -5.161305 -1.993788
7.512603 -5.763609 -1.999640
8.619279 -6.605064 -2.033838
9.965741 -7.558467 -2.043728
11.876989 -8.995270 -2.083212
15.167754 -11.472743 -2.209905
23.093945 -17.437073 -2.686977
0.004716 -0.086900 -0.002287
0.004716 -0.086900 -0.002287
0.004716 -0.086900 -0.002287
0.004716 -0.086900 -0.002287
0.004716 -0.086900 -0.002287
0.004716 -0.086900 -0.002287
0.004716 -0.086900 -0.002287
0.004716 -0.086900 -0.002287
0.004716 -0.086900 -0.002287
0.004716 -0.086900 -0.002287
0.004716 -0.086900 -0.002287
0.004716 -0.086900 -0.002287
0.474830 -0.443448 -0.352007
0.507500 -0.468498 -0.356713
2.807710 -2.216025 -1.872411
2.976219 -2.345665 -1.874777
3.168930 -2.493916 -1.882545
3.392441 -2.665812 -1.896242
3.633084 -2.850022 -1.905507
3.912524 -3.064989 -1.918987
4.228297 -3.307962 -1.933592
4.560515 -3.562608 -1.936420
4.985583 -3.889644 -1.955423
5.472692 -4.264574 -1.972978
6.044890 -4.703442 -1.989773
6.693802 -5.203133 -1.994706
7.488179 -5.814882 -2.002130
8.575830 -6.652153 -2.032727
9.927382 -7.618945 -2.044699
11.822470 -9.063989 -2.082935
15.114737 -11.569077 -2.211758
22.946329 -17.533062 -2.681431
0.004713 -0.086698 -0.002282
0.004713 -0.086698 -0.002282
0.004713 -0.086698 -0.002282
0.004713 -0.086698 -0.002282
0.004713 -0.086698 -0.002282
0.004713 -0.086698 -0.002282
0.004713 -0.086698 -0.002282
0.004713 -0.086698 -0.002282
0.004713 -0.086698 -0.002282
0.004713 -0.086698 -0.002282
0.004713 -0.086698 -0.002282
0.004713 -0.086698 -0.002282
0.471350 -0.444973 -0.350983
0.494135 -0.462764 -0.348875
2.793638 -2.231301 -1.871469
2.961367 -2.361921 -1.873877
3.157475 -2.514605 -1.884252
3.377544 -2.685027 -1.896238
3.616661 -2.871245 -1.905504
3.897792 -3.090142 -1.920439
4.217141 -3.337710 -1.937006
4.544351 -3.592786 -1.938336
4.962969 -3.918859 -1.955420
5.454655 -4.300418 -1.975178
6.023571 -4.743646 -1.991794
6.670457 -5.246036 -1.996547
7.458249 -5.859969 -2.002959
8.530203 -6.695059 -2.030879
9.885741 -7.679748 -2.045346
11.767536 -9.129113 -2.082381
15.084263 -11.687184 -2.217311
22.893145 -17.707228 -2.687361
0.004710 -0.086496 -0.002277
0.004710 -0.086496 -0.002277
0.004710 -0.086496 -0.002277
0.004710 -0.086496 -0.002277
0.004710 -0.086496 -0.002277
0.004710 -0.086496 -0.002277
0.004710 -0.086496 -0.002277
0.004710 -0.086496 -0.002277
0.004710 -0.086496 -0.002277
0.004710 -0.086496 -0.002277
0.004710 -0.086496 -0.002277
0.004710 -0.086496 -0.002277
0.469252 -0.447448 -0.350977
0.491978 -0.465370 -0.348871
2.782669 -2.248165 -1.872404
2.953883 -2.383056 -1.877461
3.143472 -2.532475 -1.884249
3.366886 -2.707525 -1.898674
3.603506 -2.894017 -1.907041
3.878980 -3.111107 -1.919708
4.199871 -3.362810 -1.937687
4.525617 -3.619773 -1.938973
4.946863 -3.951780 -1.957798
5.442477 -4.340934 -1.979581
6.008895 -4.787488 -1.995839
6.648365 -5.290042 -1.998848
7.440353 -5.914558 -2.007111
8.492084 -6.743723 -2.030879
9.845046 -7.738605 -2.045993
11.737274 -9.213364 -2.086270
14.993838 -11.755115 -2.213845
22.832363 -17.870045 -2.692182
0.004676 -0.086298 -0.002271
0.004676 -0.086298 -0.002271
0.004676 -0.086298 -0.002271
68.025414 -53.191689 0.026704
0.004676 -0.086298 -0.002271
0.004676 -0.086298 -0.002271
0.004676 -0.086298 -0.002271
0.004676 -0.086298 -0.002271
0.004676 -0.086298 -0.002271
0.004676 -0.086298 -0.002271
0.004676 -0.086298 -0.002271
0.004676 -0.086298 -0.002271
0.473925 -0.455227 -0.356070
0.489761 -0.467961 -0.348865
2.767413 -2.261700 -1.870524
2.940624 -2.399758 -1.877457
3.125110 -2.546902 -1.881680
3.348894 -2.724332 -1.897045
3.588741 -2.915585 -1.907808
3.876143 -3.144662 -1.926974
4.183907 -3.388984 -1.939050
4.503744 -3.644305 -1.938331
4.924567 -3.979905 -1.957796
5.426971 -4.379059 -1.982883
5.986334 -4.825304 -1.997355
6.610729 -5.321876 -1.996545
7.412871 -5.961838 -2.008770
8.444456 -6.784836 -2.028661
9.797811 -7.792367 -2.045346
11.695553 -9.288985 -2.088215
14.921866 -11.837138 -2.213154
22.808001 -18.062330 -2.701445
32.127155 -25.417841 -2.849123
0.004673 -0.086096 -0.002266
0.004673 -0.086096 -0.002266
65.950523 -52.184116 0.025915
0.004673 -0.086096 -0.002266
0.004673 -0.086096 -0.002266
0.004673 -0.086096 -0.002266
0.004673 -0.086096 -0.002266
0.004673 -0.086096 -0.002266
0.004673 -0.086096 -0.002266
0.004673 -0.086096 -0.002266
0.004673 -0.086096 -0.002266
0.470443 -0.456645 -0.355046
0.498482 -0.479232 -0.356694
2.761750 -2.282837 -1.875211
2.930053 -2.418610 -1.879246
3.109498 -2.563455 -1.880822
3.333657 -2.743293 -1.897041
3.573883 -2.937074 -1.908576
3.841044 -3.152686 -1.918249
4.158998 -3.408039 -1.936315
4.489147 -3.674623 -1.940887
4.906568 -4.011481 -1.959578
5.405207 -4.412336 -1.983982
5.966523 -4.865438 -1.999882
6.585084 -5.363189 -1.997925
7.394241 -6.016344 -2.012922
8.402773 -6.830547 -2.027922
9.758001 -7.851982 -2.046318
11.592877 -9.316303 -2.079330
14.838567 -11.910057 -2.210845
22.747948 -18.227602 -2.706637
0.004670 -0.085894 -0.002262
0.004670 -0.085894 -0.002262
0.004670 -0.085894 -0.002262
0.004670 -0.085894 -0.002262
0.004670 -0.085894 -0.002262
0.004670 -0.085894 -0.002262
0.004670 -0.085894 -0.002262
0.004670 -0.085894 -0.002262
0.004670 -0.085894 -0.002262
0.004670 -0.085894 -0.002262
0.004670 -0.085894 -0.002262
0.004670 -0.085894 -0.002262
0.458926 -0.451560 -0.347904
0.489393 -0.476389 -0.351793
2.750473 -2.299542 -1.876147
2.913829 -2.432929 -1.877450
3.095186 -2.581047 -1.880818
3.313605 -2.759304 -1.894599
3.554562 -2.955006 -1.907032
3.829151 -3.179157 -1.921154
4.142157 -3.434730 -1.937678
4.471381 -3.702509 -1.942164
4.883932 -4.039371 -1.959576
5.373534 -4.439183 -1.981778
5.941972 -4.901843 -2.000893
6.556735 -5.404295 -1.998844
7.362033 -6.062243 -2.013751
8.358110 -6.876216 -2.026813
9.713217 -7.907682 -2.046318
11.528781 -9.377074 -2.077666
14.764216 -11.989886 -2.209924
22.737850 -18.434050 -2.717937
0.004667 -0.085692 -0.002257
0.004667 -0.085692 -0.002257
0.004667 -0.085692 -0.002257
66.462440 -53.858932 0.026331
0.004667 -0.085692 -0.002257
0.004667 -0.085692 -0.002257
