# This PCD file was generated using the MATLAB® pcwrite function
# from Computer Vision Toolbox®.
# .PCD v.7 - Point Cloud Data file format
VERSION .7
FIELDS x y z
SIZE 4 4 4
TYPE F F F
COUNT 1 1 1
WIDTH 1624
HEIGHT 1
VIEWPOINT 0 0 0 1 0 0 0
POINTS 1624
DATA ascii
12.024856 -4.906046 -2.132286
14.836425 -6.037057 -2.251199
19.796017 -8.027565 -2.496293
37.484215 -15.131020 -3.777717
42.345291 -17.098352 -3.201655
74.057083 -29.847450 -3.739062
0.003363 -0.096198 -0.002547
70.994621 -28.675459 -0.016728
71.063423 -28.717957 1.761851
0.003363 -0.096198 -0.002547
55.487362 -22.489832 4.170208
53.627983 -21.761450 5.382442
0.003363 -0.096198 -0.002547
0.003363 -0.096198 -0.002547
50.435543 -20.523705 8.926673
52.109921 -21.212790 10.579560
2.928696 -1.285705 -1.876188
3.073000 -1.345670 -1.865525
3.251010 -1.418817 -1.867935
3.453858 -1.502876 -1.874292
3.678419 -1.595956 -1.882313
3.927286 -1.698351 -1.890587
4.181449 -1.803869 -1.888870
4.487772 -1.930938 -1.895613
4.843410 -2.077480 -1.907198
5.243477 -2.243426 -1.917256
5.734874 -2.447178 -1.936903
6.338202 -2.696005 -1.967458
6.966521 -2.956769 -1.974747
7.782516 -3.293647 -1.997063
8.844215 -3.733725 -2.036452
10.176269 -4.286026 -2.077556
12.010741 -4.982952 -2.134887
14.813012 -6.126554 -2.252878
19.770720 -8.153516 -2.499091
37.482960 -15.388788 -3.786679
42.291115 -17.359501 -3.205040
74.476784 -30.529678 -3.769330
69.227066 -28.412952 -1.752900
71.419533 -29.324757 -0.016899
71.460571 -29.371069 1.775933
0.003332 -0.095993 -0.002541
54.152309 -22.313820 4.079310
0.003332 -0.095993 -0.002541
52.625034 -21.730679 6.640199
48.187420 -19.916317 7.309923
50.038013 -20.698250 8.877086
51.911175 -21.491030 10.564725
2.923363 -1.302968 -1.877205
3.072195 -1.365772 -1.869442
3.248227 -1.439299 -1.870749
3.439115 -1.519763 -1.870700
3.661373 -1.613405 -1.878031
3.918006 -1.720697 -1.890586
4.161327 -1.823427 -1.884241
4.473698 -1.955072 -1.894156
4.837154 -2.107255 -1.909251
5.241529 -2.277702 -1.921098
5.735326 -2.485778 -1.941670
6.317797 -2.729977 -1.965802
6.949953 -2.996575 -1.974748
7.769389 -3.340391 -1.998449
8.833989 -3.788846 -2.038952
10.164693 -4.349581 -2.080154
11.991547 -5.055504 -2.136515
14.794543 -6.218251 -2.255393
19.753407 -8.279043 -2.502819
36.424999 -15.201856 -3.688598
36.559692 -15.265398 -2.777580
74.907501 -31.209454 -3.800159
0.003331 -0.095793 -0.002536
71.798676 -29.962980 -0.017061
71.887184 -30.029638 1.790757
0.003331 -0.095793 -0.002536
52.375542 -21.937363 3.954743
0.003331 -0.095793 -0.002536
51.027901 -21.417727 6.453925
0.003331 -0.095793 -0.002536
0.003331 -0.095793 -0.002536
48.208717 -20.289894 9.834436
2.924317 -1.322878 -1.882306
3.063239 -1.382529 -1.868460
3.235558 -1.455688 -1.867929
3.437442 -1.542076 -1.874288
3.654242 -1.634924 -1.878885
3.911646 -1.745084 -1.892210
4.154708 -1.848549 -1.885781
4.474926 -1.985630 -1.899249
4.825121 -2.135664 -1.909249
5.237585 -2.311285 -1.924299
5.719734 -2.517765 -1.941074
6.287909 -2.761148 -1.961389
6.943817 -3.040814 -1.977788
7.776858 -3.397568 -2.005371
8.793936 -3.833259 -2.034792
10.139297 -4.409525 -2.080158
11.971927 -5.128005 -2.138143
14.759823 -6.306370 -2.255679
19.729820 -8.402328 -2.505850
36.341171 -15.412437 -3.688994
38.377190 -16.286623 -2.922807
0.003331 -0.095592 -0.002531
0.003331 -0.095592 -0.002531
72.220886 -30.641710 -0.017235
72.273628 -30.679277 1.804704
72.308990 -30.724401 3.644658
53.957142 -22.973034 4.084382
52.136906 -22.222975 5.270527
50.588093 -21.576307 6.413767
0.003331 -0.095592 -0.002531
46.003933 -19.668076 8.201099
48.616230 -20.789856 9.941684
2.920147 -1.341318 -1.884344
3.049139 -1.397698 -1.864537
3.225794 -1.473921 -1.866987
3.423876 -1.560095 -1.871592
3.642004 -1.654274 -1.877171
3.898723 -1.765896 -1.890580
4.145938 -1.873648 -1.886551
4.469097 -2.013321 -1.901430
4.813315 -2.163169 -1.909248
5.229969 -2.343403 -1.926220
5.719711 -2.556441 -1.945841
6.275995 -2.798570 -1.962491
6.926745 -3.080482 -1.977788
7.761332 -3.443570 -2.006296
8.781905 -3.885901 -2.036873
10.118658 -4.467344 -2.080900
11.943699 -5.199420 -2.138472
14.742045 -6.398727 -2.258472
19.722239 -8.536867 -2.511204
36.577381 -15.767706 -3.722340
38.279743 -16.505295 -2.922551
75.789299 -32.618164 -3.863969
0.003330 -0.095391 -0.002526
72.622818 -31.305126 -0.017404
72.686218 -31.362823 1.819570
0.003330 -0.095391 -0.002526
0.003330 -0.095391 -0.002526
52.157143 -22.575443 5.285144
50.213818 -21.758871 6.381961
0.003330 -0.095391 -0.002526
49.419659 -21.447464 8.831320
47.733303 -20.738861 9.785172
2.913132 -1.357364 -1.884340
3.045016 -1.415853 -1.866494
3.226135 -1.495191 -1.871680
3.414001 -1.578233 -1.870692
3.642907 -1.679307 -1.882304
3.884017 -1.785888 -1.888137
4.147772 -1.901685 -1.891946
4.454584 -2.037290 -1.899974
0.003329 -0.095191 -0.002521
5.230836 -2.379295 -1.931343
0.003329 -0.095191 -0.002521
6.263871 -2.835949 -1.963595
6.916567 -3.123163 -1.979817
7.745477 -3.489496 -2.007219
8.764664 -3.940019 -2.038124
10.096182 -4.528595 -2.081645
11.916823 -5.266516 -2.138798
14.710978 -6.485562 -2.259313
19.685753 -8.651257 -2.512606
36.336037 -15.904504 -3.706724
38.186546 -16.725771 -2.922714
76.251389 -33.321045 -3.896944
0.003329 -0.095191 -0.002521
73.054306 -31.989370 -0.017580
73.120834 -32.034012 1.834857
54.580250 -23.958189 2.763990
53.275497 -23.410149 4.052729
51.767647 -22.772039 5.259150
0.003329 -0.095191 -0.002521
0.003329 -0.095191 -0.002521
47.351498 -20.887465 8.483453
0.003329 -0.095191 -0.002521
2.910325 -1.376471 -1.887399
3.045092 -1.437172 -1.871390
3.216165 -1.513354 -1.870738
3.414935 -1.602551 -1.876075
3.633437 -1.700645 -1.882301
3.879233 -1.810199 -1.890576
4.131945 -1.923774 -1.889631
4.444685 -2.064188 -1.900699
4.821830 -2.232438 -1.922249
5.220665 -2.411573 -1.932623
5.714984 -2.633482 -1.954185
6.247997 -2.871712 -1.963594
6.900248 -3.164666 -1.980323
7.734708 -3.537726 -2.009526
8.742393 -3.990145 -2.038125
0.003298 -0.094985 -0.002515
11.893180 -5.340011 -2.140101
14.683032 -6.573848 -2.260713
19.671057 -8.783606 -2.517264
9.795945 -4.425217 -1.003503
0.003298 -0.094985 -0.002515
76.672394 -34.046345 -3.928710
0.003298 -0.094985 -0.002515
73.546097 -32.708786 -0.017768
73.546143 -32.739925 1.850322
54.538280 -24.325609 2.769057
0.003298 -0.094985 -0.002515
49.838799 -22.269352 5.075936
50.006428 -22.365131 6.388155
47.639133 -21.321014 7.316714
48.835297 -21.874720 8.771666
45.696053 -20.493948 9.415548
2.902872 -1.392964 -1.887395
3.032553 -1.452310 -1.868448
3.201503 -1.528721 -1.866978
3.394786 -1.616829 -1.869788
3.624131 -1.721298 -1.882298
3.870986 -1.833014 -1.891388
4.126392 -1.949563 -1.891943
4.443452 -2.094089 -1.905064
4.809441 -2.259918 -1.922247
0.003297 -0.094785 -0.002510
5.693338 -2.662955 -1.951800
6.238906 -2.910547 -1.965799
6.893037 -3.208863 -1.983364
7.700586 -3.575525 -2.005835
8.723413 -4.041763 -2.038959
9.759847 -4.515044 -2.022711
0.003297 -0.094785 -0.002510
14.647332 -6.658784 -2.260998
0.003297 -0.094785 -0.002510
0.003297 -0.094785 -0.002510
0.003297 -0.094785 -0.002510
9.807658 -4.504070 -0.505885
0.003297 -0.094785 -0.002510
0.003297 -0.094785 -0.002510
0.003297 -0.094785 -0.002510
0.003297 -0.094785 -0.002510
0.003297 -0.094785 -0.002510
52.056866 -23.615667 5.315634
52.603355 -23.885006 6.737401
0.003297 -0.094785 -0.002510
48.525848 -22.071951 8.738601
45.565434 -20.750521 9.412932
2.898476 -1.410846 -1.889433
3.035789 -1.474564 -1.875305
3.201236 -1.550549 -1.871672
3.400623 -1.642782 -1.877866
3.609798 -1.739651 -1.879729
3.867248 -1.858741 -1.894641
4.113976 -1.972280 -1.891169
0.003296 -0.094584 -0.002505
4.798209 -2.288940 -1.922929
5.200550 -2.474190 -1.935183
5.681917 -2.697027 -1.952990
6.222120 -2.947253 -1.965800
6.878528 -3.249854 -1.984377
7.681599 -3.621695 -2.006298
8.710508 -4.098069 -2.041457
0.003296 -0.094584 -0.002505
0.003296 -0.094584 -0.002505
0.003296 -0.094584 -0.002505
0.003296 -0.094584 -0.002505
0.003296 -0.094584 -0.002505
9.668020 -4.505988 -0.747438
0.003296 -0.094584 -0.002505
9.768594 -4.558172 -0.253839
0.003296 -0.094584 -0.002505
74.462059 -34.176670 1.883053
0.003296 -0.094584 -0.002505
52.211803 -24.036701 4.002817
47.346737 -21.825903 4.847456
0.003296 -0.094584 -0.002505
47.787521 -22.059048 7.378364
50.894127 -23.508827 9.190034
45.733337 -21.144333 9.472463
2.887507 -1.426338 -1.887389
3.024389 -1.490850 -1.873342
3.200539 -1.572980 -1.876365
3.388128 -1.661188 -1.876067
3.611435 -1.766110 -1.885718
3.860019 -1.882944 -1.896266
4.117808 -2.003394 -1.898107
4.416431 -2.143837 -1.903605
4.791933 -2.320287 -1.925665
5.194918 -2.508740 -1.938384
5.668127 -2.731240 -1.953586
6.206837 -2.984669 -1.966351
6.859696 -3.290344 -1.984377
7.664057 -3.668576 -2.007220
8.711434 -4.160988 -2.047285
9.525134 -4.545081 -1.984904
9.544513 -4.503566 -1.731417
0.003295 -0.094384 -0.002500
0.003295 -0.094384 -0.002500
9.646677 -4.561152 -0.996062
9.688785 -4.584805 -0.751078
0.003295 -0.094384 -0.002500
9.760098 -4.624183 -0.254309
0.003295 -0.094384 -0.002500
74.895172 -34.912991 1.899162
0.003295 -0.094384 -0.002500
51.010983 -23.852663 3.921392
46.412148 -21.730591 4.764738
50.282223 -23.545811 6.474569
47.161194 -22.110382 7.301615
0.003295 -0.094384 -0.002500
44.746010 -21.011868 9.293391
2.876687 -1.441242 -1.885345
3.014713 -1.507256 -1.872359
3.180794 -1.585890 -1.869787
3.382298 -1.681947 -1.877860
3.602056 -1.786003 -1.885715
3.856603 -1.907334 -1.899519
4.106761 -2.026826 -1.898105
4.420068 -2.175355 -1.910152
4.779446 -2.346756 -1.925663
5.189953 -2.541500 -1.941586
5.656775 -2.764219 -1.954777
6.197554 -3.022302 -1.968555
6.850503 -3.332462 -1.986911
7.652815 -3.715208 -2.009529
8.687551 -4.206931 -2.046868
9.971572 -4.819339 -2.083136
9.547588 -4.571577 -1.736613
9.451570 -4.528596 -1.471382
9.537817 -4.573193 -1.234571
9.629838 -4.620573 -0.996994
9.706894 -4.658926 -0.754435
9.680495 -4.650688 -0.503364
9.723826 -4.673209 -0.254029
0.003295 -0.094179 -0.002495
0.003295 -0.094179 -0.002495
54.678223 -25.908981 2.805481
50.558399 -23.985655 3.896740
0.003295 -0.094179 -0.002495
50.161438 -23.830730 6.475934
47.080658 -22.393169 7.308261
0.003295 -0.094179 -0.002495
44.577160 -21.236422 9.282640
2.883080 -1.463693 -1.894526
3.008353 -1.524582 -1.873335
3.183559 -1.608700 -1.876358
3.379821 -1.703643 -1.881448
3.590619 -1.805697 -1.884856
3.841157 -1.926903 -1.897075
4.094256 -2.048689 -1.897332
4.424838 -2.208566 -1.917429
4.773175 -2.377236 -1.928398
5.175767 -2.571091 -1.941584
5.644759 -2.798144 -1.955968
6.190991 -3.062667 -1.971864
6.835249 -3.373268 -1.987924
7.642372 -3.764002 -2.012297
8.664791 -4.258973 -2.047286
9.957541 -4.884945 -2.086103
11.757023 -5.688055 -2.143688
9.420519 -4.580104 -1.470546
9.763757 -4.745752 -1.267101
9.669127 -4.704853 -1.003697
9.759692 -4.752284 -0.760593
0.003264 -0.093974 -0.002489
0.003264 -0.093974 -0.002489
0.003264 -0.093974 -0.002489
0.003264 -0.093974 -0.002489
0.003264 -0.093974 -0.002489
51.319607 -24.707245 3.966275
46.968315 -22.640617 4.847747
51.528255 -24.841057 6.670716
47.103355 -22.736298 7.331861
46.993267 -22.703833 8.554533
0.003264 -0.093974 -0.002489
2.891946 -1.488768 -1.905749
2.995079 -1.539884 -1.870391
3.179290 -1.629628 -1.879173
3.371811 -1.724200 -1.882342
3.586916 -1.829878 -1.888278
3.833825 -1.950342 -1.898700
4.087559 -2.075113 -1.899642
4.403825 -2.230461 -1.913787
4.766718 -2.407718 -1.931134
5.155872 -2.599014 -1.939660
5.632047 -2.832999 -1.957158
6.173820 -3.098012 -1.971864
6.820914 -3.416040 -1.989445
7.628120 -3.811089 -2.014143
8.654733 -4.315381 -2.050615
9.935111 -4.944510 -2.087217
11.723650 -5.757411 -2.143691
14.469089 -7.087283 -2.263809
0.003263 -0.093773 -0.002484
0.003263 -0.093773 -0.002484
0.003263 -0.093773 -0.002484
35.803589 -17.456215 -1.865687
0.003263 -0.093773 -0.002484
35.923512 -17.537991 -0.010207
36.010338 -17.595881 0.919269
0.003263 -0.093773 -0.002484
0.003263 -0.093773 -0.002484
46.925594 -22.952896 4.856804
51.555687 -25.231077 6.693413
0.003263 -0.093773 -0.002484
0.003263 -0.093773 -0.002484
48.699627 -23.891857 10.198518
2.869955 -1.498344 -1.896560
3.000813 -1.563783 -1.879209
3.162476 -1.643783 -1.874474
3.363986 -1.744140 -1.883237
3.584965 -1.854249 -1.892554
3.836189 -1.978592 -1.905208
4.081061 -2.100818 -1.901954
4.398137 -2.258828 -1.916696
4.749937 -2.433213 -1.929762
5.151584 -2.633442 -1.943503
5.621342 -2.867666 -1.958946
6.158146 -3.134104 -1.972414
6.808617 -3.458427 -1.991471
7.611833 -3.857272 -2.015527
8.633832 -4.366612 -2.051450
9.908822 -5.002228 -2.087590
11.682008 -5.820185 -2.142070
14.442843 -7.177151 -2.266043
19.376768 -9.606065 -2.526848
0.003262 -0.093573 -0.002479
9.404645 -4.715914 -0.737091
47.168098 -23.303596 -2.464078
0.003262 -0.093573 -0.002479
0.003262 -0.093573 -0.002479
0.003262 -0.093573 -0.002479
35.875462 -17.801668 1.855328
51.483902 -25.518127 4.001277
48.184006 -23.909605 5.001204
50.842270 -25.245953 6.619403
44.798481 -22.265785 7.012154
43.460178 -21.622492 7.955670
0.003262 -0.093573 -0.002479
2.878784 -1.523039 -1.907784
2.986035 -1.577690 -1.875285
3.159832 -1.664879 -1.878228
3.359237 -1.765635 -1.885928
3.576401 -1.875430 -1.893408
3.833118 -2.005157 -1.909275
0.003261 -0.093372 -0.002474
4.390600 -2.286372 -1.918877
4.742716 -2.464468 -1.932499
5.143656 -2.666201 -1.946063
5.613817 -2.904009 -1.961925
6.150319 -3.175496 -1.975722
6.796047 -3.500785 -1.993497
7.598080 -3.906460 -2.017834
8.606599 -4.416606 -2.051034
9.883045 -5.062407 -2.088332
11.670067 -5.897607 -2.145968
14.418324 -7.271223 -2.268835
19.319954 -9.716249 -2.526623
0.003261 -0.093372 -0.002474
33.917603 -17.018190 -2.660311
47.071339 -23.593023 -2.466067
0.003261 -0.093372 -0.002474
0.003261 -0.093372 -0.002474
0.003261 -0.093372 -0.002474
51.698269 -25.983143 2.682425
51.298435 -25.805567 3.998604
51.326012 -25.842085 5.343232
49.462841 -24.918398 6.458196
44.576023 -22.485296 6.997954
44.971645 -22.703953 8.256833
44.965389 -22.710875 9.470091
2.873298 -1.541398 -1.909820
2.977174 -1.595138 -1.875281
3.150448 -1.683356 -1.878225
3.352436 -1.786904 -1.887720
3.569317 -1.897384 -1.895118
3.818781 -2.025302 -1.907644
4.072140 -2.155407 -1.908890
4.381250 -2.313059 -1.920332
4.723958 -2.488938 -1.930443
5.127075 -2.694669 -1.945421
5.600961 -2.937762 -1.963115
6.139349 -3.214088 -1.977928
6.769440 -3.536090 -1.991470
7.579493 -3.951649 -2.018757
8.573621 -4.459879 -2.048952
9.858663 -5.119018 -2.089073
11.637210 -5.967334 -2.146295
14.394492 -7.362748 -2.271627
19.266115 -9.832149 -2.527095
0.003261 -0.093171 -0.002469
0.003261 -0.093171 -0.002469
0.003261 -0.093171 -0.002469
51.006737 -25.947830 -1.341236
0.003261 -0.093171 -0.002469
77.737732 -39.567341 2.004631
51.099640 -26.051805 2.659019
48.250820 -24.625954 3.771806
47.803917 -24.409466 4.990400
49.050167 -25.065248 6.422918
44.972363 -23.009062 7.080763
43.839123 -22.441441 8.071567
0.003261 -0.093171 -0.002469
0.523868 -0.359328 -0.349440
2.973407 -1.613888 -1.878219
3.150949 -1.705513 -1.883857
3.354058 -1.811067 -1.894001
3.560456 -1.918490 -1.895970
3.815719 -2.051189 -1.911710
4.068755 -2.182084 -1.912742
4.370033 -2.338850 -1.921056
4.720131 -2.521010 -1.934548
5.117062 -2.726496 -1.947340
5.589589 -2.972337 -1.964902
6.126410 -3.251773 -1.979582
6.758094 -3.579182 -1.994002
7.569252 -4.001212 -2.021987
8.557997 -4.515782 -2.051449
9.835675 -5.180748 -2.090557
11.606030 -6.032830 -2.146622
14.338335 -7.437977 -2.269401
19.207973 -9.937417 -2.526637
0.003230 -0.092966 -0.002463
33.860859 -17.478785 -2.671395
80.941833 -41.673050 -4.263732
0.003230 -0.092966 -0.002463
0.003230 -0.092966 -0.002463
49.297131 -25.471575 1.273908
50.244446 -25.981750 2.622160
51.492218 -26.647734 4.037227
56.188210 -29.094753 5.883972
49.399937 -25.601936 6.487830
48.047337 -24.924946 7.587458
43.930309 -22.816683 8.112996
45.505203 -23.641708 9.640210
0.523796 -0.363003 -0.350456
2.967431 -1.632870 -1.880175
3.139763 -1.723127 -1.882915
3.346977 -1.832344 -1.895793
3.557604 -1.943516 -1.900248
3.807624 -2.074572 -1.913334
4.053034 -2.204234 -1.911198
4.358307 -2.365355 -1.921782
4.709385 -2.549639 -1.935913
5.104705 -2.758308 -1.948619
5.570725 -3.004305 -1.964304
6.099624 -3.282287 -1.976822
6.739025 -3.619849 -1.994508
7.553550 -4.048078 -2.023833
8.530685 -4.563805 -2.051033
9.809745 -5.238843 -2.091300
11.565369 -6.098556 -2.145650
14.292307 -7.518277 -2.268846
19.147507 -10.049936 -2.526411
0.003229 -0.092766 -0.002458
34.193829 -17.898811 -2.705688
0.003229 -0.092766 -0.002458
0.003229 -0.092766 -0.002458
49.733540 -26.047684 -0.013467
51.068737 -26.767490 1.323823
50.180443 -26.326035 2.626864
51.596767 -27.078238 4.057512
0.003229 -0.092766 -0.002458
49.304195 -25.923508 6.495224
43.802395 -23.050861 6.937570
43.760429 -23.048573 8.105849
40.852528 -21.541451 8.680989
0.522239 -0.365791 -0.350451
2.961595 -1.651321 -1.882132
3.135002 -1.743410 -1.885729
3.332184 -1.848849 -1.893098
3.553279 -1.967103 -1.903669
3.794538 -2.095368 -1.912518
4.037558 -2.225569 -1.909653
4.350078 -2.392776 -1.923962
4.696835 -2.577346 -1.936596
5.095990 -2.790957 -1.951179
5.558939 -3.038765 -1.966091
6.089632 -3.321600 -1.979578
6.730581 -3.664685 -1.998055
7.525501 -4.088500 -2.022447
8.509997 -4.615332 -2.052282
9.785160 -5.297731 -2.092412
11.535866 -6.167520 -2.146626
14.252851 -7.601985 -2.269407
19.095179 -10.162460 -2.527114
0.003228 -0.092565 -0.002453
34.415436 -18.266401 -2.731444
0.003228 -0.092565 -0.002453
0.003228 -0.092565 -0.002453
0.003228 -0.092565 -0.002453
79.354385 -42.125343 2.064664
50.164639 -26.686050 2.633984
48.349129 -25.734598 3.813470
79.756454 -42.428734 8.403573
46.711117 -24.908104 6.172150
48.344406 -25.786938 7.680526
44.890907 -23.971666 8.340621
40.884651 -21.858969 8.714262
0.534302 -0.375860 -0.359631
2.952584 -1.668114 -1.882129
3.128559 -1.762860 -1.887604
3.333030 -1.873663 -1.899377
3.539224 -1.985583 -1.901952
3.779719 -2.115217 -1.910887
4.031713 -2.252026 -1.912734
4.336763 -2.417540 -1.923959
4.687420 -2.606768 -1.938646
5.078714 -2.819108 -1.950537
5.541875 -3.070468 -1.966088
6.081113 -3.361819 -1.982886
6.718442 -3.707709 -2.000589
7.493817 -4.126883 -2.020139
8.490739 -4.667700 -2.053947
9.761978 -5.357440 -2.093896
11.526834 -6.247497 -2.151497
14.205944 -7.681756 -2.268853
19.047441 -10.277528 -2.528514
0.003227 -0.092364 -0.002448
34.604050 -18.621113 -2.754823
0.003227 -0.092364 -0.002448
0.003227 -0.092364 -0.002448
50.808014 -27.356203 -0.013823
43.263424 -23.327156 1.127929
0.003227 -0.092364 -0.002448
43.498608 -23.483280 3.441166
0.003227 -0.092364 -0.002448
47.984200 -25.939236 6.359974
50.495529 -27.303696 8.047126
44.306419 -23.988447 8.257370
41.307068 -22.389505 8.831507
0.529623 -0.377069 -0.357585
2.940376 -1.683187 -1.880165
3.125110 -1.783974 -1.891358
3.319598 -1.890887 -1.897580
3.534626 -2.009140 -1.905373
3.777666 -2.141939 -1.915768
4.019225 -2.274961 -1.912732
4.324959 -2.443120 -1.924685
4.664619 -2.628977 -1.935221
5.066267 -2.849869 -1.951816
5.526328 -3.102990 -1.966682
6.060525 -3.395604 -1.982334
6.700929 -3.747926 -2.001601
7.473884 -4.171566 -2.021060
8.464256 -4.716239 -2.053946
9.724636 -5.409512 -2.092414
11.492971 -6.314416 -2.151823
14.177710 -7.771610 -2.271364
18.962345 -10.372492 -2.525035
0.003196 -0.092159 -0.002441
34.824776 -18.997627 -2.781001
0.003196 -0.092159 -0.002441
0.003196 -0.092159 -0.002441
0.003196 -0.092159 -0.002441
0.003196 -0.092159 -0.002441
0.003196 -0.092159 -0.002441
0.003196 -0.092159 -0.002441
47.713276 -26.126354 5.057395
0.003196 -0.092159 -0.002441
50.134834 -27.482340 8.014582
48.144058 -26.416718 9.000910
41.064358 -22.564209 8.807073
0.534004 -0.383201 -0.361662
2.935771 -1.702376 -1.883102
3.115311 -1.801702 -1.891355
3.318570 -1.914897 -1.902962
3.523551 -2.029224 -1.905371
3.769006 -2.165176 -1.917392
4.004974 -2.296933 -1.911957
4.314630 -2.469540 -1.926138
4.653231 -2.657359 -1.936588
5.053611 -2.880575 -1.953094
5.510577 -3.135429 -1.967276
6.046459 -3.432977 -1.983986
6.679771 -3.786189 -2.001600
7.450307 -4.214267 -2.021060
8.434103 -4.762735 -2.053113
9.705895 -5.471806 -2.095008
11.465613 -6.384941 -2.153446
14.141985 -7.857579 -2.272761
18.873299 -10.464900 -2.521090
0.003195 -0.091959 -0.002437
35.012581 -19.360937 -2.804799
49.218609 -27.202501 -2.633891
0.003195 -0.091959 -0.002437
48.219601 -26.685608 -0.013355
81.055756 -44.833626 2.128658
0.003195 -0.091959 -0.002437
0.003195 -0.091959 -0.002437
65.403023 -36.268700 6.955382
0.003195 -0.091959 -0.002437
49.461906 -27.485008 7.932007
43.025730 -23.940140 8.069176
40.932693 -22.798834 8.806687
0.530748 -0.385299 -0.360636
2.927675 -1.720368 -1.884077
3.111289 -1.823348 -1.895108
3.310829 -1.936049 -1.904754
3.513581 -2.050727 -1.906224
3.756646 -2.187251 -1.917389
4.007946 -2.329410 -1.919667
4.302082 -2.495753 -1.926863
4.641234 -2.686507 -1.937955
5.035350 -2.909328 -1.952451
5.494110 -3.168743 -1.967870
6.033251 -3.472288 -1.986191
6.661125 -3.827378 -2.002611
7.427413 -4.259073 -2.021519
8.402837 -4.810493 -2.052280
9.675555 -5.529972 -2.095379
11.435014 -6.456397 -2.154747
14.106071 -7.946804 -2.274436
18.853146 -10.599552 -2.526673
0.003195 -0.091751 -0.002431
35.277550 -19.779831 -2.835314
48.990799 -27.456448 -2.630358
48.567619 -27.242552 -1.305263
48.075138 -26.978472 -0.013381
0.003195 -0.091751 -0.002431
0.003195 -0.091751 -0.002431
0.003195 -0.091751 -0.002431
54.968094 -30.923061 5.864530
0.003195 -0.091751 -0.002431
50.094803 -28.224506 8.060119
43.083202 -24.306627 8.106724
44.434200 -25.086655 9.591995
0.535055 -0.391512 -0.364714
2.916739 -1.736103 -1.883094
3.096657 -1.838394 -1.892287
3.295470 -1.952202 -1.902057
3.502246 -2.070687 -1.906221
3.746104 -2.209503 -1.918199
3.985344 -2.346745 -1.915035
4.293015 -2.522991 -1.929043
4.627840 -2.713863 -1.938635
5.023996 -2.940828 -1.954371
5.479633 -3.201961 -1.969061
6.012029 -3.505766 -1.985638
6.644565 -3.868278 -2.004130
7.401632 -4.300548 -2.021057
8.382349 -4.862399 -2.053944
8.774965 -5.090037 -1.906695
11.405070 -6.525720 -2.156045
14.072732 -8.034406 -2.276389
18.821772 -10.724206 -2.530627
29.519085 -16.782019 -3.172704
35.544014 -20.197327 -2.865968
49.543659 -28.140131 -2.668648
0.003195 -0.091550 -0.002427
51.340321 -29.193388 -0.014186
0.003195 -0.091550 -0.002427
47.520596 -27.072414 2.534886
0.003195 -0.091550 -0.002427
0.003195 -0.091550 -0.002427
53.144230 -30.327740 7.135148
51.739491 -29.540697 8.351948
42.790615 -24.466848 8.077884
43.733074 -25.024208 9.471385
0.530325 -0.392656 -0.362668
0.003194 -0.091349 -0.002422
3.092689 -1.859465 -1.896041
3.283170 -1.970024 -1.901156
3.490798 -2.090579 -1.906217
3.732245 -2.229886 -1.917381
3.977096 -2.372169 -1.917346
4.275743 -2.545574 -1.927585
4.628984 -2.749585 -1.945478
5.009132 -2.970400 -1.955008
5.468253 -3.237015 -1.971442
5.995598 -3.541987 -1.986738
6.629421 -3.910077 -2.006156
7.385712 -4.347687 -2.023363
8.358160 -4.912270 -2.054776
0.003194 -0.091349 -0.002422
11.376436 -6.595892 -2.157670
14.043998 -8.124830 -2.279179
18.762043 -10.833060 -2.530865
0.003194 -0.091349 -0.002422
35.792973 -20.610590 -2.895502
0.003194 -0.091349 -0.002422
0.003194 -0.091349 -0.002422
54.992493 -31.682808 -0.015087
47.537518 -27.422235 1.259645
47.407925 -27.369978 2.537186
62.963406 -36.336189 5.063006
0.003194 -0.091349 -0.002422
0.003194 -0.091349 -0.002422
43.679180 -25.286119 7.073633
44.189709 -25.601412 8.369651
45.188694 -26.199419 9.819083
0.519648 -0.390311 -0.356540
2.903644 -1.772611 -1.887007
3.087044 -1.879666 -1.898855
3.278483 -1.992245 -1.904744
3.482339 -2.112220 -1.907925
3.718307 -2.250185 -1.916565
3.965498 -2.395715 -1.918114
4.269582 -2.574592 -1.931221
4.605496 -2.771221 -1.942053
4.997420 -3.001812 -1.956928
5.446764 -3.266273 -1.970248
5.985626 -3.582012 -1.990047
6.612354 -3.950855 -2.007675
7.367836 -4.393808 -2.025208
8.340422 -4.965970 -2.057272
8.659202 -5.156460 -1.894090
11.350798 -6.667930 -2.159944
14.002688 -8.208236 -2.280017
18.689611 -10.934591 -2.529474
29.183937 -17.038038 -3.157458
36.224648 -21.135620 -2.940147
0.003163 -0.091144 -0.002415
49.137444 -28.684271 -1.333651
0.003163 -0.091144 -0.002415
0.003163 -0.091144 -0.002415
46.927494 -27.453773 2.519820
46.938683 -27.471514 3.786336
45.731190 -26.788744 4.926970
44.472584 -26.074970 6.010142
40.896893 -23.995449 6.645018
0.003163 -0.091144 -0.002415
0.003163 -0.091144 -0.002415
0.516423 -0.392201 -0.355514
2.898434 -1.791717 -1.889944
3.073655 -1.895382 -1.896973
3.265954 -2.009947 -1.903843
3.473761 -2.133831 -1.909633
3.714895 -2.277529 -1.921445
3.947424 -2.415462 -1.915798
4.258422 -2.600780 -1.932673
4.592759 -2.800158 -1.943419
4.983822 -3.032211 -1.958205
5.443177 -3.306070 -1.975609
5.964832 -3.617204 -1.990045
6.596701 -3.992547 -2.009701
7.343865 -4.438168 -2.025668
8.318089 -5.019078 -2.058935
8.617186 -5.200449 -1.891494
11.324677 -6.739883 -2.162216
13.962854 -8.295874 -2.281413
18.632080 -11.044713 -2.530176
0.003162 -0.090943 -0.002410
42.135109 -24.904480 -3.431396
0.003162 -0.090943 -0.002410
0.003162 -0.090943 -0.002410
0.003162 -0.090943 -0.002410
55.011116 -32.566532 1.467850
0.003162 -0.090943 -0.002410
0.003162 -0.090943 -0.002410
0.003162 -0.090943 -0.002410
44.611298 -26.501129 6.049315
44.704243 -26.577475 7.289287
41.160816 -24.497528 7.849199
42.155350 -25.097460 9.221646
0.516098 -0.395918 -0.356530
2.888291 -1.808641 -1.889940
3.062894 -1.913348 -1.896970
3.256048 -2.029966 -1.904737
3.458501 -2.152312 -1.907919
3.700666 -2.297703 -1.920627
3.943066 -2.444272 -1.920422
4.245082 -2.626713 -1.933399
4.581917 -2.829205 -1.945469
4.971191 -3.064400 -1.960125
5.422387 -3.337075 -1.975011
5.952666 -3.656173 -1.992800
6.580082 -4.035333 -2.011726
7.325426 -4.484127 -2.027513
8.286256 -5.064609 -2.058102
9.539412 -5.821692 -2.100938
11.285076 -6.806661 -2.162217
13.927342 -8.382922 -2.283365
0.003161 -0.090743 -0.002405
0.003161 -0.090743 -0.002405
42.183552 -25.260695 -3.447081
0.003161 -0.090743 -0.002405
0.003161 -0.090743 -0.002405
48.907909 -29.331907 -0.013859
0.003161 -0.090743 -0.002405
0.003161 -0.090743 -0.002405
49.111095 -29.512346 3.989124
53.609131 -32.232914 5.816216
43.730068 -26.330399 5.950740
42.158539 -25.397577 6.897642
0.003161 -0.090743 -0.002405
41.029465 -24.759171 9.007082
0.514332 -0.398660 -0.356525
2.879840 -1.825909 -1.890916
0.003160 -0.090542 -0.002401
3.241778 -2.046594 -1.902938
3.448113 -2.172884 -1.908771
3.691033 -2.320624 -1.922252
3.919973 -2.460959 -1.915791
4.224023 -2.647007 -1.930483
4.567701 -2.856268 -1.946151
4.947497 -3.088794 -1.957559
5.403618 -3.367990 -1.975009
5.925500 -3.686147 -1.990592
6.553973 -4.070887 -2.010710
7.301680 -4.526977 -2.027972
8.265854 -5.117052 -2.060182
9.496223 -5.870116 -2.098714
8.560948 -5.251740 -1.646367
13.886201 -8.466767 -2.284482
0.003160 -0.090542 -0.002401
8.570624 -5.267913 -0.938350
0.003160 -0.090542 -0.002401
0.003160 -0.090542 -0.002401
54.717007 -33.220440 -1.500308
54.960480 -33.381241 -0.015343
0.003160 -0.090542 -0.002401
0.003160 -0.090542 -0.002401
53.208412 -32.384220 4.337161
45.429157 -27.684425 4.945455
0.003160 -0.090542 -0.002401
41.822762 -25.524145 6.866498
0.003160 -0.090542 -0.002401
40.925514 -25.018030 9.015577
0.508148 -0.398709 -0.353459
2.871301 -1.843136 -1.891892
3.038685 -1.946181 -1.895083
3.233489 -2.066854 -1.904729
3.445309 -2.198127 -1.913903
3.675033 -2.339691 -1.920621
3.914145 -2.488073 -1.919644
4.212430 -2.672991 -1.931936
4.550089 -2.881292 -1.945462
4.935019 -3.119960 -1.959479
5.386293 -3.399796 -1.975602
5.914535 -3.725993 -1.993899
6.537550 -4.112356 -2.012736
7.285974 -4.574805 -2.030739
8.240143 -5.166347 -2.061013
9.283813 -5.814031 -2.059047
8.463765 -5.259520 -1.633381
13.846220 -8.551443 -2.285877
0.003159 -0.090342 -0.002396
0.003159 -0.090342 -0.002396
0.003159 -0.090342 -0.002396
0.003159 -0.090342 -0.002396
54.784618 -33.693295 -1.507446
54.012920 -33.233181 -0.015184
0.003159 -0.090342 -0.002396
45.795551 -28.235117 2.493313
45.630287 -28.144739 3.732152
49.896420 -30.792076 5.451160
45.277512 -27.971865 6.204641
41.537506 -25.678854 6.843692
43.277035 -26.771599 8.339454
0.003159 -0.090342 -0.002396
0.509260 -0.403213 -0.355494
2.859681 -1.858488 -1.890908
3.027941 -1.963409 -1.895078
3.225111 -2.087085 -1.906521
3.425443 -2.212928 -1.909619
3.666683 -2.363465 -1.923059
3.893999 -2.506432 -1.916555
4.200659 -2.698926 -1.933389
4.540355 -2.911172 -1.948197
4.920721 -3.150077 -1.960757
5.370407 -3.432524 -1.976792
5.890237 -3.757699 -1.992793
6.522532 -4.154795 -2.015269
7.266641 -4.620538 -2.032583
8.207460 -5.211365 -2.060179
0.003128 -0.090136 -0.002389
8.438895 -5.311010 -1.634352
0.003128 -0.090136 -0.002389
8.412244 -5.300685 -1.159523
8.339568 -5.259726 -0.919543
0.003128 -0.090136 -0.002389
8.598232 -5.426448 -0.476231
0.003128 -0.090136 -0.002389
52.900757 -32.970810 -0.014983
0.003128 -0.090136 -0.002389
45.522667 -28.429188 2.487268
45.930508 -28.694450 3.770114
49.803509 -31.130995 5.460413
0.003128 -0.090136 -0.002389
43.145527 -27.012852 7.134132
43.812523 -27.450562 8.472864
42.029457 -26.357582 9.324791
0.505988 -0.405003 -0.354468
2.850911 -1.875611 -1.891883
3.015632 -1.979640 -1.894136
3.209023 -2.102535 -1.903824
3.411652 -2.231420 -1.908760
3.650432 -2.382351 -1.921427
3.881599 -2.529556 -1.917323
4.185558 -2.722825 -1.933384
4.528800 -2.940024 -1.950247
4.903028 -3.178110 -1.960754
5.351095 -3.463143 -1.976789
5.873927 -3.794378 -1.994445
6.503927 -4.195119 -2.016786
7.250330 -4.668277 -2.035350
8.179530 -5.259320 -2.060594
9.127670 -5.863266 -2.039028
8.392000 -5.348762 -1.631104
0.003127 -0.089936 -0.002384
8.378753 -5.346651 -1.159056
8.309694 -5.307391 -0.919542
8.393819 -5.362311 -0.697352
0.003127 -0.089936 -0.002384
0.003127 -0.089936 -0.002384
52.739540 -33.292431 -0.015008
0.003127 -0.089936 -0.002384
45.793240 -28.964191 2.511093
45.486786 -28.782282 3.747147
46.419697 -29.393663 5.107618
46.124355 -29.229956 6.366244
42.077518 -26.683609 6.982639
0.003127 -0.089936 -0.002384
41.731525 -26.506134 9.292228
0.512889 -0.413223 -0.360587
2.847941 -1.896436 -1.896779
3.000222 -1.993895 -1.891314
3.197392 -2.120742 -1.903821
3.406881 -2.255639 -1.913036
3.635646 -2.402114 -1.920610
3.870598 -2.553606 -1.918862
4.178191 -2.751643 -1.937020
4.520248 -2.970860 -1.953666
4.889958 -3.209099 -1.962672
5.341237 -3.499811 -1.980362
5.863849 -3.835131 -1.998304
6.478578 -4.231204 -2.016277
7.240259 -4.720171 -2.039963
8.139770 -5.299732 -2.058095
9.181999 -5.971649 -2.058673
9.078011 -5.851579 -1.770699
8.330141 -5.378827 -1.390821
8.355085 -5.398800 -1.159984
0.003127 -0.089735 -0.002379
8.408777 -5.439203 -0.701127
0.003127 -0.089735 -0.002379
0.003127 -0.089735 -0.002379
52.596603 -33.626175 -0.015037
46.910908 -30.023943 1.278239
45.671871 -29.255911 2.513583
44.673710 -28.629646 3.693577
46.022217 -29.514046 5.082392
0.003127 -0.089735 -0.002379
42.045662 -27.002907 7.002915
44.244408 -28.432417 8.618889
41.425026 -26.646828 9.257813
0.511003 -0.415946 -0.360582
2.836036 -1.911625 -1.895796
2.995147 -2.014723 -1.895067
3.182630 -2.136942 -1.902020
3.398932 -2.277920 -1.915601
3.625346 -2.424746 -1.922234
3.862565 -2.579612 -1.921943
4.158109 -2.772383 -1.934833
4.503607 -2.996597 -1.953663
4.875134 -3.239018 -1.963951
5.315119 -3.526111 -1.977975
5.842202 -3.868580 -1.998302
6.462757 -4.273438 -2.018809
7.218410 -4.764697 -2.041346
8.111308 -5.347310 -2.058509
8.378097 -5.524514 -1.885552
8.601517 -5.618495 -1.684018
8.354549 -5.461789 -1.400018
8.185778 -5.357303 -1.140697
8.337817 -5.459352 -0.929405
8.495250 -5.562919 -0.710920
8.451142 -5.538698 -0.473233
52.916920 -34.246559 -1.477408
52.572510 -34.037502 -0.015094
46.758091 -30.306055 1.278778
45.724781 -29.661110 2.525815
44.399925 -28.815441 3.684523
0.003126 -0.089535 -0.002375
0.003126 -0.089535 -0.002375
0.003126 -0.089535 -0.002375
0.003126 -0.089535 -0.002375
42.872311 -27.923721 9.616979
0.513381 -0.421558 -0.363638
2.831022 -1.931985 -1.899712
2.989593 -2.036074 -1.898820
3.173432 -2.157498 -1.903812
3.384371 -2.296810 -1.914741
3.608365 -2.443967 -1.920602
3.844633 -2.600217 -1.920397
4.142135 -2.796753 -1.934830
4.484706 -3.021979 -1.952974
4.859516 -3.269701 -1.965228
5.299456 -3.560465 -1.979761
5.821290 -3.903962 -1.998849
6.436231 -4.310377 -2.018300
7.203575 -4.815711 -2.045035
8.084895 -5.398285 -2.059756
8.326031 -5.560887 -1.881102
8.373466 -5.542037 -1.645708
8.362360 -5.536930 -1.406705
8.227607 -5.453238 -1.150918
8.380906 -5.557423 -0.937783
8.813468 -5.842000 -0.740301
8.888642 -5.895546 -0.499525
0.003125 -0.089330 -0.002370
0.003125 -0.089330 -0.002370
45.487518 -29.868301 1.248762
45.112576 -29.645548 2.501592
0.003125 -0.089330 -0.002370
48.161480 -31.679747 5.359135
43.384209 -28.567881 6.055463
0.003125 -0.089330 -0.002370
42.440907 -27.980858 8.330322
41.133457 -27.142326 9.262599
0.512876 -0.425233 -0.364653
2.820362 -1.948021 -1.899707
2.981287 -2.054964 -1.900695
3.157002 -2.172546 -1.901115
3.365573 -2.312033 -1.911312
3.596265 -2.465473 -1.921411
3.833193 -2.624104 -1.921935
4.126496 -2.820317 -1.934827
4.467757 -3.047507 -1.952971
4.849030 -3.302614 -1.968427
5.280976 -3.591727 -1.980353
5.800853 -3.938227 -1.999398
6.419876 -4.352462 -2.020831
7.192482 -4.867622 -2.049649
8.060720 -5.448811 -2.061418
9.300572 -6.278238 -2.109085
8.328769 -5.581196 -1.643109
8.354034 -5.599989 -1.410606
8.735324 -5.856031 -1.226433
8.769612 -5.883107 -0.984887
8.805192 -5.908884 -0.742398
8.831776 -5.930923 -0.498213
0.003094 -0.089125 -0.002363
0.003094 -0.089125 -0.002363
45.515472 -30.261795 1.254272
44.415779 -29.555285 2.472267
44.470406 -29.602921 3.718717
46.870922 -31.219992 5.235290
0.003094 -0.089125 -0.002363
45.201820 -30.145897 7.614911
40.418259 -26.985413 7.963402
47.222992 -31.538002 10.674878
0.500916 -0.421272 -0.357505
2.811063 -1.964962 -1.900683
2.971387 -2.072841 -1.901630
3.147933 -2.192438 -1.902907
3.354234 -2.332143 -1.912165
3.589707 -2.491609 -1.925477
3.818558 -2.645897 -1.921932
4.115333 -2.846901 -1.937006
4.456370 -3.077904 -1.955705
4.835186 -3.333406 -1.970346
5.262325 -3.622890 -1.980947
5.779540 -3.973395 -1.999948
6.404886 -4.395581 -2.023870
7.162412 -4.908856 -2.049185
8.028807 -5.496267 -2.061415
8.650990 -5.919900 -1.969696
8.636753 -5.855693 -1.710309
8.657101 -5.873706 -1.467469
8.743287 -5.933564 -1.232240
8.754328 -5.945409 -0.986933
8.825244 -5.997376 -0.747013
8.831203 -6.003640 -0.500082
0.003094 -0.088924 -0.002358
0.003094 -0.088924 -0.002358
50.026047 -33.667664 1.384110
44.169262 -29.758785 2.467990
44.755020 -30.175169 3.757376
0.003094 -0.088924 -0.002358
46.260750 -31.223097 6.506710
46.879169 -31.663328 7.928970
0.003094 -0.088924 -0.002358
45.509510 -30.775883 10.327159
0.500375 -0.424981 -0.358521
2.798443 -1.980391 -1.899699
2.962490 -2.092179 -1.903504
3.135379 -2.210835 -1.902902
3.329298 -2.343071 -1.905312
3.577342 -2.513028 -1.926288
3.807894 -2.671369 -1.924242
4.096334 -2.868216 -1.935547
4.434430 -3.100096 -1.953648
4.808605 -3.355620 -1.967140
5.246616 -3.656099 -1.982731
5.757071 -4.006350 -1.999943
6.379998 -4.432128 -2.023867
7.144195 -4.956329 -2.051950
8.013065 -5.550663 -2.065159
8.517682 -5.899159 -1.946710
8.608956 -5.910979 -1.711605
8.666323 -5.952048 -1.474715
8.731524 -6.000657 -1.235492
8.768905 -6.030488 -0.992516
8.908344 -6.127321 -0.756945
0.003093 -0.088724 -0.002353
46.076180 -31.366236 -1.306629
46.119137 -31.419146 -0.013757
46.033073 -31.384386 1.278542
44.445568 -30.316608 2.493117
44.779156 -30.566578 3.774057
44.192108 -30.178499 4.974257
45.897072 -31.363134 6.480725
0.003093 -0.088724 -0.002353
40.616489 -27.796242 8.064746
0.003093 -0.088724 -0.002353
0.499891 -0.428520 -0.359536
2.792176 -1.998713 -1.902636
2.945443 -2.104461 -1.899743
3.127908 -2.231104 -1.905591
3.320718 -2.365030 -1.907875
3.561824 -2.532311 -1.925470
3.788867 -2.689214 -1.921924
4.078736 -2.890457 -1.934816
4.420133 -3.127468 -1.955013
4.794417 -3.386230 -1.969059
5.222881 -3.683837 -1.981536
5.743950 -4.045730 -2.003251
6.354885 -4.468534 -2.023863
7.106458 -4.990487 -2.049178
7.990209 -5.604507 -2.067654
8.481476 -5.948196 -1.946337
10.904877 -7.553049 -2.175845
13.429077 -9.288349 -2.293127
0.003092 -0.088523 -0.002348
0.003092 -0.088523 -0.002348
0.003092 -0.088523 -0.002348
0.003092 -0.088523 -0.002348
0.003092 -0.088523 -0.002348
58.825909 -40.548130 -0.016972
45.551437 -31.429588 1.269974
44.170597 -30.502398 2.487448
44.662266 -30.864161 3.779055
44.375313 -30.689487 5.015214
44.246441 -30.612221 6.272242
0.003092 -0.088523 -0.002348
42.992687 -29.791994 8.571541
41.082325 -28.482826 9.395726
0.489394 -0.425380 -0.353408
2.780798 -2.015006 -1.902632
2.934877 -2.122668 -1.900678
3.116625 -2.250408 -1.906485
3.305675 -2.383420 -1.907015
3.544695 -2.550452 -1.923838
3.773371 -2.711403 -1.921920
4.066631 -2.917557 -1.936996
4.408733 -3.156918 -1.957747
4.779435 -3.417615 -1.970977
5.204597 -3.716693 -1.982725
5.721078 -4.078482 -2.003247
6.331997 -4.508117 -2.024875
7.082939 -5.034408 -2.050560
7.956744 -5.649036 -2.067236
9.191604 -6.517195 -2.117602
10.886375 -7.635314 -2.181037
13.382463 -9.369736 -2.294242
17.877581 -12.497374 -2.547634
8.861864 -6.243008 -1.010945
45.945213 -32.018948 -3.926174
0.003091 -0.088322 -0.002344
0.003091 -0.088322 -0.002344
0.003091 -0.088322 -0.002344
46.252361 -32.317204 1.294857
0.003091 -0.088322 -0.002344
44.911583 -31.418249 3.815352
45.753025 -32.029243 5.191681
43.001419 -30.130716 6.120806
43.778709 -30.685385 7.492574
42.133812 -29.557781 8.433902
40.692730 -28.571131 9.345039
0.488842 -0.428956 -0.354424
0.482472 -0.424747 -0.331629
2.920233 -2.137266 -1.898795
3.108526 -2.271162 -1.909174
3.298754 -2.405766 -1.910437
3.528961 -2.569529 -1.923019
3.755197 -2.730721 -1.920374
4.052295 -2.941049 -1.937719
4.391014 -3.182011 -1.957744
4.759247 -3.442912 -1.970333
5.190503 -3.749849 -1.985105
5.701176 -4.113324 -2.004348
6.318290 -4.550957 -2.028419
7.055955 -5.075971 -2.051019
7.936769 -5.701015 -2.070146
9.171632 -6.579496 -2.121307
10.860547 -7.710060 -2.184607
13.333688 -9.449748 -2.295076
17.802626 -12.597488 -2.547168
0.003060 -0.088117 -0.002337
45.626968 -32.188320 -3.914708
0.003060 -0.088117 -0.002337
0.003060 -0.088117 -0.002337
47.600323 -33.639565 -0.014297
44.826141 -31.707676 1.259925
43.760677 -30.967716 2.484185
44.469883 -31.491667 3.793087
43.803001 -31.032358 4.989801
0.003060 -0.088117 -0.002337
43.645668 -30.967335 7.500070
41.277752 -29.302923 8.294969
43.609509 -30.976450 10.054502
0.486926 -0.431459 -0.354419
0.480592 -0.427217 -0.331625
2.908386 -2.153812 -1.898790
3.097728 -2.289280 -1.910066
3.282411 -2.422387 -1.908720
3.504209 -2.582149 -1.917318
3.751956 -2.760632 -1.926540
4.034306 -2.963011 -1.936988
4.367024 -3.202631 -1.955002
4.740819 -3.471940 -1.970970
5.179576 -3.788095 -1.989275
5.674775 -4.143593 -2.003240
6.288571 -4.585852 -2.027402
7.038929 -5.126549 -2.054708
7.902382 -5.749113 -2.070144
9.142584 -6.640392 -2.123529
10.822687 -7.773724 -2.185578
13.281242 -9.527214 -2.295354
17.729340 -12.694064 -2.546704
8.729898 -6.298690 -1.003864
45.322945 -32.365513 -3.904502
0.003059 -0.087917 -0.002332
0.003059 -0.087917 -0.002332
0.003059 -0.087917 -0.002332
44.638660 -31.961264 1.259778
44.088924 -31.592176 2.513394
43.270874 -31.019188 3.705861
44.331467 -31.800987 5.071357
0.003059 -0.087917 -0.002332
0.003059 -0.087917 -0.002332
44.065079 -31.669231 8.892759
45.704788 -32.868862 10.582340
0.490380 -0.438216 -0.358495
0.486985 -0.436033 -0.337499
2.908998 -2.180083 -1.907241
3.085708 -2.308971 -1.910962
3.277308 -2.447922 -1.913852
0.003058 -0.087716 -0.002327
3.724066 -2.773958 -1.920366
4.026236 -2.993189 -1.941350
4.351520 -3.230439 -1.956367
4.725870 -3.502265 -1.972888
5.156641 -3.816487 -1.988674
5.659972 -4.183698 -2.006547
6.264175 -4.622870 -2.027906
7.019263 -5.173585 -2.057474
7.883353 -5.802069 -2.073472
9.115855 -6.700727 -2.126121
10.786819 -7.847460 -2.187850
13.244337 -9.619421 -2.298697
17.640839 -12.793648 -2.545079
8.656301 -6.325994 -0.999766
45.024082 -32.556297 -3.895278
0.003058 -0.087716 -0.002327
0.003058 -0.087716 -0.002327
0.003058 -0.087716 -0.002327
44.646652 -32.367947 1.265383
44.826458 -32.510090 2.566071
43.123962 -31.301754 3.709053
0.003058 -0.087716 -0.002327
45.769367 -33.253654 6.595466
45.509140 -33.089535 7.886110
43.505707 -31.648407 8.816327
45.714329 -33.275307 10.628569
0.489805 -0.441742 -0.359510
0.490656 -0.442629 -0.341414
2.885848 -2.187739 -1.899721
3.068907 -2.322768 -1.908263
3.259275 -2.463318 -1.911279
3.476767 -2.622937 -1.918125
3.714966 -2.798821 -1.923446
4.000437 -3.009489 -1.936980
4.335431 -3.255553 -1.957047
4.706121 -3.529169 -1.972883
5.145890 -3.853765 -1.992844
5.646331 -4.221801 -2.009853
6.244217 -4.663181 -2.029930
6.992357 -5.213586 -2.057932
7.864521 -5.857514 -2.077213
9.083999 -6.757484 -2.127601
10.749720 -7.911925 -2.189145
13.171759 -9.678932 -2.295351
17.563246 -12.886934 -2.544148
8.573108 -6.338753 -0.994177
0.003058 -0.087515 -0.002322
0.003058 -0.087515 -0.002322
0.003058 -0.087515 -0.002322
53.705097 -39.346500 -0.016031
45.579411 -33.430832 1.297123
44.703720 -32.814365 2.569773
44.605507 -32.754627 3.852183
43.134964 -31.700933 4.975689
43.569183 -32.042786 6.304667
44.982655 -33.091854 7.826626
43.566860 -32.076607 8.865868
0.003058 -0.087515 -0.002322
0.476683 -0.436175 -0.351341
0.495617 -0.450397 -0.346309
2.870884 -2.201989 -1.897839
3.063177 -2.345469 -1.912747
3.258627 -2.491469 -1.918979
3.455775 -2.638936 -1.914864
3.693365 -2.815539 -1.920357
3.986557 -3.034448 -1.938431
4.316583 -3.280970 -1.957044
4.689294 -3.558221 -1.974160
5.121083 -3.880814 -1.991648
5.614008 -4.249245 -2.007091
6.220896 -4.701110 -2.030941
6.963411 -5.255878 -2.058391
7.830186 -5.903802 -2.077211
9.050632 -6.815679 -2.129082
10.706142 -7.974578 -2.189468
13.082818 -9.733097 -2.289776
17.478138 -12.979267 -2.542521
0.003057 -0.087315 -0.002317
0.003057 -0.087315 -0.002317
0.003057 -0.087315 -0.002317
0.003057 -0.087315 -0.002317
0.003057 -0.087315 -0.002317
45.507389 -33.781448 1.300567
44.535629 -33.086182 2.570972
42.542496 -31.632483 3.689983
43.666481 -32.489799 5.059099
50.659607 -37.693329 7.362316
43.074017 -32.085537 7.527278
45.528980 -33.934265 9.305949
44.225555 -32.977413 10.369627
0.482884 -0.444946 -0.357460
0.497659 -0.456239 -0.349245
2.856863 -2.217691 -1.896895
3.051172 -2.364437 -1.913641
3.239977 -2.507274 -1.916407
3.440603 -2.659155 -1.914861
3.666804 -2.829425 -1.914955
3.971995 -3.060039 -1.939883
4.300560 -3.308528 -1.958408
4.668652 -3.585731 -1.974157
5.101546 -3.913166 -1.992836
5.599993 -4.290304 -2.010949
6.198068 -4.741161 -2.032457
6.934212 -5.298005 -2.058849
7.795573 -5.949886 -2.077208
9.023155 -6.878436 -2.132045
10.663950 -8.041208 -2.190440
13.020657 -9.806684 -2.288938
17.395061 -13.077648 -2.541591
26.467003 -19.868221 -3.091656
0.003026 -0.087110 -0.002311
0.003026 -0.087110 -0.002311
0.003026 -0.087110 -0.002311
0.003026 -0.087110 -0.002311
0.003026 -0.087110 -0.002311
44.686043 -33.609467 2.591094
44.046078 -33.153572 3.837423
44.401863 -33.445152 5.167166
0.003026 -0.087110 -0.002311
42.668350 -32.178089 7.489474
0.003026 -0.087110 -0.002311
0.003026 -0.087110 -0.002311
0.482221 -0.448443 -0.358474
0.502522 -0.464038 -0.354139
2.846329 -2.234432 -1.897829
3.034133 -2.377963 -1.910942
3.227860 -2.526176 -1.917258
3.430537 -2.681384 -1.917296
3.655841 -2.852950 -1.917263
3.958299 -3.084170 -1.941333
4.281024 -3.331107 -1.957719
4.650539 -3.612634 -1.974792
5.081655 -3.942492 -1.993429
5.576463 -4.321249 -2.010945
6.173535 -4.776601 -2.032959
6.914320 -5.343441 -2.061614
7.776764 -6.003715 -2.080950
8.989815 -6.932004 -2.133153
10.625702 -8.105092 -2.191735
13.013641 -9.914737 -2.297297
17.315992 -13.169445 -2.540660
26.381676 -20.034517 -3.094635
36.231110 -27.502745 -3.188679
0.003025 -0.086905 -0.002306
64.286392 -48.787315 -1.891386
58.061680 -44.103725 -0.017364
50.882267 -38.674908 1.467060
45.144501 -34.348309 2.628749
43.403397 -33.050922 3.797360
48.399021 -36.872139 5.656359
50.506741 -38.488338 7.403811
42.506062 -32.428509 7.492528
42.873997 -32.732307 8.839295
42.735764 -32.639046 10.107361
0.473227 -0.445857 -0.353366
0.500291 -0.466794 -0.354135
2.829346 -2.247830 -1.895007
3.029025 -2.402203 -1.916325
3.214782 -2.546145 -1.918110
3.418460 -2.703080 -1.918920
3.645230 -2.878837 -1.920343
3.940461 -3.107358 -1.941329
4.271238 -3.362327 -1.961822
4.629560 -3.639916 -1.974788
5.057166 -3.971153 -1.992827
5.553532 -4.354207 -2.011493
6.153304 -4.818789 -2.035491
6.890117 -5.387650 -2.063455
7.744147 -6.049321 -2.081363
8.954938 -6.986976 -2.134261
10.574845 -8.165304 -2.191083
12.972609 -10.001235 -2.300082
17.242886 -13.275234 -2.541356
26.234529 -20.168501 -3.091285
0.003025 -0.086705 -0.002301
0.003025 -0.086705 -0.002301
0.003025 -0.086705 -0.002301
0.003025 -0.086705 -0.002301
0.003025 -0.086705 -0.002301
0.003025 -0.086705 -0.002301
44.198570 -34.057289 3.884015
48.961670 -37.745831 5.747371
46.649868 -35.993713 6.869298
42.104370 -32.506672 7.454447
43.439030 -33.558784 8.995379
45.161621 -34.911568 10.729892
0.473892 -0.450460 -0.355403
0.493943 -0.466242 -0.351189
2.819663 -2.266012 -1.896881
3.005754 -2.411708 -1.910036
3.196295 -2.561057 -1.915538
3.404348 -2.724195 -1.919731
3.626198 -2.897282 -1.918797
3.920065 -3.127472 -1.939869
4.244332 -3.381599 -1.958396
4.607565 -3.665109 -1.974145
5.037745 -4.002304 -1.994015
5.534222 -4.391551 -2.013696
6.133613 -4.859831 -2.038022
6.860113 -5.429371 -2.063914
7.714835 -6.099703 -2.083025
8.916995 -7.042125 -2.135000
10.540700 -8.235436 -2.193678
12.915185 -10.078932 -2.300359
17.162016 -13.370326 -2.540657
26.068205 -20.279819 -3.085326
0.003024 -0.086504 -0.002296
51.899948 -40.336262 -3.078654
51.956863 -40.409691 -1.542809
51.969543 -40.448853 -0.015919
0.003024 -0.086504 -0.002296
50.587952 -39.418724 2.972574
48.458973 -37.790714 4.278218
47.609512 -37.156639 5.614268
44.723381 -34.922028 6.614911
42.633183 -33.317955 7.582848
0.003024 -0.086504 -0.002296
45.386692 -35.503040 10.831610
0.468985 -0.450921 -0.353356
0.488925 -0.466796 -0.349224
2.810846 -2.285731 -1.899694
2.991904 -2.429262 -1.910031
3.182995 -2.580854 -1.916389
3.389093 -2.743515 -1.919725
3.610915 -2.919644 -1.919564
3.912235 -3.158492 -1.944960
4.234161 -3.412707 -1.962498
4.586254 -3.692134 -1.974140
5.018960 -4.035419 -1.995801
5.507842 -4.421904 -2.013140
6.102164 -4.893479 -2.037004
6.838444 -5.475752 -2.066679
7.681650 -6.144973 -2.083437
8.889174 -7.102825 -2.137963
10.495314 -8.299973 -2.194324
12.865301 -10.158939 -2.301750
17.103317 -13.487514 -2.543677
25.938665 -20.426357 -3.084210
0.002993 -0.086299 -0.002290
0.002993 -0.086299 -0.002290
0.002993 -0.086299 -0.002290
57.353329 -45.161449 -0.017405
51.196186 -40.351337 1.496349
51.112236 -40.314423 3.017367
47.161259 -37.218166 4.182374
46.166080 -36.460888 5.468562
0.002993 -0.086299 -0.002290
0.002993 -0.086299 -0.002290
42.250504 -33.435978 8.829246
46.807785 -37.060192 11.222955
0.462855 -0.450191 -0.350291
0.492209 -0.473717 -0.353140
2.793979 -2.298355 -1.896871
2.974171 -2.442885 -1.907333
3.167150 -2.597778 -1.915528
3.376612 -2.765019 -1.921348
3.591671 -2.937853 -1.918017
3.882806 -3.171445 -1.939132
4.217875 -3.439126 -1.963861
4.574336 -3.725316 -1.977980
4.993166 -4.061626 -1.994604
5.488827 -4.458089 -2.015343
6.081979 -4.934316 -2.039535
6.810341 -5.517204 -2.067598
7.649712 -6.191277 -2.084265
8.851729 -7.156074 -2.138700
10.447883 -8.359984 -2.194320
12.810237 -10.235012 -2.302304
17.018177 -13.579275 -2.542513
25.878958 -20.620792 -3.091099
0.002992 -0.086098 -0.002285
63.030052 -50.157616 -3.772849
0.002992 -0.086098 -0.002285
52.484837 -41.825348 -0.016189
0.002992 -0.086098 -0.002285
50.905022 -40.627430 3.018847
0.002992 -0.086098 -0.002285
47.313854 -37.808151 5.630202
45.206406 -36.153873 6.748240
42.590202 -34.078766 7.644266
44.010250 -35.237591 9.239214
0.002992 -0.086098 -0.002285
0.462065 -0.453704 -0.351305
0.487242 -0.474140 -0.351175
2.789464 -2.320800 -1.902502
2.963339 -2.461970 -1.909124
3.152653 -2.615736 -1.915524
3.362559 -2.785322 -1.922158
3.585252 -2.966341 -1.923411
3.867896 -3.195845 -1.940583
