# This PCD file was generated using the MATLAB® pcwrite function
# from Computer Vision Toolbox®.
# .PCD v.7 - Point Cloud Data file format
VERSION .7
FIELDS x y z
SIZE 4 4 4
TYPE F F F
COUNT 1 1 1
WIDTH 1631
HEIGHT 1
VIEWPOINT 0 0 0 1 0 0 0
POINTS 1631
DATA ascii
0.004122 -0.101186 -0.003634
0.004122 -0.101186 -0.003634
0.004122 -0.101186 -0.003634
3.084911 -0.603583 -1.852557
3.245347 -0.630817 -1.846585
3.427817 -0.661160 -1.845835
3.626228 -0.694816 -1.843983
3.849210 -0.732648 -1.845470
4.110168 -0.776877 -1.853652
4.331630 -0.813990 -1.832780
4.648213 -0.867695 -1.838685
5.015129 -0.929936 -1.849149
5.437328 -1.000616 -1.861159
5.745909 -1.053626 -1.816312
5.806415 -1.065605 -1.686781
5.911946 -1.084068 -1.567998
5.909636 -1.085660 -1.418772
5.932398 -1.091442 -1.277766
5.957711 -1.097671 -1.137545
5.933962 -1.066978 -0.987371
9.154597 -1.594698 -1.301552
9.183795 -1.600897 -1.084608
9.182006 -1.603687 -0.866205
40.480381 -6.741764 -2.849522
0.004126 -0.100993 -0.003627
0.004126 -0.100993 -0.003627
76.179436 -12.661899 0.038244
76.335556 -12.699619 1.834534
52.026783 -8.704898 2.484042
76.518196 -12.781202 5.462062
52.874638 -8.880673 5.025871
76.771591 -12.861022 9.139782
0.004126 -0.100993 -0.003627
77.003563 -12.951320 12.865511
0.004126 -0.100993 -0.003627
3.081891 -0.621617 -1.852536
3.242153 -0.649801 -1.846563
3.426187 -0.681520 -1.846751
3.624415 -0.716357 -1.844856
3.848986 -0.755813 -1.847155
4.099007 -0.799033 -1.850377
4.325521 -0.839094 -1.831984
4.641760 -0.894667 -1.837930
5.015834 -0.959473 -1.851168
5.435647 -1.033216 -1.862405
5.725093 -1.084818 -1.811520
5.814030 -1.101020 -1.690600
5.928911 -1.122784 -1.574030
5.932623 -1.124347 -1.425639
5.953605 -1.129969 -1.283540
5.984797 -1.137380 -1.143788
5.947593 -1.105168 -0.990568
9.175148 -1.652023 -1.305663
9.210015 -1.661015 -1.088715
9.153296 -1.654481 -0.864308
40.632351 -7.006533 -2.862763
0.004131 -0.100800 -0.003621
0.004131 -0.100800 -0.003621
75.540176 -13.002704 0.038274
75.686089 -13.053131 1.821064
50.216553 -8.711148 2.400112
75.970116 -13.139278 5.428523
53.386486 -9.281109 5.079746
76.146515 -13.220853 9.074792
76.209076 -13.243600 10.907642
76.409164 -13.303834 12.778998
0.004131 -0.100800 -0.003621
3.083937 -0.639989 -1.855573
3.238942 -0.668200 -1.846542
3.422783 -0.700974 -1.846728
3.626120 -0.737885 -1.847523
3.846931 -0.778013 -1.847985
4.096591 -0.823386 -1.851163
4.326656 -0.864682 -1.834267
4.642600 -0.922077 -1.840081
5.018079 -0.990255 -1.853871
5.432055 -1.064548 -1.863013
5.741912 -1.121500 -1.818624
5.847772 -1.142298 -1.702121
5.945806 -1.160699 -1.580062
5.953305 -1.164039 -1.432047
5.978192 -1.170500 -1.290141
6.005630 -1.177436 -1.148923
5.974776 -1.144897 -0.996029
9.191187 -1.710558 -1.309220
9.249799 -1.722283 -1.094439
9.226594 -1.721324 -0.872018
40.795090 -7.282801 -2.876965
0.004105 -0.100602 -0.003613
0.004105 -0.100602 -0.003613
52.829861 -9.445804 0.025956
52.571358 -9.408368 1.265277
0.004105 -0.100602 -0.003613
50.817699 -9.132176 3.633935
51.782425 -9.321135 4.932357
75.522240 -13.560544 9.009780
75.580086 -13.596369 10.829194
75.795380 -13.660396 12.689884
0.004105 -0.100602 -0.003613
3.075616 -0.657096 -1.852495
3.235536 -0.687149 -1.846521
3.419178 -0.721011 -1.846706
3.625786 -0.759760 -1.849292
3.844752 -0.800209 -1.848816
4.112155 -0.850305 -1.860076
4.324007 -0.889641 -1.835011
4.634135 -0.947850 -1.838601
5.013036 -1.017980 -1.853842
5.426417 -1.095528 -1.862982
5.760551 -1.157743 -1.826324
5.855100 -1.177082 -1.705940
5.964530 -1.198151 -1.586600
5.977901 -1.202629 -1.439375
5.993503 -1.206448 -1.294672
6.020996 -1.213559 -1.152953
5.995671 -1.184961 -1.000519
9.226602 -1.771256 -1.315549
9.290855 -1.786035 -1.100392
9.268085 -1.783366 -0.876773
0.004110 -0.100409 -0.003607
51.196445 -9.425767 -2.401265
0.004110 -0.100409 -0.003607
74.361832 -13.682569 0.038369
0.004110 -0.100409 -0.003607
50.398777 -9.330515 2.414133
50.750839 -9.412176 3.633030
51.449844 -9.548577 4.905660
74.934189 -13.886901 8.948952
74.991890 -13.909364 10.755731
75.187286 -13.970779 12.600730
0.004110 -0.100409 -0.003607
3.072657 -0.672927 -1.852476
3.234149 -0.704140 -1.847480
3.419264 -0.739889 -1.848562
3.618783 -0.777808 -1.847479
3.833801 -0.819396 -1.845375
4.099080 -0.870583 -1.855991
4.324991 -0.914530 -1.837296
4.636842 -0.974019 -1.841482
5.009701 -1.046031 -1.854498
5.422663 -1.125884 -1.863593
5.778776 -1.195236 -1.834024
5.884897 -1.216282 -1.716363
6.005654 -1.241229 -1.599203
6.063247 -1.254224 -1.461424
6.061811 -1.256002 -1.310813
6.045389 -1.253823 -1.158828
6.019032 -1.221478 -1.005336
9.260275 -1.828822 -1.321605
9.334634 -1.844182 -1.106582
9.305817 -1.841950 -0.881160
41.810684 -7.942627 -2.954115
51.004295 -9.684538 -2.394510
0.004085 -0.100210 -0.003599
73.777878 -14.001040 0.038397
53.203285 -10.142327 1.283661
50.244778 -9.600910 2.409548
74.140762 -14.131492 5.315049
51.952206 -9.949666 4.959157
74.328690 -14.217494 8.886494
0.004085 -0.100210 -0.003599
74.586746 -14.303622 12.513865
0.004085 -0.100210 -0.003599
3.074160 -0.692397 -1.855511
3.240676 -0.725603 -1.853330
3.413661 -0.759561 -1.847601
3.616329 -0.799969 -1.848351
3.840023 -0.844600 -1.850479
4.094303 -0.895328 -1.855964
4.321892 -0.940252 -1.838038
4.629580 -1.001683 -1.840726
5.009356 -1.077403 -1.856516
5.410913 -1.156663 -1.861644
5.804026 -1.235448 -1.844099
5.900624 -1.256354 -1.722931
6.053854 -1.287356 -1.613826
6.065860 -1.291765 -1.463690
6.070192 -1.294679 -1.314096
6.059463 -1.294623 -1.162855
6.041132 -1.263527 -1.010147
9.292344 -1.893282 -1.327654
16.146866 -3.219231 -1.914000
16.095100 -3.214696 -1.523369
0.004090 -0.100014 -0.003593
50.438652 -9.887626 -2.370437
47.716373 -9.375549 -1.104659
73.220596 -14.358630 0.038473
53.356773 -10.498723 1.289088
0.004090 -0.100014 -0.003593
51.968124 -10.263430 3.728982
47.834450 -9.471220 4.571380
73.764229 -14.563254 8.829408
0.004090 -0.100014 -0.003593
74.004921 -14.660790 12.431251
0.004090 -0.100014 -0.003593
3.065554 -0.709363 -1.852434
3.226660 -0.742514 -1.847437
3.414894 -0.780576 -1.850393
3.610387 -0.820799 -1.847432
3.839077 -0.867807 -1.852164
4.095033 -0.919699 -1.858377
4.318668 -0.965975 -1.838783
4.633314 -1.030701 -1.844332
5.012878 -1.107810 -1.859903
5.406423 -1.188835 -1.862252
5.829027 -1.275999 -1.854176
5.916501 -1.294596 -1.729501
6.039146 -1.321429 -1.611772
6.045549 -1.323682 -1.460437
6.059407 -1.328548 -1.313235
6.087142 -1.336250 -1.169466
6.059316 -1.304068 -1.014315
9.322680 -1.954561 -1.333429
16.091103 -3.307198 -1.909537
0.004064 -0.099815 -0.003585
0.004064 -0.099815 -0.003585
0.004064 -0.099815 -0.003585
0.004064 -0.099815 -0.003585
52.969669 -10.731000 0.027105
53.186432 -10.792653 1.286715
72.838852 -14.768810 3.503546
51.945957 -10.569252 3.731883
51.806469 -10.558814 4.957200
73.163231 -14.895729 8.768114
0.004064 -0.099815 -0.003585
73.446136 -14.989697 12.351855
0.004064 -0.099815 -0.003585
3.065376 -0.727437 -1.854452
3.226315 -0.761521 -1.849373
3.410941 -0.799968 -1.850372
3.611427 -0.842394 -1.850099
3.831046 -0.888904 -1.850430
4.090111 -0.943711 -1.858352
4.313611 -0.990555 -1.838757
4.626044 -1.056707 -1.843578
5.003162 -1.136493 -1.858509
5.398212 -1.219279 -1.861583
5.842737 -1.313533 -1.860686
5.928152 -1.333307 -1.734970
6.033922 -1.356289 -1.612245
6.061066 -1.364011 -1.465924
6.086480 -1.371394 -1.320665
6.112415 -1.378903 -1.175708
6.083222 -1.344989 -1.019452
9.292119 -2.005532 -1.330609
6.591356 -1.452385 -0.784904
9.269499 -2.005535 -0.880647
9.329321 -2.021026 -0.663892
0.004069 -0.099622 -0.003578
0.004069 -0.099622 -0.003578
72.103241 -15.016011 0.038565
72.260674 -15.060159 1.751859
72.234962 -15.079537 3.478866
51.271626 -10.749509 3.688091
51.899536 -10.897703 4.972387
72.579117 -15.212178 8.708668
0.004069 -0.099622 -0.003578
72.856262 -15.319724 12.267913
0.004069 -0.099622 -0.003578
3.063286 -0.745710 -1.855451
3.222335 -0.780388 -1.849352
3.406729 -0.819928 -1.850350
3.612221 -0.864654 -1.852765
3.831758 -0.911811 -1.852972
4.088770 -0.967739 -1.859953
4.315473 -1.017392 -1.841810
4.625932 -1.084221 -1.845731
4.997105 -1.165006 -1.858480
5.395383 -1.250853 -1.862831
5.874890 -1.355262 -1.873143
5.937886 -1.370763 -1.739890
6.058763 -1.397622 -1.620804
6.084141 -1.405142 -1.473251
6.106091 -1.410830 -1.326440
6.134012 -1.418931 -1.181214
6.108555 -1.387699 -1.024911
9.234510 -2.048867 -1.323910
6.612402 -1.497346 -0.788332
9.256104 -2.059764 -0.880416
16.020622 -3.495609 -1.138988
15.925678 -3.480938 -0.753226
0.004074 -0.099429 -0.003572
71.053864 -15.225099 0.038306
53.413906 -11.488085 1.295841
52.131092 -11.222917 2.512872
51.037861 -11.007140 3.675933
0.004074 -0.099429 -0.003572
0.004074 -0.099429 -0.003572
0.004074 -0.099429 -0.003572
72.287895 -15.621796 12.186867
0.004074 -0.099429 -0.003572
3.061300 -0.762907 -1.856450
3.215100 -0.797372 -1.847375
3.406111 -0.839429 -1.852205
3.609646 -0.884931 -1.853640
3.828960 -0.933316 -1.853805
4.087433 -0.991069 -1.861554
4.326521 -1.044754 -1.848714
4.625838 -1.110959 -1.847885
4.991090 -1.192611 -1.858453
5.392601 -1.281497 -1.864082
5.890176 -1.392676 -1.880248
5.962645 -1.410639 -1.749213
6.077891 -1.436973 -1.627849
6.112865 -1.446771 -1.481959
6.133060 -1.452207 -1.333873
6.157293 -1.459669 -1.187091
6.130208 -1.427776 -1.029726
14.796206 -3.309495 -2.121925
6.637492 -1.541129 -0.792222
16.750277 -3.745078 -1.592489
16.395233 -3.670418 -1.166865
0.004048 -0.099231 -0.003564
0.004048 -0.099231 -0.003564
70.788689 -15.581342 0.038490
52.687473 -11.640346 1.279930
52.148273 -11.530622 2.516953
51.046391 -11.306623 3.681208
0.004048 -0.099231 -0.003564
0.004048 -0.099231 -0.003564
0.004048 -0.099231 -0.003564
0.004048 -0.099231 -0.003564
0.004048 -0.099231 -0.003564
3.059123 -0.780636 -1.857450
3.214445 -0.816373 -1.849313
3.403513 -0.859146 -1.853121
3.603338 -0.905046 -1.852722
3.825704 -0.956140 -1.854635
4.085648 -1.015826 -1.863154
4.315613 -1.068161 -1.846380
4.621598 -1.138516 -1.848585
4.988209 -1.222749 -1.859792
5.389195 -1.314012 -1.865329
5.908500 -1.433198 -1.888541
5.984772 -1.452485 -1.757982
6.096274 -1.478697 -1.634890
6.131358 -1.488748 -1.488366
6.151423 -1.495412 -1.339645
6.183368 -1.504802 -1.193700
6.162943 -1.471781 -1.036479
14.745988 -3.389921 -2.117419
6.662063 -1.586393 -0.796112
16.392845 -3.765842 -1.560474
0.004053 -0.099034 -0.003558
16.334738 -3.761112 -0.774243
16.500784 -3.804031 -0.386220
70.444031 -15.943450 0.038646
52.821148 -11.987990 1.285055
52.130302 -11.850461 2.519635
48.797558 -11.115965 3.523729
0.004053 -0.099034 -0.003558
0.004053 -0.099034 -0.003558
0.004053 -0.099034 -0.003558
71.156837 -16.249525 12.027715
0.004053 -0.099034 -0.003558
3.053363 -0.798131 -1.856411
3.215242 -0.836340 -1.852228
3.395509 -0.878273 -1.851224
3.598484 -0.926141 -1.852699
3.818799 -0.978147 -1.853758
4.083866 -1.039890 -1.864755
4.318794 -1.095556 -1.850204
4.613548 -1.165221 -1.847832
4.981671 -1.251178 -1.859765
5.387449 -1.346964 -1.867217
5.987923 -1.488240 -1.916457
5.999353 -1.491858 -1.764552
6.116273 -1.521128 -1.642438
6.164978 -1.533456 -1.498454
6.177578 -1.538520 -1.347076
6.207727 -1.547694 -1.199944
6.177792 -1.513321 -1.040323
14.748089 -3.479273 -2.120402
6.687974 -1.633602 -0.800230
9.011317 -2.170201 -0.860343
16.362167 -3.863293 -1.167406
16.334179 -3.862502 -0.775179
0.004028 -0.098835 -0.003550
69.915298 -16.247057 0.038676
0.004028 -0.098835 -0.003550
0.004028 -0.098835 -0.003550
0.004028 -0.098835 -0.003550
70.240608 -16.406521 6.766380
0.004028 -0.098835 -0.003550
0.004028 -0.098835 -0.003550
70.616859 -16.554186 11.952515
0.004028 -0.098835 -0.003550
3.047615 -0.815050 -1.855372
3.210941 -0.854581 -1.852208
3.399577 -0.899577 -1.855893
3.597143 -0.947404 -1.854470
3.817198 -1.000690 -1.855444
4.074687 -1.062993 -1.863107
4.311213 -1.119714 -1.849410
4.610963 -1.192356 -1.849259
4.969266 -1.279127 -1.857687
5.374647 -1.376366 -1.865271
5.979837 -1.522408 -1.916425
6.020940 -1.534279 -1.773322
6.138111 -1.563225 -1.650492
6.186656 -1.576956 -1.505780
6.208906 -1.584427 -1.355751
6.235351 -1.592919 -1.206924
6.200291 -1.555814 -1.045460
14.756733 -3.573139 -2.124490
6.709969 -1.679086 -0.803888
8.927545 -2.204812 -0.853469
16.393969 -3.972761 -1.171205
16.401709 -3.977260 -0.779337
69.284584 -16.509930 -1.614354
69.364998 -16.553061 0.038700
0.004033 -0.098642 -0.003543
0.004033 -0.098642 -0.003543
0.004033 -0.098642 -0.003543
69.726303 -16.722746 6.726482
0.004033 -0.098642 -0.003543
0.004033 -0.098642 -0.003543
70.093979 -16.870462 11.880899
0.004033 -0.098642 -0.003543
3.045007 -0.833266 -1.856373
3.203031 -0.872539 -1.850230
3.391337 -0.918637 -1.853996
3.588593 -0.967628 -1.852656
3.811954 -1.022389 -1.855422
4.063723 -1.084871 -1.860645
0.004008 -0.098440 -0.003535
4.602796 -1.218174 -1.848508
4.973361 -1.310115 -1.861758
5.374578 -1.408808 -1.867798
5.899209 -1.538854 -1.893205
6.053677 -1.578691 -1.785394
6.184097 -1.611602 -1.665116
6.266919 -1.634052 -1.527367
6.268941 -1.635566 -1.370648
6.265095 -1.636805 -1.214276
6.231847 -1.602015 -1.052212
14.780795 -3.668374 -2.130799
6.746851 -1.729789 -0.809393
8.856841 -2.243359 -0.847887
16.516851 -4.101964 -1.181507
16.564833 -4.119361 -0.788092
48.834621 -11.962340 -1.140245
68.874779 -16.855289 0.038743
0.004008 -0.098440 -0.003535
69.022903 -16.926641 3.351884
48.807522 -12.014721 3.539542
69.197296 -17.004568 6.684688
0.004008 -0.098440 -0.003535
0.004008 -0.098440 -0.003535
69.587273 -17.159657 11.811213
0.004008 -0.098440 -0.003535
3.040858 -0.849999 -1.856354
3.198659 -0.890151 -1.850211
3.388448 -0.937730 -1.854915
3.592373 -0.989543 -1.857117
3.808332 -1.044494 -1.856254
4.065095 -1.109757 -1.863873
4.311741 -1.171879 -1.854751
4.603519 -1.246189 -1.851388
4.964473 -1.337995 -1.861048
5.366981 -1.439458 -1.867771
5.853779 -1.563232 -1.881282
6.050651 -1.614636 -1.787012
6.220346 -1.658204 -1.677212
6.244771 -1.666503 -1.524115
6.255917 -1.671487 -1.369786
6.286376 -1.681342 -1.220149
6.259770 -1.645504 -1.058319
14.804258 -3.763999 -2.137108
0.004013 -0.098247 -0.003529
8.784823 -2.277594 -0.842123
9.596463 -2.482384 -0.688750
0.004013 -0.098247 -0.003529
49.118717 -12.330564 -1.148274
48.964252 -12.309195 0.026763
49.035786 -12.335081 1.200122
0.004013 -0.098247 -0.003529
0.004013 -0.098247 -0.003529
68.674828 -17.308369 6.644219
68.884109 -17.372095 8.344193
0.004013 -0.098247 -0.003529
69.052444 -17.462551 11.737957
0.004013 -0.098247 -0.003529
3.038007 -0.868185 -1.857352
3.200660 -0.910569 -1.854104
3.376567 -0.955813 -1.851142
3.581819 -1.009251 -1.854406
3.799155 -1.065912 -1.854522
4.057445 -1.132428 -1.863037
4.305282 -1.197163 -1.854725
4.598454 -1.273672 -1.852089
4.953632 -1.365354 -1.859656
5.362620 -1.471933 -1.869021
5.865334 -1.602867 -1.887791
6.067914 -1.655864 -1.794684
6.199763 -1.691897 -1.674148
6.260154 -1.708456 -1.530063
6.277099 -1.715010 -1.376389
6.307617 -1.725087 -1.226023
6.294478 -1.693483 -1.065716
14.844367 -3.864394 -2.145911
6.802714 -1.825876 -0.818324
8.740873 -2.321501 -0.839127
9.532313 -2.524479 -0.685109
67.633835 -17.343988 -3.216078
0.004017 -0.098054 -0.003523
67.842400 -17.432106 0.038779
0.004017 -0.098054 -0.003523
0.004017 -0.098054 -0.003523
50.066406 -12.933322 3.641822
68.187080 -17.603104 6.606911
68.357307 -17.670763 8.293112
0.004017 -0.098054 -0.003523
68.532913 -17.751192 11.666965
0.004017 -0.098054 -0.003523
3.038534 -0.886711 -1.860391
3.197643 -0.929168 -1.855064
3.380122 -0.977206 -1.855811
3.574805 -1.029147 -1.853489
3.802306 -1.089795 -1.858775
4.054960 -1.156428 -1.864639
4.302475 -1.222603 -1.856241
4.593415 -1.300326 -1.852790
4.946262 -1.393578 -1.859629
5.363787 -1.504913 -1.872187
5.860308 -1.637305 -1.888951
6.084913 -1.697341 -1.802355
6.212932 -1.733193 -1.680180
6.282776 -1.752614 -1.537850
6.305515 -1.760819 -1.384649
6.334280 -1.770636 -1.233005
6.321499 -1.738842 -1.071822
9.475945 -2.559775 -1.372889
6.836905 -1.876239 -0.823599
0.003992 -0.097856 -0.003515
9.547157 -2.586561 -0.687139
67.131538 -17.627230 -3.196682
48.769508 -12.849397 -1.143123
67.344994 -17.717770 0.038801
0.003992 -0.097856 -0.003515
0.003992 -0.097856 -0.003515
48.739418 -12.891917 3.550692
0.003992 -0.097856 -0.003515
67.861336 -17.959547 8.245513
0.003992 -0.097856 -0.003515
68.029556 -18.038973 11.598895
0.003992 -0.097856 -0.003515
3.030644 -0.903053 -1.858335
3.192801 -0.947306 -1.855044
3.378431 -0.997305 -1.857667
3.583227 -1.053143 -1.860639
3.801757 -1.112803 -1.861315
4.052157 -1.181145 -1.866241
4.303082 -1.248999 -1.859296
4.599032 -1.329861 -1.857850
4.942129 -1.423596 -1.860968
5.357447 -1.535988 -1.872799
5.845823 -1.669246 -1.887138
6.099463 -1.739623 -1.809475
6.233329 -1.776708 -1.688234
6.308572 -1.799206 -1.546556
6.329567 -1.807102 -1.392081
6.356519 -1.816626 -1.239248
6.344386 -1.783549 -1.077283
9.489899 -2.623269 -1.377000
6.864962 -1.925517 -0.828180
0.003996 -0.097663 -0.003508
0.003996 -0.097663 -0.003508
0.003996 -0.097663 -0.003508
0.003996 -0.097663 -0.003508
48.860004 -13.190584 0.027437
0.003996 -0.097663 -0.003508
0.003996 -0.097663 -0.003508
49.560574 -13.421533 3.616477
0.003996 -0.097663 -0.003508
67.356636 -18.241148 8.196977
0.003996 -0.097663 -0.003508
67.520073 -18.332821 11.530502
0.003996 -0.097663 -0.003508
3.025820 -0.920760 -1.858316
3.196145 -0.968272 -1.859919
3.371343 -1.016606 -1.856709
3.572326 -1.072706 -1.857929
3.788909 -1.132510 -1.857877
4.047625 -1.204675 -1.867030
4.296196 -1.274237 -1.859273
4.586481 -1.354570 -1.855646
4.936260 -1.452258 -1.861626
5.354562 -1.568036 -1.874688
5.840376 -1.703610 -1.888297
6.117744 -1.782094 -1.817696
6.260899 -1.822572 -1.698310
6.332478 -1.844542 -1.554804
6.350126 -1.850464 -1.398685
6.388507 -1.863328 -1.247337
6.368576 -1.830205 -1.083065
6.457660 -1.855527 -0.939369
6.888503 -1.975328 -0.832299
0.003971 -0.097464 -0.003500
9.548245 -2.705780 -0.689263
0.003971 -0.097464 -0.003500
0.003971 -0.097464 -0.003500
66.349731 -18.286835 0.038841
0.003971 -0.097464 -0.003500
0.003971 -0.097464 -0.003500
0.003971 -0.097464 -0.003500
0.003971 -0.097464 -0.003500
66.841393 -18.514900 8.147266
0.003971 -0.097464 -0.003500
67.042603 -18.605230 11.466641
0.003971 -0.097464 -0.003500
3.019526 -0.936927 -1.857279
3.186188 -0.984441 -1.856963
3.366177 -1.035158 -1.856690
3.566832 -1.092376 -1.857908
3.788115 -1.155504 -1.860419
4.044925 -1.227980 -1.868634
4.296683 -1.299932 -1.862329
4.595333 -1.385216 -1.862159
4.928630 -1.479524 -1.861601
5.353319 -1.600611 -1.877217
5.821854 -1.734342 -1.885295
6.139718 -1.824798 -1.827018
6.269486 -1.863552 -1.703332
6.356341 -1.889091 -1.563052
6.379471 -1.897875 -1.407360
6.416068 -1.910490 -1.254687
6.396831 -1.876030 -1.089495
6.466843 -1.896584 -0.942110
6.923850 -2.026272 -0.837804
9.493048 -2.745836 -0.916476
9.547012 -2.762492 -0.690189
9.616639 -2.785351 -0.462781
9.652359 -2.798764 -0.229912
65.881409 -18.553616 0.038854
0.003976 -0.097271 -0.003494
0.003976 -0.097271 -0.003494
0.003976 -0.097271 -0.003494
0.003976 -0.097271 -0.003494
66.355820 -18.791956 8.101286
0.003976 -0.097271 -0.003494
66.536209 -18.877529 11.398555
0.003976 -0.097271 -0.003494
3.012990 -0.953569 -1.856241
3.184410 -1.003471 -1.858902
3.360724 -1.054262 -1.856670
3.567930 -1.114598 -1.861473
3.787190 -1.178528 -1.862961
4.038164 -1.251688 -1.868611
4.284372 -1.322856 -1.859997
4.591433 -1.412412 -1.863587
4.925774 -1.510015 -1.863623
5.342767 -1.630610 -1.876551
5.814190 -1.768080 -1.885861
6.157083 -1.868881 -1.835238
6.287119 -1.907371 -1.710881
6.439118 -1.953452 -1.586015
6.462677 -1.962547 -1.428058
6.473206 -1.967896 -1.267942
6.418790 -1.921727 -1.094956
6.454154 -1.934085 -0.941800
6.956580 -2.078337 -0.843077
9.498743 -2.806151 -0.918464
9.638494 -2.849458 -0.697888
16.635540 -4.851155 -0.799364
0.003950 -0.097073 -0.003486
64.761559 -18.654011 0.038464
0.003950 -0.097073 -0.003486
0.003950 -0.097073 -0.003486
0.003950 -0.097073 -0.003486
0.003950 -0.097073 -0.003486
0.003950 -0.097073 -0.003486
0.003950 -0.097073 -0.003486
0.003950 -0.097073 -0.003486
0.003950 -0.097073 -0.003486
3.012831 -0.972617 -1.859280
3.177290 -1.021595 -1.857903
3.358374 -1.074911 -1.858525
3.565264 -1.136482 -1.863244
3.778980 -1.200201 -1.862085
4.031254 -1.275358 -1.868588
4.285880 -1.350572 -1.863820
4.576407 -1.437256 -1.860657
4.906512 -1.535763 -1.859500
5.340883 -1.664137 -1.879080
5.811522 -1.804412 -1.888210
6.177841 -1.914321 -1.844558
6.305993 -1.953096 -1.718934
6.456019 -1.999589 -1.592882
6.455258 -2.001672 -1.428855
6.471443 -2.008760 -1.269756
6.447661 -1.971061 -1.101707
6.439360 -1.970947 -0.941214
6.988603 -2.132065 -0.848350
0.003955 -0.096876 -0.003480
0.003955 -0.096876 -0.003480
0.003955 -0.096876 -0.003480
0.003955 -0.096876 -0.003480
64.677414 -19.044888 0.038738
0.003955 -0.096876 -0.003480
0.003955 -0.096876 -0.003480
0.003955 -0.096876 -0.003480
0.003955 -0.096876 -0.003480
0.003955 -0.096876 -0.003480
0.003955 -0.096876 -0.003480
0.003955 -0.096876 -0.003480
0.003955 -0.096876 -0.003480
3.011042 -0.990666 -1.861300
3.175267 -1.040607 -1.859842
3.352712 -1.093968 -1.858506
3.555809 -1.155709 -1.861432
3.777776 -1.223225 -1.864628
4.029856 -1.299139 -1.871003
4.275072 -1.373897 -1.862259
4.575764 -1.465443 -1.863538
4.911000 -1.566628 -1.864255
5.339042 -1.696754 -1.881610
5.792471 -1.834809 -1.885209
6.215518 -1.962879 -1.858832
6.358232 -2.008036 -1.736084
6.432282 -2.031387 -1.589634
6.455804 -2.040781 -1.431314
6.494557 -2.054792 -1.276369
6.470840 -2.017981 -1.107490
6.457299 -2.015044 -0.945341
7.024390 -2.186142 -0.854085
10.031394 -3.084704 -0.973000
16.621468 -5.051253 -1.205070
16.655487 -5.067375 -0.802900
65.296822 -19.610886 -1.542703
64.448151 -19.368149 0.038891
0.003961 -0.096679 -0.003473
0.003961 -0.096679 -0.003473
0.003961 -0.096679 -0.003473
0.003961 -0.096679 -0.003473
64.928131 -19.616026 7.967991
0.003961 -0.096679 -0.003473
65.091599 -19.699570 11.208587
0.003961 -0.096679 -0.003473
3.007497 -1.008232 -1.862301
3.176467 -1.060646 -1.863738
3.350315 -1.114026 -1.860363
3.553107 -1.176946 -1.863205
3.769514 -1.244167 -1.863752
4.019192 -1.321698 -1.869357
4.267669 -1.398225 -1.862236
4.567828 -1.491496 -1.863514
4.898631 -1.594361 -1.862864
5.327952 -1.726637 -1.880944
5.784212 -1.868411 -1.885776
6.217202 -2.003379 -1.862651
6.365644 -2.050006 -1.741107
6.454186 -2.079517 -1.597880
6.479697 -2.089691 -1.439159
6.512911 -2.102257 -1.282243
6.499342 -2.066953 -1.114242
6.476147 -2.062244 -0.949744
7.065484 -2.242433 -0.860512
7.988783 -2.525898 -0.776807
16.765528 -5.202289 -1.217581
0.003935 -0.096481 -0.003465
65.610039 -20.115797 -1.552528
63.988586 -19.644106 0.038915
0.003935 -0.096481 -0.003465
64.133156 -19.722315 3.166656
64.262222 -19.785004 4.738926
0.003935 -0.096481 -0.003465
64.423668 -19.868666 7.920121
0.003935 -0.096481 -0.003465
64.608398 -19.971985 11.145694
0.003935 -0.096481 -0.003465
3.000388 -1.025289 -1.861263
3.169050 -1.078701 -1.862741
3.342523 -1.133097 -1.859404
3.544938 -1.197216 -1.862289
3.759383 -1.264513 -1.862022
4.013814 -1.345091 -1.870147
4.259889 -1.423251 -1.862214
4.570411 -1.520835 -1.867849
4.900688 -1.625626 -1.866936
5.318480 -1.757005 -1.880917
5.775742 -1.901970 -1.886342
6.246526 -2.051504 -1.874723
6.376463 -2.093282 -1.747140
6.477970 -2.127429 -1.606587
6.509552 -2.138442 -1.448250
6.537245 -2.149500 -1.289225
6.523369 -2.116284 -1.120347
6.496892 -2.109183 -0.954423
9.902493 -3.168535 -1.206978
7.989483 -2.577677 -0.778247
0.003940 -0.096288 -0.003459
0.003940 -0.096288 -0.003459
0.003940 -0.096288 -0.003459
63.086586 -19.765491 0.038627
0.003940 -0.096288 -0.003459
0.003940 -0.096288 -0.003459
0.003940 -0.096288 -0.003459
0.003940 -0.096288 -0.003459
0.003940 -0.096288 -0.003459
63.466953 -19.997725 9.387253
0.003940 -0.096288 -0.003459
0.003940 -0.096288 -0.003459
3.000103 -1.043332 -1.864303
3.156875 -1.094017 -1.858809
3.338392 -1.152020 -1.860325
3.538727 -1.216727 -1.862269
3.762973 -1.289163 -1.867130
4.013543 -1.370132 -1.873375
4.261222 -1.449546 -1.866040
4.565681 -1.547983 -1.869277
4.895425 -1.654691 -1.868278
5.310652 -1.787896 -1.881530
5.770734 -1.936656 -1.888098
6.269969 -2.098267 -1.885144
6.401745 -2.141460 -1.757215
6.506982 -2.177458 -1.616675
6.527148 -2.186283 -1.454852
6.558650 -2.198759 -1.295836
6.551536 -2.164876 -1.127100
6.517304 -2.156421 -0.959103
0.003914 -0.096089 -0.003451
7.958415 -2.616527 -0.776551
35.626938 -11.396430 -2.592765
66.120285 -21.080866 -3.193827
0.003914 -0.096089 -0.003451
63.271717 -20.222755 0.039060
63.347778 -20.257816 1.582500
0.003914 -0.096089 -0.003451
63.434780 -20.331654 4.695192
0.003914 -0.096089 -0.003451
0.003914 -0.096089 -0.003451
0.003914 -0.096089 -0.003451
0.003914 -0.096089 -0.003451
0.003914 -0.096089 -0.003451
2.986264 -1.058217 -1.859191
3.152574 -1.113009 -1.859769
3.337114 -1.173175 -1.863118
3.535453 -1.238542 -1.864042
3.759272 -1.312313 -1.868817
4.006167 -1.392955 -1.873355
4.254892 -1.475100 -1.866787
4.562341 -1.576501 -1.871433
4.893519 -1.684898 -1.870984
5.305954 -1.820855 -1.883421
5.759743 -1.970576 -1.888070
6.443032 -2.194223 -1.940669
6.420794 -2.189315 -1.765774
6.531902 -2.226676 -1.625841
6.555944 -2.236914 -1.463942
6.585685 -2.249033 -1.303555
6.576733 -2.215531 -1.133529
6.637321 -2.236206 -0.978469
9.787093 -3.256067 -1.197203
7.931990 -2.659721 -0.775408
35.447506 -11.563944 -2.584338
66.422508 -21.610386 -3.214250
0.003919 -0.095896 -0.003445
63.655304 -20.748224 0.039629
0.003919 -0.095896 -0.003445
63.772026 -20.832670 3.166900
0.003919 -0.095896 -0.003445
0.003919 -0.095896 -0.003445
0.003919 -0.095896 -0.003445
0.003919 -0.095896 -0.003445
0.003919 -0.095896 -0.003445
0.003919 -0.095896 -0.003445
2.988852 -1.077826 -1.864268
3.151652 -1.132524 -1.862687
3.327515 -1.191007 -1.861224
3.530514 -1.259179 -1.864918
3.745356 -1.331408 -1.865379
3.995176 -1.414589 -1.871709
4.243389 -1.498151 -1.865226
4.553737 -1.602470 -1.871409
4.884317 -1.712778 -1.870961
5.295947 -1.851097 -1.883395
5.748855 -2.003422 -1.888042
6.441809 -2.234633 -1.943940
6.439871 -2.236341 -1.774334
6.558329 -2.276870 -1.635468
6.614085 -2.297838 -1.479667
6.653383 -2.313374 -1.319394
6.601947 -2.265412 -1.139958
6.641822 -2.279666 -0.980931
0.003894 -0.095698 -0.003437
7.847125 -2.681973 -0.768546
36.010075 -11.974818 -2.630097
0.003894 -0.095698 -0.003437
37.216461 -12.400101 -0.888041
63.928574 -21.243578 0.040126
0.003894 -0.095698 -0.003437
64.025314 -21.322536 3.185739
64.218559 -21.397720 4.771544
64.196732 -21.414036 6.351284
64.293098 -21.469614 7.963818
64.414543 -21.521128 9.581449
64.255821 -21.491896 11.167793
64.445694 -21.578747 12.840579
2.986413 -1.095860 -1.866288
3.142316 -1.149281 -1.860711
3.321171 -1.209889 -1.861205
3.525454 -1.279793 -1.865795
3.741600 -1.353842 -1.867067
3.992469 -1.439747 -1.874124
4.235244 -1.522288 -1.865204
4.553857 -1.631377 -1.875019
4.880004 -1.743254 -1.872985
5.285793 -1.881285 -1.883371
5.750467 -2.040496 -1.892177
6.421739 -2.270050 -1.941709
6.462283 -2.284901 -1.783904
6.635610 -2.346098 -1.657970
6.647211 -2.352479 -1.489998
6.662470 -2.360109 -1.323792
6.628674 -2.316276 -1.146711
6.608105 -2.311809 -0.977852
0.003898 -0.095505 -0.003430
7.826466 -2.724910 -0.767959
35.865326 -12.162827 -2.624569
0.003898 -0.095505 -0.003430
36.868481 -12.520356 -0.881317
64.217232 -21.761633 0.040648
0.003898 -0.095505 -0.003430
0.003898 -0.095505 -0.003430
64.514542 -21.920696 4.803326
64.501190 -21.939945 6.394364
64.535973 -21.962936 8.009597
0.003898 -0.095505 -0.003430
0.003898 -0.095505 -0.003430
64.814148 -22.116188 12.939279
2.973922 -1.111075 -1.862195
3.136034 -1.167650 -1.860693
3.316190 -1.229888 -1.862125
3.520068 -1.301003 -1.866671
3.737751 -1.376278 -1.868758
3.986426 -1.463045 -1.874916
4.235456 -1.550122 -1.869030
4.541424 -1.656090 -1.873544
4.866885 -1.769825 -1.871595
5.271842 -1.910176 -1.882067
5.746407 -2.075780 -1.894528
6.376434 -2.295408 -1.931781
6.482507 -2.333157 -1.792969
6.609711 -2.379527 -1.654723
6.645646 -2.393108 -1.492458
6.675745 -2.405991 -1.328929
6.656477 -2.369315 -1.153785
6.623369 -2.359149 -0.981979
7.856651 -2.783823 -0.967113
7.727872 -2.742584 -0.759807
0.003903 -0.095308 -0.003424
7.836500 -2.784078 -0.384190
0.003903 -0.095308 -0.003424
64.502045 -22.271288 0.041159
0.003903 -0.095308 -0.003424
0.003903 -0.095308 -0.003424
64.819923 -22.439861 4.835800
64.788765 -22.440443 6.435367
64.844765 -22.483740 8.064020
64.921806 -22.534359 9.695729
0.003903 -0.095308 -0.003424
0.003903 -0.095308 -0.003424
2.966584 -1.126840 -1.861158
3.141526 -1.188902 -1.867525
3.308130 -1.247541 -1.861168
3.515002 -1.320973 -1.867550
3.730323 -1.397517 -1.868738
3.981945 -1.486918 -1.876520
4.222064 -1.571652 -1.866701
4.535898 -1.683176 -1.874974
4.869598 -1.801904 -1.876351
5.263120 -1.940852 -1.882682
5.740345 -2.110451 -1.896286
6.316524 -2.315211 -1.917452
6.504241 -2.382364 -1.802540
6.623984 -2.426954 -1.661590
6.676201 -2.447818 -1.502376
6.713831 -2.463581 -1.339230
6.682843 -2.419778 -1.160538
6.662609 -2.415207 -0.989706
7.826531 -2.822118 -0.965235
7.701710 -2.781458 -0.758668
0.003878 -0.095109 -0.003416
7.808185 -2.822877 -0.383515
0.003878 -0.095109 -0.003416
64.828392 -22.800789 0.041702
0.003878 -0.095109 -0.003416
0.003878 -0.095109 -0.003416
65.080017 -22.948708 4.865179
65.089188 -22.976122 6.478822
65.147812 -23.008150 8.118212
65.189568 -23.047066 9.755522
65.200172 -23.075027 11.400594
0.003878 -0.095109 -0.003416
2.963661 -1.145317 -1.863179
3.130060 -1.205510 -1.864571
3.301265 -1.266889 -1.861150
3.511054 -1.342741 -1.869323
3.727636 -1.421175 -1.871280
3.972146 -1.508942 -1.875687
4.216703 -1.597642 -1.868217
4.526401 -1.709780 -1.874950
4.863259 -1.830906 -1.877694
5.261007 -1.974951 -1.885851
5.748081 -2.151266 -1.902798
6.303653 -2.351253 -1.917423
6.525180 -2.433023 -1.812109
6.645282 -2.477248 -1.670297
6.715966 -2.505105 -1.514368
6.738974 -2.515877 -1.346951
6.713612 -2.474933 -1.168259
6.680903 -2.464503 -0.994387
7.744733 -2.844926 -0.957129
7.685647 -2.826798 -0.758633
7.663971 -2.820434 -0.566564
7.810705 -2.875556 -0.384399
0.003883 -0.094916 -0.003410
65.131950 -23.328056 0.042231
0.003883 -0.094916 -0.003410
65.224449 -23.409735 3.272440
65.338287 -23.461956 4.894697
65.408379 -23.511440 6.524136
65.465302 -23.556250 8.175212
65.531876 -23.591665 9.827057
65.505264 -23.606573 11.477649
0.003883 -0.094916 -0.003410
2.959218 -1.162699 -1.864182
3.120355 -1.222075 -1.862597
3.296128 -1.286220 -1.862070
3.505480 -1.363280 -1.870200
3.719970 -1.442359 -1.871262
3.963694 -1.532212 -1.875665
4.207996 -1.621629 -1.868196
4.517056 -1.735550 -1.874929
4.861720 -1.862662 -1.881084
5.246564 -2.003640 -1.884549
5.732566 -2.182735 -1.901582
6.295588 -2.390294 -1.919044
6.544364 -2.482213 -1.821175
6.665809 -2.529035 -1.679005
6.729133 -2.554691 -1.520555
6.765121 -2.570389 -1.355038
6.742513 -2.528680 -1.175657
6.713305 -2.520645 -1.001282
7.717567 -2.885114 -0.955711
7.696028 -2.880202 -0.761183
7.666451 -2.872356 -0.567912
7.779561 -2.914737 -0.383631
0.003857 -0.094718 -0.003402
65.433067 -23.873022 0.042774
0.003857 -0.094718 -0.003402
65.513626 -23.938471 3.294017
65.672958 -24.021097 4.930561
65.719345 -24.062647 6.569462
65.769661 -24.092655 8.230573
65.821198 -24.136139 9.891894
65.815163 -24.158619 11.556990
0.003857 -0.094718 -0.003402
2.951215 -1.179381 -1.863145
3.121814 -1.243323 -1.867472
3.289028 -1.305498 -1.862052
3.492881 -1.381938 -1.867492
3.708534 -1.462884 -1.869533
3.953418 -1.554807 -1.874834
4.202362 -1.647580 -1.869715
4.517741 -1.765929 -1.879264
4.847641 -1.889895 -1.879694
5.235178 -2.034454 -1.884524
5.734446 -2.221745 -1.906313
6.287305 -2.429327 -1.920666
6.562757 -2.532839 -1.830240
6.689587 -2.582500 -1.688632
6.760273 -2.611352 -1.530888
7.122381 -2.748914 -1.429544
6.770562 -2.584019 -1.183053
6.741580 -2.575882 -1.007624
7.546196 -2.873546 -0.936536
7.713037 -2.937919 -0.764471
7.771502 -2.962405 -0.576860
0.003862 -0.094525 -0.003395
0.003862 -0.094525 -0.003395
65.759972 -24.433470 0.043339
0.003862 -0.094525 -0.003395
65.856384 -24.505697 3.318725
66.001404 -24.584326 4.966286
66.016724 -24.614883 6.613852
0.003862 -0.094525 -0.003395
66.132355 -24.694532 9.960644
66.111557 -24.711704 11.634704
66.248955 -24.774647 13.364798
2.954799 -1.199205 -1.869244
3.115352 -1.260472 -1.867455
3.288837 -1.326059 -1.865786
3.487340 -1.401785 -1.868371
3.705935 -1.485212 -1.872078
3.952061 -1.579159 -1.878063
4.200538 -1.673347 -1.872773
4.508365 -1.790852 -1.879243
4.839326 -1.917317 -1.880355
5.226037 -2.064036 -1.885139
5.722495 -2.253440 -1.906287
6.284970 -2.468177 -1.923939
6.583446 -2.582149 -1.839810
6.741156 -2.644322 -1.705158
6.938255 -2.721546 -1.574383
7.182829 -2.816919 -1.444644
6.804661 -2.639476 -1.191422
6.790716 -2.636817 -1.017015
7.461754 -2.889533 -0.927973
10.533063 -4.044637 -1.044991
0.003837 -0.094323 -0.003387
0.003837 -0.094323 -0.003387
0.003837 -0.094323 -0.003387
66.076256 -24.969896 0.043872
0.003837 -0.094323 -0.003387
66.192238 -25.050455 3.342842
66.296906 -25.115019 4.999172
66.326035 -25.151127 6.658972
66.531731 -25.240738 8.362080
66.473877 -25.244038 10.033289
66.451233 -25.260620 11.719234
66.591774 -25.325743 13.462373
2.941764 -1.214006 -1.865150
3.103500 -1.276812 -1.864502
3.281466 -1.345288 -1.865767
3.484550 -1.424107 -1.871041
3.695944 -1.506263 -1.871204
3.938334 -1.599668 -1.875607
4.191123 -1.697971 -1.872752
4.494741 -1.815959 -1.877767
4.837535 -1.948243 -1.883746
5.212531 -2.094049 -1.884476
5.698913 -2.282957 -1.902695
6.280216 -2.507493 -1.926662
6.608325 -2.636162 -1.850896
6.786318 -2.705884 -1.720302
6.879239 -2.744273 -1.564407
0.003842 -0.094130 -0.003381
6.839274 -2.698486 -1.200111
9.232003 -3.611793 -1.384587
7.480327 -2.946909 -0.932322
7.484486 -2.951336 -0.745040
36.164913 -13.912238 -2.684207
48.162548 -18.515150 -2.373181
0.003842 -0.094130 -0.003381
65.911636 -25.341200 0.044076
0.003842 -0.094130 -0.003381
0.003842 -0.094130 -0.003381
0.003842 -0.094130 -0.003381
0.003842 -0.094130 -0.003381
0.003842 -0.094130 -0.003381
0.003842 -0.094130 -0.003381
0.003842 -0.094130 -0.003381
0.003842 -0.094130 -0.003381
2.933691 -1.230051 -1.864115
3.099920 -1.295669 -1.866443
3.275877 -1.364543 -1.866687
3.476831 -1.443884 -1.871022
3.686082 -1.526604 -1.870331
3.936417 -1.624705 -1.878835
4.180119 -1.721142 -1.871962
4.486513 -1.842220 -1.878473
4.828545 -1.976475 -1.884406
5.213289 -2.128575 -1.888925
5.691565 -2.317534 -1.904452
6.278781 -2.548226 -1.930486
6.937800 -2.808630 -1.947361
6.867235 -2.782241 -1.744642
6.849314 -2.777833 -1.561062
6.889384 -2.796173 -1.391821
6.925388 -2.776758 -1.217841
0.003847 -0.093933 -0.003375
7.434167 -2.978136 -0.928601
0.003847 -0.093933 -0.003375
36.276432 -14.194114 -2.698316
47.523365 -18.584251 -2.346761
0.003847 -0.093933 -0.003375
0.003847 -0.093933 -0.003375
0.003847 -0.093933 -0.003375
0.003847 -0.093933 -0.003375
0.003847 -0.093933 -0.003375
0.003847 -0.093933 -0.003375
0.003847 -0.093933 -0.003375
0.003847 -0.093933 -0.003375
0.003847 -0.093933 -0.003375
0.003847 -0.093933 -0.003375
2.930317 -1.247932 -1.866137
3.086465 -1.310681 -1.862512
3.265228 -1.381826 -1.864794
3.469025 -1.463621 -1.871005
3.682814 -1.549535 -1.872875
3.932390 -1.649783 -1.881253
4.170704 -1.744917 -1.871942
4.483306 -1.870498 -1.881356
0.003822 -0.093734 -0.003367
5.203281 -2.158983 -1.889541
5.682233 -2.351397 -1.905616
6.271271 -2.587987 -1.932657
6.907697 -2.842511 -1.943290
6.838560 -2.817600 -1.741395
6.853299 -2.826101 -1.565593
6.862314 -2.832332 -1.389578
6.891495 -2.809062 -1.214584
6.767499 -2.762767 -1.020253
9.143383 -3.701978 -1.143961
0.003822 -0.093734 -0.003367
36.958561 -14.711584 -2.755250
47.174816 -18.761311 -2.334670
0.003822 -0.093734 -0.003367
67.042198 -26.675142 0.045558
0.003822 -0.093734 -0.003367
67.130722 -26.748226 3.413920
67.324860 -26.851177 5.111820
0.003822 -0.093734 -0.003367
67.482384 -26.951977 8.539848
67.464226 -26.970675 10.252669
0.003822 -0.093734 -0.003367
67.616798 -27.069708 13.763320
2.931409 -1.268244 -1.871216
3.088900 -1.332610 -1.868365
3.262475 -1.402895 -1.867590
3.459203 -1.483253 -1.870091
3.671025 -1.569103 -1.871147
3.918296 -1.670089 -1.878797
4.164256 -1.770738 -1.873460
4.476476 -1.897406 -1.882787
4.827163 -2.040689 -1.892555
5.196593 -2.190763 -1.891434
5.670955 -2.384517 -1.906187
6.280015 -2.633142 -1.939781
6.843338 -2.862337 -1.929621
6.824581 -2.857367 -1.741826
6.836138 -2.863294 -1.565150
6.846945 -2.870312 -1.389551
6.860647 -2.843730 -1.211972
6.741008 -2.796974 -1.018562
9.088647 -3.742511 -1.139772
0.003826 -0.093541 -0.003360
37.573639 -15.204992 -2.807351
47.484146 -19.209526 -2.355350
0.003826 -0.093541 -0.003360
67.381721 -27.258774 0.046134
0.003826 -0.093541 -0.003360
67.493210 -27.342115 3.440509
67.676712 -27.442333 5.150636
67.681747 -27.456747 6.857453
67.875504 -27.561285 8.609694
67.862900 -27.582380 10.337353
67.947029 -27.628885 12.092568
67.952232 -27.657206 13.863879
2.921628 -1.283039 -1.869162
3.086808 -1.351560 -1.871285
3.251858 -1.419497 -1.865699
3.446440 -1.500258 -1.867385
3.670873 -1.593382 -1.875402
3.910854 -1.693052 -1.879590
4.153138 -1.793000 -1.872671
4.466036 -1.922882 -1.882767
4.812428 -2.066754 -1.891168
5.186196 -2.221091 -1.892050
0.003801 -0.093343 -0.003352
6.270643 -2.671168 -1.941404
6.805836 -2.892562 -1.923531
6.801374 -2.893357 -1.739959
6.944419 -2.954966 -1.593720
6.959388 -2.963829 -1.415717
6.852498 -2.884679 -1.213235
6.822547 -2.875106 -1.033215
9.029562 -3.777127 -1.134897
0.003801 -0.093343 -0.003352
38.415115 -15.800343 -2.876719
47.204899 -19.403299 -2.346667
0.003801 -0.093343 -0.003352
67.733345 -27.854000 0.046725
0.003801 -0.093343 -0.003352
67.836304 -27.934980 3.466341
68.042465 -28.046001 5.190859
68.004639 -28.056849 6.907084
68.280380 -28.182798 8.681643
0.003801 -0.093343 -0.003352
53.282253 -22.053808 9.504970
68.292198 -28.253191 13.966299
2.916129 -1.300758 -1.870165
3.072855 -1.366918 -1.867354
3.245568 -1.439182 -1.866618
3.451236 -1.525903 -1.874536
3.658583 -1.613478 -1.873675
3.904988 -1.716686 -1.881196
4.144725 -1.818055 -1.873422
4.456851 -1.949793 -1.883472
4.806200 -2.096326 -1.893194
5.180520 -2.254465 -1.894583
5.652635 -2.453769 -1.909109
6.257503 -2.707685 -1.941929
6.773097 -2.925875 -1.918957
6.803132 -2.939698 -1.744530
7.072232 -3.055108 -1.626851
7.133098 -3.083392 -1.454429
6.972603 -2.981674 -1.237424
6.936344 -2.967925 -1.052853
8.980064 -3.818892 -1.131403
0.003805 -0.093150 -0.003346
0.003805 -0.093150 -0.003346
46.599045 -19.478168 -2.322093
0.003805 -0.093150 -0.003346
68.072983 -28.451088 0.047309
68.158554 -28.513309 1.761840
68.201134 -28.557655 3.493791
68.315109 -28.617867 5.224321
68.344299 -28.656713 6.958389
54.362358 -22.834024 6.928419
0.003805 -0.093150 -0.003346
53.149635 -22.357241 9.504161
0.003805 -0.093150 -0.003346
2.910729 -1.317940 -1.871168
3.065474 -1.384337 -1.867337
3.237788 -1.457594 -1.866602
3.438010 -1.543405 -1.871830
3.649779 -1.634258 -1.873656
3.895584 -1.738876 -1.881177
4.144921 -1.845938 -1.878019
4.447816 -1.975882 -1.884178
4.798059 -2.125160 -1.894538
5.166277 -2.283244 -1.893922
5.646009 -2.488984 -1.911463
6.251201 -2.747139 -1.944652
6.740658 -2.957718 -1.914383
6.892335 -3.023488 -1.771629
7.116276 -3.121546 -1.640914
7.200775 -3.160341 -1.471741
7.126867 -3.093508 -1.267747
7.104077 -3.085220 -1.080802
7.417218 -3.220085 -0.937214
0.003810 -0.092957 -0.003340
40.112270 -17.034666 -3.017788
47.007626 -19.965645 -2.347923
0.003810 -0.092957 -0.003340
68.428215 -29.061560 0.047908
68.489281 -29.114254 1.774908
0.003810 -0.092957 -0.003340
68.711952 -29.248335 5.267644
0.003810 -0.092957 -0.003340
53.971146 -23.035585 6.895406
0.003810 -0.092957 -0.003340
52.920864 -22.619684 9.486419
50.142017 -21.456383 10.303991
2.898886 -1.332394 -1.868095
3.053189 -1.399646 -1.864386
3.229892 -1.475957 -1.866586
3.431253 -1.563622 -1.872709
3.644180 -1.656411 -1.875347
3.890798 -1.763857 -1.883594
4.136490 -1.870240 -1.878770
4.440356 -2.002667 -1.885610
4.785948 -2.153315 -1.894517
5.164038 -2.317176 -1.897733
5.628621 -2.519655 -1.910250
6.224790 -2.779315 -1.941326
6.835999 -3.044540 -1.946181
6.971341 -3.105751 -1.796429
7.209559 -3.211602 -1.666583
7.323161 -3.263659 -1.500489
7.220192 -3.181576 -1.287414
7.231881 -3.189420 -1.102931
7.422861 -3.272621 -0.940183
0.003785 -0.092758 -0.003332
40.667599 -17.553532 -3.067110
46.604408 -20.111479 -2.333367
0.003785 -0.092758 -0.003332
68.777191 -29.690639 0.048519
68.833687 -29.727840 1.788456
0.003785 -0.092758 -0.003332
0.003785 -0.092758 -0.003332
0.003785 -0.092758 -0.003332
53.809151 -23.332634 6.891834
51.073368 -22.171116 7.855406
52.837181 -22.954473 9.495706
0.003785 -0.092758 -0.003332
2.896224 -1.351374 -1.871136
3.051799 -1.420267 -1.868284
3.228126 -1.497660 -1.870320
3.424142 -1.584410 -1.873588
3.638186 -1.679190 -1.877039
3.884477 -1.787431 -1.885200
4.127563 -1.895216 -1.879519
4.427253 -2.027957 -1.884863
4.774034 -2.180568 -1.894496
5.155988 -2.349779 -1.899627
5.610670 -2.551192 -1.909038
6.202193 -2.811735 -1.939101
6.825485 -3.087861 -1.948174
7.050133 -3.187819 -1.821229
7.307922 -3.303951 -1.693494
7.446952 -3.368023 -1.529606
7.353803 -3.290204 -1.314507
7.357422 -3.293157 -1.124783
7.445771 -3.334553 -0.945456
0.003789 -0.092565 -0.003325
41.232239 -18.077150 -3.117261
72.164513 -31.598928 -3.620412
0.003789 -0.092565 -0.003325
69.133675 -30.315998 0.049127
69.195465 -30.370424 1.802730
0.003789 -0.092565 -0.003325
0.003789 -0.092565 -0.003325
69.450134 -30.549988 7.124667
50.880524 -22.425983 6.533533
50.815029 -22.406801 7.835421
49.883095 -22.017300 8.987255
50.731003 -22.410105 10.478249
2.892089 -1.369166 -1.873159
3.042536 -1.436861 -1.867290
3.215151 -1.513822 -1.867490
3.413868 -1.603117 -1.872675
3.629272 -1.699216 -1.877021
3.876347 -1.810248 -1.885994
4.120525 -1.920188 -1.881040
4.423204 -2.055401 -1.887748
4.768830 -2.210805 -1.897206
5.153716 -2.382879 -1.903440
5.598611 -2.582973 -1.909609
6.191727 -2.849462 -1.940725
6.836985 -3.138239 -1.956232
7.149555 -3.280408 -1.851546
7.395335 -3.391460 -1.717921
7.588313 -3.480611 -1.562414
7.479730 -3.396019 -1.340308
7.489275 -3.401651 -1.147743
7.445192 -3.385119 -0.947734
0.003764 -0.092367 -0.003317
41.845112 -18.631271 -3.171418
72.537460 -32.259193 -3.648097
0.003764 -0.092367 -0.003317
69.039230 -30.748371 0.049395
0.003764 -0.092367 -0.003317
0.003764 -0.092367 -0.003317
0.003764 -0.092367 -0.003317
53.602577 -23.956549 5.511790
51.415627 -23.003325 6.618742
47.884380 -21.448759 7.402271
0.003764 -0.092367 -0.003317
0.003764 -0.092367 -0.003317
2.889639 -1.387156 -1.876201
3.039748 -1.455711 -1.870209
3.216837 -1.535835 -1.873100
3.413543 -1.625564 -1.877139
3.616965 -1.717711 -1.875295
3.865068 -1.830855 -1.885166
4.101848 -1.939106 -1.877173
4.412215 -2.079806 -1.887731
4.755242 -2.236354 -1.896504
5.142586 -2.412118 -1.904057
5.595106 -2.618636 -1.913155
6.172789 -2.882123 -1.939603
6.814609 -3.173677 -1.954690
7.238043 -3.368155 -1.879104
7.494451 -3.485689 -1.745247
7.753711 -3.606242 -1.600386
7.614270 -3.506101 -1.367723
7.622498 -3.511237 -1.170980
7.526387 -3.471111 -0.960387
0.003769 -0.092170 -0.003311
41.824821 -18.901617 -3.177650
72.943672 -32.926819 -3.677442
0.003769 -0.092170 -0.003311
69.910225 -31.602566 0.050390
69.958145 -31.652182 1.832253
0.003769 -0.092170 -0.003311
0.003769 -0.092170 -0.003311
52.702961 -23.908670 5.432953
50.869053 -23.100239 6.564903
48.038788 -21.839268 7.444927
0.003769 -0.092170 -0.003311
0.003769 -0.092170 -0.003311
2.885042 -1.405441 -1.878223
3.025296 -1.470569 -1.866280
3.203410 -1.552430 -1.870271
3.396257 -1.641805 -1.872641
3.611908 -1.741756 -1.877840
3.858020 -1.855005 -1.886771
4.092518 -1.963906 -1.877924
4.400011 -2.106435 -1.887710
4.745870 -2.265811 -1.897848
5.126637 -2.442408 -1.903396
5.586535 -2.655654 -1.915508
6.150894 -2.915988 -1.937927
6.800977 -3.217365 -1.956178
7.340533 -3.466858 -1.910798
7.583827 -3.581822 -1.770913
7.851737 -3.708334 -1.625072
7.751968 -3.622930 -1.396105
7.762532 -3.629224 -1.195601
7.677945 -3.593747 -0.982261
0.003744 -0.091968 -0.003303
41.736309 -19.159527 -3.179318
73.345741 -33.631355 -3.707414
0.003744 -0.091968 -0.003303
70.264275 -32.263947 0.051019
70.335281 -32.324791 1.847337
0.003744 -0.091968 -0.003303
70.462120 -32.424812 5.472434
53.778160 -24.790331 5.559470
51.330551 -23.686842 6.643122
47.556461 -21.961010 7.390244
49.972492 -23.092262 9.073989
51.345104 -23.744755 10.688331
2.877454 -1.421782 -1.878208
3.020488 -1.489178 -1.868222
3.191754 -1.569108 -1.868379
3.393803 -1.664087 -1.876210
3.600727 -1.761505 -1.876968
3.849479 -1.877696 -1.887566
4.086724 -1.989508 -1.880215
4.388348 -2.131465 -1.887690
4.741830 -2.296797 -1.901242
5.116463 -2.473212 -1.904652
5.583816 -2.693146 -1.919646
6.139812 -2.953516 -1.939554
6.800418 -3.264362 -1.961203
7.509725 -3.596892 -1.959964
7.673532 -3.676492 -1.796580
8.019558 -3.841467 -1.664149
7.896349 -3.743459 -1.425779
7.925402 -3.758422 -1.223821
7.837961 -3.721111 -1.005289
0.003749 -0.091775 -0.003297
41.673077 -19.420706 -3.182785
73.731613 -34.321377 -3.736566
0.003749 -0.091775 -0.003297
70.647682 -32.931805 0.051663
70.716232 -32.992329 1.862511
0.003749 -0.091775 -0.003297
53.346512 -24.942581 4.153469
52.889931 -24.751308 5.482316
51.829422 -24.277826 6.725769
0.003749 -0.091775 -0.003297
49.303085 -23.128325 8.976444
51.345333 -24.103424 10.717099
2.872892 -1.439538 -1.880232
3.015559 -1.507772 -1.870163
3.188013 -1.589464 -1.871177
3.381453 -1.681819 -1.874400
3.599266 -1.785804 -1.881224
3.840480 -1.901017 -1.888359
4.084106 -2.016681 -1.884045
4.381618 -2.158820 -1.889850
4.732060 -2.326219 -1.902586
5.107825 -2.504784 -1.906547
5.561871 -2.721708 -1.917246
6.110569 -2.983835 -1.935679
6.820549 -3.321401 -1.972291
7.525781 -3.658601 -1.969591
7.797130 -3.790446 -1.830536
8.093099 -3.934220 -1.684040
0.003724 -0.091576 -0.003289
0.003724 -0.091576 -0.003289
7.980571 -3.842820 -1.026241
0.003724 -0.091576 -0.003289
41.612041 -19.692457 -3.186803
0.003724 -0.091576 -0.003289
0.003724 -0.091576 -0.003289
71.059608 -33.636295 0.052349
71.109909 -33.673843 1.878162
0.003724 -0.091576 -0.003289
53.293945 -25.303102 4.161098
52.125645 -24.771631 5.418265
49.964439 -23.757982 6.501320
0.003724 -0.091576 -0.003289
0.003724 -0.091576 -0.003289
47.739273 -22.752106 9.991318
2.863301 -1.455563 -1.879197
3.008702 -1.526138 -1.871127
3.175905 -1.606571 -1.869286
3.373610 -1.702364 -1.875281
3.592733 -1.807801 -1.882916
3.825082 -1.920469 -1.885906
4.069286 -2.039013 -1.882486
4.373024 -2.185358 -1.891284
4.725933 -2.356410 -1.905297
0.003728 -0.091383 -0.003282
5.548372 -2.754233 -1.917818
0.003728 -0.091383 -0.003282
6.793164 -3.356138 -1.969740
7.519169 -3.708323 -1.973240
7.890977 -3.888792 -1.857447
8.211442 -4.046454 -1.713156
8.234425 -4.016737 -1.494808
8.234235 -4.018243 -1.278320
8.182301 -3.996804 -1.055029
0.003728 -0.091383 -0.003282
35.873501 -17.241552 -2.755131
0.003728 -0.091383 -0.003282
0.003728 -0.091383 -0.003282
71.448204 -34.323109 0.053005
71.504707 -34.379498 1.894158
71.596405 -34.437450 3.756266
52.738075 -25.411930 4.129114
51.461338 -24.808950 5.363555
49.883045 -24.071274 6.508707
46.386616 -22.409359 7.268125
45.338364 -21.913832 8.299706
46.983246 -22.724871 9.860240
2.860296 -1.473525 -1.882240
3.000647 -1.542656 -1.871111
3.170596 -1.625566 -1.871146
3.372631 -1.724823 -1.879746
3.581173 -1.827407 -1.882045
3.822720 -1.946193 -1.889949
4.060027 -2.062244 -1.883238
4.350853 -2.205342 -1.886908
4.714519 -2.384135 -1.905960
5.103626 -2.574514 -1.915451
5.527820 -2.783344 -1.916013
6.095924 -3.062714 -1.941681
6.774267 -3.394900 -1.969714
7.510492 -3.757235 -1.976431
8.007208 -4.003109 -1.890157
8.352085 -4.175121 -1.747434
0.003733 -0.091190 -0.003276
8.486087 -4.198219 -1.320940
18.845251 -9.217663 -2.432711
0.003733 -0.091190 -0.003276
37.722015 -18.392260 -2.904859
75.046448 -36.516960 -3.833750
0.003733 -0.091190 -0.003276
71.867188 -35.032978 0.053691
71.911194 -35.068508 1.910279
0.003733 -0.091190 -0.003276
52.376434 -25.609585 4.112349
50.719830 -24.823336 5.301554
