# This PCD file was generated using the MATLAB® pcwrite function
# from Computer Vision Toolbox®.
# .PCD v.7 - Point Cloud Data file format
VERSION .7
FIELDS x y z
SIZE 4 4 4
TYPE F F F
COUNT 1 1 1
WIDTH 1688
HEIGHT 1
VIEWPOINT 0 0 0 1 0 0 0
POINTS 1688
DATA ascii
0.007210 -0.158199 -0.004183
3.881515 36.025131 5.962079
7.217964 67.072853 12.712177
0.069774 0.418216 -0.348171
0.071011 0.427768 -0.335503
0.076328 0.475615 -0.343346
0.076235 0.472643 -0.322960
0.078023 0.486995 -0.311574
0.083497 0.535665 -0.315154
0.095655 0.643495 -0.341303
0.483824 4.146612 -1.696998
0.517151 4.440299 -1.689816
0.552711 4.745140 -1.672980
0.594182 5.101126 -1.657347
0.637034 5.475887 -1.631764
0.699316 6.013484 -1.632108
0.764434 6.583232 -1.613884
0.844811 7.275303 -1.596764
0.934772 8.047921 -1.562930
0.910296 8.142620 -1.378803
1.140707 10.243104 -1.478143
1.322459 11.871624 -1.421251
1.574169 14.127463 -1.349736
1.953131 17.553503 -1.256065
2.586034 23.238358 -1.109661
3.755836 33.741913 -0.807329
5.059885 45.461040 -0.019374
4.000982 35.785332 0.823476
4.021883 35.858109 1.673775
4.065555 36.191685 2.541262
4.113649 36.505684 3.425436
4.116669 36.416489 4.287480
3.667427 32.366577 4.584653
4.046961 35.625896 5.899995
3.636788 31.891682 6.061829
0.074235 0.428300 -0.354288
0.075573 0.437979 -0.341378
0.080378 0.478910 -0.345218
0.080662 0.479538 -0.326545
0.083083 0.499348 -0.317561
0.088546 0.544480 -0.319218
0.250404 1.935360 -0.885172
0.508012 4.145940 -1.697714
0.543586 4.437488 -1.689805
0.580258 4.744101 -1.673609
0.623478 5.097974 -1.657334
0.670519 5.481917 -1.634510
0.732806 6.002039 -1.630067
0.802701 6.575104 -1.612945
0.886450 7.272659 -1.597165
0.978885 8.029155 -1.560319
1.044758 8.894274 -1.504197
1.200476 10.236611 -1.478125
1.391822 11.866033 -1.421464
1.644377 14.015554 -1.340019
2.051716 17.514469 -1.254077
2.723041 23.245171 -1.110661
3.932054 33.611454 -0.804694
5.277823 45.052002 -0.019190
4.206638 35.754025 0.823338
4.222347 35.833382 1.673730
4.226517 35.759747 2.512704
4.315653 36.462631 3.423631
4.312806 36.328091 4.279883
4.287604 36.005581 5.101481
3.752195 31.434250 5.211768
3.821421 31.921890 6.071482
0.076076 0.416158 -0.347137
0.079087 0.439521 -0.342351
0.083920 0.478689 -0.345211
0.087208 0.504151 -0.339109
0.088149 0.509867 -0.322691
0.094100 0.556894 -0.324909
0.260939 1.925012 -0.881306
0.531168 4.130243 -1.692606
0.569537 4.430794 -1.688424
0.607733 4.735283 -1.671675
0.653240 5.090745 -1.656130
0.703155 5.480118 -1.635049
0.770333 6.015250 -1.634617
0.842361 6.578337 -1.614779
0.930211 7.265578 -1.596734
1.025168 8.005904 -1.556965
1.094478 8.882672 -1.503205
1.262119 10.245505 -1.480339
1.457635 11.848464 -1.420281
1.705641 13.860118 -1.326200
2.152814 17.498657 -1.253771
2.856118 23.251680 -1.111661
4.094886 33.332497 -0.798577
5.492455 44.651905 -0.019011
4.320156 35.023727 0.807093
4.432603 35.836514 1.675072
4.450748 35.879650 2.522888
4.589177 36.895187 3.466630
8.102444 65.210739 7.676584
4.477137 35.833153 5.080700
4.467879 35.655804 5.913032
4.362197 34.756996 6.613073
0.080325 0.422763 -0.351213
0.081949 0.434091 -0.339402
0.088556 0.485430 -0.348962
0.092932 0.518042 -0.346286
0.094155 0.525707 -0.330391
0.098664 0.560204 -0.326530
0.274216 1.930991 -0.884384
0.557733 4.136501 -1.696236
0.595909 4.427680 -1.688413
0.637413 4.737478 -1.673585
0.683317 5.079454 -1.653732
0.735813 5.478127 -1.635589
0.806637 6.008897 -1.634097
0.881318 6.575554 -1.615227
0.972612 7.258407 -1.596303
1.071589 7.996212 -1.556208
1.146547 8.864521 -1.501240
1.321136 10.232427 -1.479483
1.529208 11.843806 -1.420725
0.007186 -0.157415 -0.004158
2.254528 17.488207 -1.253885
2.994466 23.232611 -1.111534
4.263216 33.073868 -0.792979
5.703686 44.258781 -0.018836
4.509853 34.852993 0.803798
4.627359 35.667191 1.668457
4.927222 37.939281 2.669291
4.841518 37.172550 3.495187
8.422257 64.643700 7.615737
4.823172 36.877476 5.232092
4.145957 31.582514 5.243886
4.026123 30.579506 5.825744
0.083408 0.420828 -0.350184
0.085821 0.437300 -0.341357
0.093188 0.492145 -0.352714
0.098226 0.528362 -0.351668
0.099516 0.536142 -0.335522
0.103165 0.561652 -0.327338
0.287175 1.936937 -0.887460
0.581933 4.129766 -1.694769
0.622784 4.422454 -1.687716
0.665312 4.732087 -1.672933
0.712918 5.071892 -1.652528
0.769706 5.477716 -1.636681
0.842848 6.010149 -1.635605
0.920133 6.562744 -1.613366
1.015475 7.245002 -1.594623
1.117196 7.970493 -1.552482
1.197868 8.854106 -1.500574
1.381638 10.216801 -1.478350
1.597406 11.829145 -1.420008
1.839995 13.620628 -1.305462
2.359004 17.474783 -1.253858
3.132348 23.240992 -1.112722
0.007165 -0.157212 -0.004151
4.755622 35.205399 -0.015807
4.770226 35.266640 0.814004
4.788143 35.305618 1.652868
4.731070 34.789650 2.450217
5.088487 37.334877 3.513194
8.726804 64.094444 7.556977
4.993863 36.491306 5.181598
4.778349 34.815548 5.783039
4.237885 30.813148 5.874579
0.087085 0.422262 -0.351199
0.089320 0.437025 -0.341349
0.096769 0.490074 -0.351766
0.105216 0.549251 -0.362435
0.105846 0.551891 -0.343220
0.112458 0.597455 -0.343611
0.299317 1.933611 -0.886680
0.607052 4.124637 -1.694030
0.650168 4.420783 -1.688389
0.693969 4.726431 -1.672279
0.743598 5.065928 -1.651919
0.803318 5.475204 -1.637219
0.879096 6.003372 -1.635085
0.959929 6.557412 -1.613352
1.060409 7.246839 -1.596274
1.165613 7.965914 -1.552839
1.251492 8.849048 -1.500882
1.443068 10.208675 -1.478333
1.667824 11.815779 -1.419523
1.907871 13.511112 -1.296119
2.466717 17.484453 -1.255514
3.271164 23.224236 -1.112782
0.007174 -0.157019 -0.004146
4.953913 35.097618 -0.015735
4.901254 34.677654 0.801097
5.003688 35.316437 1.654766
4.984022 35.087219 2.473175
5.330585 37.446274 3.526572
9.035585 63.536377 7.497522
5.256569 36.782906 5.227189
4.303995 30.003674 4.990916
4.378801 30.490015 5.818062
0.089323 0.415198 -0.347109
0.092880 0.438483 -0.342323
0.101140 0.495005 -0.354578
0.110941 0.561273 -0.368714
0.111849 0.565843 -0.350062
0.265252 1.622156 -0.805180
0.312281 1.941279 -0.890528
0.630910 4.121431 -1.694018
0.674872 4.417445 -1.688377
0.720371 4.717099 -1.670345
0.772988 5.063829 -1.652503
0.832899 5.465313 -1.635551
0.912017 5.989045 -1.632536
0.996447 6.554298 -1.613799
1.099232 7.233504 -1.594593
1.208294 7.951969 -1.551338
1.300823 8.836315 -1.499890
1.499297 10.202930 -1.478593
1.734545 11.806534 -1.419502
1.968924 13.396049 -1.286216
2.566224 17.500731 -1.257589
3.404042 23.223671 -1.113593
4.717869 32.186878 -0.773594
5.349404 36.477718 -0.016147
5.229248 35.566059 0.822339
5.213794 35.373234 1.658793
5.138625 34.817223 2.456144
5.478791 37.044796 3.491632
9.316023 62.980171 7.438068
4.445325 29.908098 4.256944
0.007154 -0.156816 -0.004139
4.494175 30.092064 5.747129
0.093857 0.423424 -0.352204
0.095759 0.434733 -0.340354
0.105407 0.498142 -0.356451
0.114264 0.555562 -0.366013
0.121672 0.602954 -0.368037
0.007133 -0.156617 -0.004132
0.325991 1.950636 -0.895148
0.654651 4.112446 -1.691823
0.701395 4.409893 -1.686997
0.748665 4.714990 -1.670974
0.802690 5.057655 -1.651894
0.867038 5.466228 -1.637193
0.948778 5.993507 -1.635057
1.035281 6.542750 -1.612399
1.144156 7.234840 -1.596243
1.256312 7.944907 -1.551323
1.353393 8.834777 -1.500849
1.560320 10.192154 -1.478294
1.802110 11.788743 -1.418552
2.030495 13.276445 -1.275940
2.673780 17.505182 -1.258965
0.007133 -0.156617 -0.004132
4.875272 31.971657 -0.769078
0.007133 -0.156617 -0.004132
0.007133 -0.156617 -0.004132
0.007133 -0.156617 -0.004132
0.007133 -0.156617 -0.004132
5.624903 36.527687 3.446137
4.585889 29.707674 3.519171
4.761119 30.778078 4.384174
4.648510 29.974928 4.994560
4.615869 29.727957 5.682849
0.096775 0.419691 -0.350157
0.099276 0.434388 -0.340349
0.107626 0.487283 -0.350806
0.117383 0.548047 -0.362415
0.007142 -0.156425 -0.004126
0.286263 1.621222 -0.805977
0.338180 1.947082 -0.894368
0.681088 4.116093 -1.694724
0.727326 4.404168 -1.686300
0.777510 4.710708 -1.670963
0.833855 5.054936 -1.652477
0.898753 5.457592 -1.636077
0.984591 5.984193 -1.634030
1.074101 6.538846 -1.612848
1.186021 7.224514 -1.595396
1.304097 7.945552 -1.552790
1.405721 8.820993 -1.499857
1.619812 10.183249 -1.478277
1.872219 11.774179 -1.418066
2.094303 13.164093 -1.266410
2.778371 17.509466 -1.260340
3.685089 23.236116 -1.116058
0.007142 -0.156425 -0.004126
4.222929 26.565063 -0.012839
4.229937 26.548683 0.614878
4.233081 26.507841 1.246141
4.239897 26.520515 1.875900
5.903597 36.921753 3.486361
4.744579 29.566439 3.505775
4.775026 29.723585 4.238420
4.705419 29.220997 4.873896
4.793105 29.702263 5.683260
0.099240 0.414276 -0.347087
0.103219 0.437489 -0.342302
0.111883 0.490376 -0.352677
0.123427 0.559945 -0.368693
0.007121 -0.156226 -0.004119
0.296480 1.617931 -0.805154
0.350268 1.945341 -0.894359
0.705022 4.108673 -1.693256
0.754961 4.403726 -1.687659
0.805476 4.706397 -1.670951
0.863188 5.046525 -1.651273
0.935436 5.473272 -1.642135
1.020193 5.980577 -1.634524
1.113090 6.528769 -1.611910
1.229733 7.217597 -1.595381
1.352381 7.939867 -1.553145
1.456677 8.809107 -1.499191
1.680392 10.169801 -1.477701
1.940788 11.763453 -1.418047
2.154240 13.049865 -1.256695
2.885521 17.508696 -1.261434
3.819196 23.212805 -1.115931
4.431858 26.908878 -0.649639
4.347840 26.336525 -0.012736
4.350068 26.320929 0.610200
4.352918 26.280247 1.236649
4.365115 26.296329 1.861909
6.064064 36.528770 3.452715
10.368533 62.530659 7.405409
5.046140 30.263622 4.319274
5.144372 30.789391 5.139296
0.007121 -0.156226 -0.004119
0.102628 0.413911 -0.347081
0.105289 0.428507 -0.337394
0.113941 0.479495 -0.347033
0.127659 0.559441 -0.368686
0.007129 -0.156033 -0.004114
0.305153 1.607430 -0.801075
0.362091 1.939828 -0.892808
0.730585 4.106498 -1.693973
0.780195 4.393994 -1.685592
0.831386 4.684974 -1.665170
0.893655 5.039678 -1.650663
0.968761 5.473720 -1.643778
1.056532 5.974665 -1.634510
1.152158 6.526332 -1.612819
1.273071 7.216431 -1.596615
1.399249 7.934128 -1.553501
1.511044 8.808348 -1.500473
1.738734 10.154349 -1.476845
2.010697 11.748069 -1.417561
0.007129 -0.156033 -0.004114
2.990352 17.511723 -1.262808
3.957553 23.190010 -1.115897
4.609486 26.984894 -0.652048
4.467281 26.118093 -0.012636
4.473971 26.101757 0.605751
4.476886 26.063196 1.227710
4.483210 26.072392 1.847921
6.344365 36.899849 3.491090
5.672718 32.902702 3.907335
5.456357 31.606668 4.514549
5.281059 30.520283 5.099535
5.009808 28.881565 5.537690
0.105294 0.410165 -0.345031
0.109530 0.433287 -0.340327
0.119127 0.487762 -0.351725
0.129309 0.544849 -0.361495
0.007108 -0.155834 -0.004107
0.316216 1.611285 -0.803509
0.372866 1.930678 -0.889714
0.754742 4.100632 -1.693233
0.806984 4.393376 -1.686949
0.860513 4.687819 -1.667722
0.922856 5.030933 -1.649459
1.003105 5.479655 -1.647076
1.091407 5.966826 -1.633989
1.191242 6.523666 -1.613728
1.313062 7.195745 -1.593686
1.445396 7.924253 -1.553114
1.564254 8.809468 -1.502081
1.799674 10.154177 -1.478221
2.079102 11.736547 -1.417541
2.281522 12.871287 -1.242111
3.093933 17.506269 -1.263621
4.097917 23.202530 -1.117552
4.606819 26.054249 -0.630410
4.584343 25.899164 -0.012536
4.590882 25.882858 0.601301
4.594236 25.848377 1.218864
4.600261 25.855835 1.834487
6.558331 36.868881 3.491696
5.865801 32.887371 3.909465
5.420808 30.346415 4.339633
5.383030 30.071869 5.030001
5.206655 29.020864 5.569893
0.109152 0.413171 -0.347066
0.112604 0.431168 -0.339340
0.122808 0.487306 -0.351717
0.135549 0.556643 -0.367774
0.797311 4.218059 -2.109585
0.327025 1.613266 -0.805129
0.384850 1.928741 -0.889705
0.778869 4.094625 -1.692493
0.833136 4.388894 -1.686938
0.890049 4.692346 -1.670914
0.951635 5.020145 -1.647657
0.007117 -0.155641 -0.004101
1.126608 5.960686 -1.633976
1.229259 6.515036 -1.613252
1.351757 7.169074 -1.589505
1.490761 7.910250 -1.551986
1.617525 8.810276 -1.503689
1.859627 10.147796 -1.478761
2.149554 11.736366 -1.418916
2.336211 12.746495 -1.231463
3.201811 17.523764 -1.266117
4.231419 23.174892 -1.117330
0.007117 -0.155641 -0.004101
4.699407 25.681738 -0.012437
4.706859 25.671352 0.597035
4.710315 25.638988 1.210297
4.715348 25.640766 1.821192
6.753897 36.736763 3.482858
5.872000 31.850929 3.790663
5.580716 30.231209 4.327734
6.412202 34.695492 5.806070
5.334434 28.774176 5.528530
0.112408 0.412775 -0.347059
0.115645 0.429036 -0.338353
0.126826 0.488559 -0.352650
0.138979 0.552576 -0.365971
0.189469 0.821783 -0.475023
0.337523 1.613389 -0.805935
0.397156 1.928545 -0.890467
0.803281 4.090319 -1.692482
0.858566 4.380574 -1.685558
0.918616 4.691106 -1.672184
0.982788 5.022332 -1.650030
1.067124 5.464448 -1.645946
1.161370 5.952447 -1.633455
1.267600 6.508091 -1.613238
1.392381 7.153730 -1.587824
1.536738 7.899852 -1.551599
1.668679 8.799126 -1.503346
1.919926 10.143010 -1.479580
2.217529 11.722095 -1.418663
2.393902 12.645003 -1.223052
3.307066 17.524912 -1.267491
4.368785 23.168095 -1.118140
4.849699 25.689510 -0.622900
4.813561 25.471722 -0.012340
4.820182 25.457424 0.592722
4.823043 25.423229 1.201451
4.829581 25.433088 1.808452
0.007096 -0.155442 -0.004094
5.967261 31.348425 3.735107
5.788859 30.375942 4.353048
5.656999 29.622562 4.965686
5.574090 29.129446 5.602507
0.116318 0.415732 -0.349094
0.119322 0.430310 -0.339326
0.129844 0.484591 -0.350763
0.143360 0.553762 -0.366861
0.185173 0.769444 -0.450185
0.349030 1.616981 -0.808369
0.407007 1.915599 -0.885829
0.828747 4.091351 -1.694655
0.885408 4.375649 -1.685546
0.945009 4.678548 -1.669608
1.012150 5.014965 -1.649420
1.100021 5.456383 -1.645381
1.196091 5.944010 -1.632934
1.306666 6.498800 -1.612762
1.432281 7.128317 -1.584062
1.582525 7.881208 -1.549728
1.721243 8.795438 -1.504304
1.978630 10.120029 -1.477886
2.285753 11.709394 -1.418642
2.453173 12.556957 -1.215947
3.414376 17.518967 -1.268444
4.502429 23.140865 -1.118012
4.993289 25.635918 -0.622252
4.931058 25.266273 -0.012247
4.933478 25.254818 0.588684
4.933843 25.208998 1.192696
4.945250 25.220169 1.795434
0.007105 -0.155249 -0.004089
6.201185 31.584837 3.767354
6.047527 30.739828 4.410024
7.318954 37.173424 6.233020
5.442093 27.565676 5.309019
0.119686 0.415274 -0.349086
0.121437 0.422990 -0.335398
0.133632 0.484050 -0.350756
0.146522 0.547877 -0.364160
0.192411 0.777429 -0.454459
0.357793 1.608014 -0.805104
0.416746 1.900721 -0.880421
0.852423 4.079301 -1.691731
0.911437 4.370721 -1.685534
0.972882 4.669389 -1.668315
1.043149 5.010983 -1.650005
1.132642 5.452086 -1.645920
1.232581 5.938951 -1.633427
1.342973 6.481876 -1.610438
1.473750 7.118281 -1.583631
1.628710 7.872211 -1.549712
1.775365 8.791136 -1.505261
2.038076 10.110662 -1.478147
2.355245 11.691981 -1.418157
2.520291 12.501424 -1.212011
3.519442 17.516891 -1.269678
4.643086 23.127735 -1.118634
5.072810 25.239450 -0.613415
5.031719 25.010231 -0.012137
5.045472 25.033243 0.584233
5.045525 24.987591 1.183664
5.055338 25.013538 1.782832
6.558355 32.447823 3.087883
6.324793 31.228395 3.729403
7.278569 35.933517 5.157979
6.229511 30.671246 5.152500
5.410241 26.564129 5.123106
0.121943 0.409753 -0.346018
0.126144 0.429353 -0.339312
0.136953 0.481775 -0.349810
0.150922 0.549008 -0.365052
0.195565 0.765928 -0.449313
0.369365 1.613326 -0.808351
0.427060 1.891299 -0.877326
0.878262 4.081864 -1.694633
0.937814 4.367486 -1.686206
1.000204 4.662100 -1.667661
1.072828 5.005142 -1.649992
1.164864 5.445719 -1.645907
1.267615 5.932000 -1.633415
1.382690 6.481903 -1.612271
1.513924 7.102267 -1.581949
1.674402 7.861034 -1.549324
1.827956 8.786819 -1.506219
2.095877 10.093192 -1.477292
2.421718 11.670699 -1.417206
2.592204 12.483064 -1.211616
3.626576 17.523966 -1.271612
4.779685 23.114588 -1.119257
5.243277 25.329573 -0.616248
5.135214 24.781301 -0.012037
5.143405 24.776884 0.578958
5.145149 24.741220 1.173430
5.153942 24.761547 1.767036
13.327742 64.217834 6.108089
13.326493 64.098389 7.648779
6.236547 29.869720 4.295690
5.711007 27.288334 4.592028
6.207205 29.623190 5.716866
0.128355 0.424430 -0.355197
0.129138 0.427149 -0.338325
0.143127 0.493316 -0.356379
0.153835 0.543124 -0.362349
0.203085 0.775637 -0.454443
0.382547 1.625709 -0.814856
0.438428 1.887245 -0.876545
0.901814 4.073342 -1.693164
0.963406 4.360421 -1.685510
1.027494 4.654654 -1.667008
1.102084 4.997255 -1.649384
1.197832 5.442933 -1.646997
1.302974 5.926747 -1.633907
1.422453 6.481695 -1.614104
1.553181 7.082203 -1.579435
1.721296 7.855354 -1.550050
1.880545 8.782194 -1.507176
2.154350 10.079272 -1.476994
2.492514 11.670428 -1.418812
2.658657 12.438963 -1.208798
3.730635 17.514776 -1.272425
4.913369 23.086969 -1.119221
5.496844 25.805899 -0.628395
5.242029 24.579424 -0.011944
5.252235 24.584795 0.575193
5.252911 24.545351 1.165601
5.260574 24.560001 1.754851
6.534218 30.498941 2.910033
6.495808 30.266193 3.623615
6.380130 29.698011 4.276291
5.822039 27.037188 4.555498
6.162542 28.580156 5.523191
0.130336 0.417177 -0.351108
0.133315 0.430022 -0.340278
0.143985 0.478890 -0.348856
0.159103 0.547680 -0.365036
0.204984 0.758796 -0.446730
0.393074 1.623659 -0.814847
0.445420 1.861411 -0.866508
0.926914 4.071968 -1.694609
0.990121 4.354880 -1.685497
1.053897 4.643358 -1.665073
1.131246 4.989221 -1.648773
1.231384 5.437858 -1.647536
1.337498 5.917505 -1.633386
1.460471 6.467697 -1.612703
1.594757 7.073395 -1.579420
1.766472 7.841731 -1.549292
1.935100 8.778859 -1.508457
2.214903 10.066579 -1.476973
2.569247 11.686763 -1.422513
2.734905 12.431019 -1.209522
3.836493 17.498459 -1.272817
5.051811 23.061598 -1.119373
5.655369 25.817087 -0.629391
5.353136 24.385979 -0.011856
5.362035 24.385481 0.571291
5.358592 24.349075 1.157772
5.370213 24.361027 1.742944
7.225280 32.813004 3.133944
6.631028 30.048117 3.602112
6.187113 27.976919 4.034708
0.007081 -0.154461 -0.004063
6.085393 27.444593 5.311399
0.132013 0.409965 -0.347017
0.135421 0.424402 -0.337330
0.147887 0.480035 -0.349789
0.163400 0.548763 -0.365927
0.210215 0.757840 -0.446722
0.402477 1.618041 -0.813209
0.458658 1.868138 -0.870357
0.948341 4.054084 -1.689501
1.013587 4.338344 -1.681379
1.081885 4.639306 -1.665702
1.162070 4.988453 -1.650550
1.263490 5.430927 -1.647522
1.371951 5.908067 -1.632865
1.501953 6.474611 -1.616383
1.637535 7.064061 -1.579404
1.812055 7.823699 -1.547791
1.987432 8.779730 -1.510389
2.274513 10.057775 -1.477514
2.636503 11.678310 -1.423189
2.813223 12.452746 -1.213041
3.941397 17.491922 -1.273910
5.190289 23.074263 -1.121307
5.753986 25.558033 -0.623896
5.457427 24.191090 -0.011767
5.460261 24.183752 0.567299
5.462194 24.152397 1.149941
5.474318 24.166470 1.731313
7.078807 31.252556 2.989374
6.881847 30.352745 3.643165
7.153745 31.507622 4.547447
6.078109 26.698328 4.510270
0.007060 -0.154262 -0.004056
0.138412 0.422824 -0.355176
0.137672 0.418732 -0.334382
0.152025 0.481112 -0.350721
0.167144 0.546281 -0.365022
0.213608 0.748006 -0.442434
0.412260 1.614154 -0.812388
0.467728 1.853035 -0.864947
0.976596 4.063156 -1.695314
1.040216 4.336349 -1.682735
1.112381 4.642283 -1.668893
1.194227 4.989158 -1.652923
1.293842 5.416318 -1.645301
1.406523 5.894421 -1.631329
1.538714 6.460417 -1.614983
1.675908 7.041426 -1.576474
1.856561 7.807645 -1.546663
2.043397 8.781504 -1.512646
2.332300 10.040907 -1.476937
2.709650 11.676275 -1.424796
2.895865 12.471034 -1.216375
4.048122 17.492548 -1.275563
5.340312 23.097866 -1.123899
5.844871 25.256763 -0.617414
5.560541 23.999723 -0.011679
5.568449 23.995338 0.563670
5.568359 23.956326 1.142204
5.576785 23.973473 1.719821
7.222466 31.052471 2.974236
7.152954 30.702612 3.690011
7.127259 30.567064 4.418068
6.305100 26.976557 4.563063
6.134243 26.198572 5.084856
0.138197 0.407183 -0.345983
0.142568 0.424951 -0.338297
0.156470 0.483901 -0.352592
0.172396 0.550762 -0.367709
0.216311 0.736439 -0.437290
0.420740 1.604879 -0.809123
0.478435 1.846954 -0.863397
0.998677 4.048643 -1.691662
1.065595 4.328700 -1.682039
1.137330 4.624981 -1.665037
1.223342 4.980587 -1.652314
1.325843 5.409028 -1.645288
1.439950 5.880819 -1.629795
1.577612 6.455487 -1.615892
1.716346 7.028102 -1.575626
1.900484 7.789427 -1.545163
2.098341 8.785219 -1.515228
2.390849 10.027573 -1.476916
2.778981 11.666541 -1.425473
2.981125 12.508698 -1.221571
4.157726 17.504179 -1.278057
5.486717 23.121471 -1.126489
0.007047 -0.153870 -0.004044
5.662567 23.811869 -0.011594
5.669927 23.805546 0.559997
5.670522 23.770561 1.134928
5.678149 23.783995 1.708607
7.298290 30.574713 2.932618
7.223219 30.210894 3.636071
7.139240 29.834063 4.318404
6.562039 27.364386 4.634627
6.313926 26.281639 5.107816
0.141806 0.408288 -0.346996
0.146699 0.427752 -0.340250
0.160136 0.483225 -0.352586
0.176450 0.549995 -0.367702
0.221405 0.735422 -0.437282
0.431156 1.602591 -0.809115
0.487733 1.835444 -0.859530
1.022828 4.043071 -1.691651
1.090782 4.317073 -1.679973
1.165219 4.620447 -1.665665
1.254624 4.981130 -1.654686
1.360139 5.406918 -1.646930
1.474615 5.872682 -1.629781
1.615352 6.440592 -1.614492
1.757459 7.012350 -1.574361
1.949845 7.787812 -1.547001
2.153373 8.788596 -1.517809
2.451587 10.015391 -1.477177
2.848261 11.656404 -1.426149
3.061345 12.522559 -1.224531
4.263194 17.483360 -1.278309
5.629802 23.128614 -1.128328
0.007026 -0.153671 -0.004037
5.770072 23.636238 -0.011514
5.770386 23.619274 0.556413
5.772603 23.592196 1.128024
5.783067 23.598957 1.697809
7.475001 30.509888 2.930626
7.455993 30.408422 3.664846
7.529044 30.661186 4.443987
6.822898 27.725950 4.702308
6.468584 26.256590 5.110074
0.145112 0.407679 -0.346989
0.150945 0.430502 -0.342202
0.163054 0.479075 -0.350700
0.179742 0.545711 -0.365898
0.228831 0.743107 -0.441555
0.440363 1.596776 -0.807478
0.499502 1.832760 -0.859521
1.047661 4.037179 -1.691639
1.115107 4.305495 -1.677907
1.193936 4.615539 -1.666293
1.286881 4.981253 -1.657059
1.391159 5.395511 -1.645813
1.510732 5.865960 -1.630273
1.652287 6.427659 -1.613554
1.798142 7.000469 -1.573929
1.993539 7.769088 -1.545501
2.211954 8.798921 -1.521689
2.511898 10.009061 -1.478273
2.927711 11.678130 -1.430780
3.146895 12.546970 -1.228610
4.367871 17.472349 -1.279261
5.771479 23.110609 -1.129043
0.007035 -0.153478 -0.004031
5.867214 23.443745 -0.011427
5.875377 23.441326 0.553060
5.874559 23.402721 1.120654
5.882373 23.416479 1.687149
7.655041 30.482094 2.932151
7.632070 30.344677 3.662575
6.836426 27.141819 3.941594
6.847285 27.144712 4.610760
6.620122 26.198977 5.106417
0.150868 0.417079 -0.353106
0.153030 0.424785 -0.339256
0.165388 0.473231 -0.347874
0.186382 0.555297 -0.371279
0.231308 0.731501 -0.436410
0.451297 1.597995 -0.809097
0.507743 1.817572 -0.854113
1.073106 4.036742 -1.693811
1.139340 4.293780 -1.675842
1.220403 4.605159 -1.665000
1.317318 4.977709 -1.658239
1.423495 5.389524 -1.646351
1.544371 5.853662 -1.629246
1.687678 6.408864 -1.611231
1.838283 6.986459 -1.573081
2.037587 7.752022 -1.544372
2.265329 8.793944 -1.522971
2.573209 10.006207 -1.479928
2.977159 11.588166 -1.421921
3.227200 12.557858 -1.231383
4.471091 17.454920 -1.279793
5.910536 23.098579 -1.130039
0.007015 -0.153276 -0.004024
5.968754 23.276117 -0.011349
5.971418 23.252392 0.549432
5.973304 23.225550 1.113842
5.979768 23.233656 1.676489
16.977465 66.199440 6.364703
7.831432 30.394825 3.673973
6.556013 25.396669 3.694720
6.625767 25.631233 4.361272
6.606601 25.519186 4.981865
0.150698 0.403116 -0.344934
0.158088 0.430884 -0.343169
0.170307 0.477635 -0.350685
0.187297 0.542344 -0.364985
0.237301 0.733894 -0.438116
0.461350 1.595611 -0.809088
0.517187 1.807715 -0.851018
1.096217 4.027138 -1.692343
1.166778 4.294671 -1.678568
1.247250 4.596472 -1.664346
1.345337 4.964749 -1.656437
1.455342 5.381485 -1.646338
1.579852 5.848665 -1.630246
1.725385 6.399288 -1.611217
1.878809 6.974117 -1.572650
2.082488 7.738516 -1.543984
2.317225 8.782920 -1.523278
2.632072 9.993401 -1.480188
3.027671 11.505714 -1.413992
3.305213 12.558609 -1.233224
4.586274 17.483232 -1.283686
6.045619 23.070250 -1.130284
0.007023 -0.153083 -0.004019
6.060970 23.079086 -0.011261
6.069040 23.076674 0.546122
6.067716 23.038349 1.106565
6.074727 23.048571 1.665692
17.449478 66.447716 6.398127
7.385045 27.978333 3.388097
6.900402 26.111677 3.803914
6.760358 25.541407 4.352572
6.751067 25.469603 4.979686
0.153874 0.402479 -0.344926
0.159652 0.423464 -0.339241
0.175280 0.482001 -0.353497
0.189460 0.534579 -0.361387
0.240062 0.724019 -0.433827
0.471390 1.593167 -0.809080
0.526560 1.797814 -0.847924
1.116416 4.006598 -1.686508
1.190862 4.282683 -1.676502
1.274536 4.589458 -1.664334
1.375227 4.959010 -1.657020
1.487150 5.373260 -1.646326
1.612318 5.832247 -1.628203
1.765555 6.398894 -1.613511
1.919226 6.961547 -1.572217
2.130910 7.738033 -1.546194
2.368559 8.769684 -1.523260
2.689853 9.976421 -1.479890
3.074281 11.411549 -1.404669
3.373654 12.522308 -1.231525
0.007002 -0.152884 -0.004012
6.184682 23.056581 -1.131279
0.007002 -0.152884 -0.004012
6.215060 23.121389 -0.011249
6.212809 23.080267 0.547075
6.214371 23.053493 1.109007
6.208030 23.013491 1.665727
17.940332 66.750458 6.437109
7.757785 28.722279 3.483140
7.074396 26.157875 3.816453
0.007002 -0.152884 -0.004012
0.007002 -0.152884 -0.004012
0.157076 0.401818 -0.344920
0.162488 0.421094 -0.338253
0.179387 0.482925 -0.354429
0.196205 0.544066 -0.366767
0.246042 0.726348 -0.435532
0.479797 1.583533 -0.805815
0.540679 1.805669 -0.852544
1.143736 4.012930 -1.691592
1.217607 4.277603 -1.677174
1.299785 4.574982 -1.661759
1.406598 4.958622 -1.659392
1.520857 5.368307 -1.647415
1.646716 5.823113 -1.628190
1.802764 6.382936 -1.612110
1.961329 6.950296 -1.572201
2.177089 7.723616 -1.545806
2.420333 8.758065 -1.523567
2.749784 9.960553 -1.479870
3.121988 11.324904 -1.396276
3.437046 12.468356 -1.228146
4.793920 17.436670 -1.284189
6.330118 23.065208 -1.133400
6.315046 22.977962 -0.567820
6.276930 22.806578 -0.011126
6.349436 23.055971 0.547386
6.383017 23.146732 1.115246
6.357787 23.022728 1.669098
8.395953 30.418427 2.944002
0.007011 -0.152691 -0.004006
7.689096 27.784849 4.059249
7.258888 26.184282 4.475639
6.973178 25.129244 4.928744
0.158959 0.396149 -0.341850
0.166347 0.422038 -0.339227
0.179367 0.468478 -0.346906
0.199383 0.539684 -0.364965
0.249797 0.719887 -0.432956
0.492239 1.589778 -0.809878
0.559196 1.827559 -0.863334
1.164378 3.991967 -1.685757
1.243057 4.270765 -1.677162
1.330305 4.576559 -1.664950
1.436350 4.948600 -1.658784
1.551537 5.356004 -1.646298
1.681559 5.811631 -1.627669
1.837676 6.363332 -1.609787
2.001617 6.937252 -1.571770
2.221268 7.707425 -1.545048
2.473579 8.745714 -1.523874
2.804721 9.933360 -1.478178
0.006990 -0.152492 -0.003999
3.508016 12.434582 -1.226819
4.885875 17.376383 -1.281778
6.466442 23.023697 -1.133175
6.401443 22.759354 -0.563365
6.369032 22.627794 -0.011047
6.397945 22.700464 0.539861
6.557016 23.237642 1.121485
6.523763 23.103214 1.677608
18.921272 67.254036 6.506555
18.913568 67.135948 8.148463
7.436238 26.270363 3.845143
7.438529 26.243032 4.492833
7.347870 25.886066 5.084805
0.165856 0.408698 -0.350009
0.169173 0.419627 -0.338240
0.185338 0.476166 -0.351597
0.204337 0.542199 -0.366754
0.259759 0.736057 -0.441511
0.502242 1.587154 -0.809869
1.129570 3.785427 -1.715715
1.189707 3.990818 -1.687928
1.267951 4.261974 -1.676466
1.355900 4.563607 -1.663015
1.464050 4.934993 -1.656981
1.582119 5.343535 -1.645181
1.717417 5.807682 -1.629176
1.870809 6.337934 -1.606079
2.042320 6.925869 -1.571754
2.266945 7.696649 -1.545402
2.525789 8.735377 -1.524506
2.863718 9.921122 -1.478715
3.219916 11.162042 -1.380886
4.031274 14.000370 -1.381115
4.996398 17.382778 -1.284271
6.496133 22.623238 -1.115419
6.493565 22.583971 -0.559944
6.460891 22.454498 -0.010968
6.586369 22.863480 0.544664
6.730417 23.336166 1.128094
6.695800 23.199825 1.687370
19.418304 67.527214 6.543688
8.187806 28.333317 3.452916
9.866498 34.155773 5.002047
7.596696 26.222826 4.496758
7.579063 26.126928 5.140303
0.168687 0.406298 -0.348981
0.173025 0.420534 -0.339212
0.188539 0.473608 -0.350649
0.208440 0.541219 -0.366746
0.259302 0.715698 -0.432085
0.513038 1.586145 -0.810674
1.151842 3.775364 -1.714160
1.216107 3.993094 -1.691556
1.294602 4.256434 -1.677138
1.381404 4.550518 -1.661080
1.495969 4.935893 -1.659950
1.615737 5.337996 -1.646272
1.751086 5.796100 -1.628654
1.907034 6.319511 -1.604217
2.083529 6.916130 -1.572154
2.315911 7.696928 -1.547981
2.577816 8.718613 -1.524162
2.923343 9.904222 -1.478696
3.271389 11.089593 -1.374354
4.118375 13.987954 -1.382208
5.107405 17.378023 -1.286062
6.596828 22.467600 -1.109662
6.585527 22.414062 -0.556662
6.558284 22.291271 -0.010894
0.006978 -0.152096 -0.003987
6.905127 23.433468 1.134706
6.899617 23.384016 1.703661
8.323847 28.228786 2.746351
8.386679 28.406096 3.467558
7.892663 26.687708 3.919109
0.006978 -0.152096 -0.003987
7.103925 23.956270 4.723296
0.172293 0.407233 -0.349995
0.174729 0.414783 -0.336265
0.192539 0.474472 -0.351582
0.210255 0.533428 -0.363147
0.263749 0.712701 -0.431221
0.522479 1.581658 -0.809851
1.168984 3.753201 -1.707207
1.237799 3.979129 -1.688633
1.319374 4.247356 -1.676441
1.411118 4.551814 -1.664271
1.524105 4.923787 -1.658745
1.645614 5.323330 -1.644602
1.785801 5.788023 -1.629146
1.944200 6.308676 -1.604202
2.125921 6.905776 -1.572555
2.364620 7.690842 -1.549447
2.627220 8.704342 -1.524144
2.979970 9.883691 -1.478118
3.313680 11.002855 -1.365961
4.200550 13.976461 -1.383302
5.210961 17.358162 -1.286734
6.856081 22.878799 -1.131565
6.656968 22.180592 -0.551832
6.647777 22.121185 -0.010818
6.829425 22.715799 0.543041
7.080093 23.525696 1.141130
7.075411 23.479904 1.713562
20.438917 68.070915 6.619071
20.421358 67.968826 8.291023
8.153832 26.998770 3.971371
0.006987 -0.151903 -0.003981
7.239005 23.903973 4.721116
0.173593 0.399856 -0.345905
0.179599 0.418977 -0.339199
0.195209 0.470178 -0.349696
0.217417 0.542669 -0.368527
0.275701 0.733841 -0.442345
0.531907 1.577111 -0.809028
1.193169 3.749976 -1.708738
1.262795 3.973744 -1.689350
1.341928 4.230942 -1.673007
1.439499 4.545425 -1.664899
1.556355 4.922213 -1.661116
1.678722 5.319538 -1.646243
1.820384 5.775730 -1.628625
1.981293 6.297634 -1.604186
2.167058 6.895537 -1.572957
2.413152 7.688622 -1.551657
2.680800 8.692632 -1.524777
3.039350 9.872313 -1.478935
3.357786 10.911030 -1.357103
4.287053 13.961101 -1.384209
5.309807 17.322428 -1.286284
7.041781 23.000498 -1.139498
0.006966 -0.151704 -0.003974
6.739595 21.964212 -0.010745
6.678534 21.736095 0.520572
7.263949 23.626892 1.148112
7.253683 23.578371 1.723742
20.960064 68.375298 6.660282
9.778390 31.765728 3.889609
8.282529 26.862663 3.958357
8.027231 25.996605 4.481345
7.590827 24.542946 4.855365
0.178293 0.404014 -0.348960
0.182865 0.418174 -0.339191
0.197728 0.465908 -0.347810
0.219809 0.536527 -0.365826
0.275966 0.716940 -0.434632
0.538575 1.563794 -0.804135
1.215019 3.741528 -1.707955
1.285928 3.964876 -1.688610
1.367076 4.223399 -1.672994
1.467054 4.539117 -1.665528
1.585489 4.913422 -1.661103
1.711312 5.313701 -1.647334
1.855016 5.767249 -1.629118
2.017763 6.284515 -1.603710
2.208117 6.885069 -1.573358
2.461101 7.684237 -1.553494
2.730431 8.673544 -1.524109
3.095749 9.851128 -1.478358
3.401979 10.829150 -1.349409
4.372817 13.951677 -1.385674
5.416677 17.312811 -1.287796
7.181267 22.980852 -1.140492
6.869751 21.949080 -0.548000
6.829238 21.805010 -0.010672
6.883842 21.953407 0.526750
7.442129 23.718493 1.154631
7.414350 23.614605 1.729475
9.746577 31.059021 3.036696
9.971811 31.741449 3.893596
9.785776 31.126801 4.591990
8.347236 26.492704 4.574602
7.847861 24.866743 4.927873
0.179917 0.398297 -0.345891
0.185613 0.415686 -0.338205
0.199144 0.458263 -0.344045
0.221054 0.526970 -0.361329
0.277674 0.705236 -0.429487
0.547647 1.557325 -0.802500
1.234608 3.725918 -1.704087
1.310132 3.959429 -1.689326
1.393540 4.217250 -1.673667
1.497433 4.541677 -1.669360
1.613429 4.900819 -1.659897
1.743659 5.303701 -1.647321
1.889003 5.756723 -1.629104
2.053477 6.265275 -1.601848
2.250355 6.873964 -1.573758
2.512277 7.684731 -1.556445
2.783480 8.665467 -1.525389
3.152561 9.825297 -1.477222
3.444139 10.743343 -1.341249
4.456228 13.934132 -1.386395
5.526646 17.301580 -1.289307
7.324372 22.971806 -1.142048
6.978570 21.852278 -0.546553
6.949512 21.733896 -0.010628
7.563103 23.653669 0.568639
7.624617 23.818344 1.161613
7.591903 23.686476 1.737987
9.888376 30.866247 3.023594
8.782407 27.377939 3.366472
9.545134 29.734507 4.395653
8.080188 25.113873 4.345811
7.988585 24.812075 4.926063
0.183682 0.399097 -0.346904
0.190016 0.418138 -0.340157
0.207061 0.470760 -0.351553
0.226710 0.530986 -0.364016
0.285496 0.712418 -0.433760
0.553517 1.542216 -0.796793
1.258105 3.720535 -1.704846
1.335037 3.953603 -1.690042
1.417488 4.205827 -1.672286
1.523442 4.527556 -1.667425
1.643340 4.891408 -1.659885
1.774374 5.292000 -1.646755
1.923972 5.745668 -1.629090
2.090952 6.255443 -1.602296
2.289477 6.857433 -1.572909
2.560319 7.679739 -1.558282
2.836277 8.650937 -1.525697
3.209266 9.805358 -1.476924
0.006963 -0.151119 -0.003956
4.545087 13.924786 -1.388047
5.633016 17.288742 -1.290678
7.479663 22.985279 -1.144824
7.131566 21.881176 -0.548257
7.100460 21.771839 -0.010616
0.006963 -0.151119 -0.003956
7.813314 23.917425 1.168688
7.777466 23.792593 1.749002
9.882535 30.242825 2.968264
8.732693 26.672041 3.286337
8.075705 24.637623 3.652100
8.130496 24.776369 4.295683
7.801608 23.738697 4.723117
0.187385 0.399899 -0.347918
0.193299 0.417265 -0.340151
0.207889 0.461402 -0.346849
0.227829 0.521420 -0.359519
0.286368 0.699027 -0.427760
0.564365 1.542717 -0.798412
1.283825 3.723984 -1.709464
1.357873 3.946339 -1.690030
1.446631 4.210332 -1.677066
1.553643 4.531822 -1.671897
1.671996 4.884222 -1.660467
1.806846 5.285595 -1.647845
1.956823 5.735085 -1.629076
2.124679 6.234323 -1.599972
2.329742 6.848511 -1.573726
2.602684 7.661854 -1.557523
2.887430 8.636600 -1.526003
3.267680 9.790743 -1.477462
3.530173 10.578309 -1.325861
4.629673 13.910006 -1.389140
5.738806 17.273357 -1.291910
7.628794 22.991465 -1.147224
7.328733 22.067295 -0.553813
7.259597 21.831551 -0.010611
7.893759 23.725609 0.572612
0.006941 -0.150920 -0.003949
7.984546 23.957968 1.764463
9.020913 27.073879 2.663270
0.006941 -0.150920 -0.003949
8.204350 24.549660 3.646029
8.349579 24.972517 4.337476
7.969369 23.799515 4.743862
0.189894 0.397452 -0.346890
0.196461 0.416414 -0.340144
0.210274 0.457086 -0.344963
0.234412 0.528846 -0.364001
0.294680 0.707886 -0.432889
0.570037 1.527555 -0.792706
1.304905 3.713279 -1.707910
1.377852 3.928108 -1.685650
1.469875 4.196839 -1.675000
1.580144 4.519184 -1.670603
1.703022 4.878086 -1.661647
1.836857 5.271709 -1.646728
1.994119 5.730963 -1.631090
2.162447 6.221863 -1.599957
2.374276 6.839968 -1.574960
2.647649 7.642813 -1.556764
2.935736 8.618732 -1.525660
3.326055 9.775782 -1.478001
3.574780 10.513491 -1.320259
4.717460 13.912539 -1.391910
5.852206 17.280039 -1.294822
7.773152 22.981554 -1.148873
7.500285 22.155806 -0.557020
7.425356 21.907221 -0.010610
0.006950 -0.150728 -0.003943
0.006950 -0.150728 -0.003943
9.175813 27.033155 1.993893
0.006950 -0.150728 -0.003943
8.992158 26.427299 3.268811
0.006950 -0.150728 -0.003943
8.569131 25.132214 4.373768
8.054294 23.584587 4.710624
0.193228 0.396521 -0.346883
0.197653 0.408848 -0.336216
0.217862 0.467765 -0.351532
0.240872 0.534406 -0.367586
0.300915 0.709785 -0.434593
0.581153 1.527841 -0.794326
1.328345 3.707469 -1.708669
1.403188 3.923638 -1.687094
1.498021 4.195409 -1.677725
1.606973 4.510257 -1.670591
1.728803 4.859422 -1.658653
1.871441 5.268244 -1.648922
0.006929 -0.150528 -0.003936
2.199699 6.211400 -1.600404
2.411267 6.821315 -1.573694
2.693709 7.631411 -1.557490
2.988532 8.599039 -1.525317
3.386702 9.761770 -1.478818
3.617297 10.425932 -1.312101
4.797338 13.866787 -1.390208
5.427319 15.701107 -1.180205
0.006929 -0.150528 -0.003936
0.006929 -0.150528 -0.003936
7.603269 22.001184 -0.010616
0.006929 -0.150528 -0.003936
0.006929 -0.150528 -0.003936
0.006929 -0.150528 -0.003936
10.451901 30.204138 2.981742
8.886658 25.625984 3.176390
8.793029 25.325201 3.775553
8.471000 24.377531 4.251457
8.528852 24.517172 4.905516
0.196266 0.395672 -0.346876
0.199604 0.404682 -0.334248
0.220729 0.465105 -0.350586
4.946753 14.053777 -7.559741
0.301711 0.696327 -0.428594
0.600405 1.552310 -0.807341
1.350448 3.701981 -1.709429
1.428433 3.921014 -1.689266
1.524238 4.190503 -1.679083
1.633740 4.501180 -1.670578
1.758199 4.851439 -1.659235
1.901285 5.254006 -1.647804
1.966207 5.436100 -1.555511
2.232997 6.189710 -1.598080
2.453831 6.810835 -1.574512
2.741050 7.619265 -1.558214
3.034683 8.575018 -1.524001
3.442977 9.740501 -1.478519
3.657284 10.351421 -1.305337
4.872769 13.832543 -1.389436
5.509169 15.643500 -1.178216
0.006908 -0.150329 -0.003929
0.006908 -0.150329 -0.003929
7.779300 22.097065 -0.010622
0.006908 -0.150329 -0.003929
11.796862 33.539967 1.650454
11.840284 33.626099 2.488489
10.721816 30.399378 3.007164
9.111661 25.794010 3.203545
9.041739 25.565973 3.818930
0.006908 -0.150329 -0.003929
8.697269 24.543974 4.920716
0.197779 0.389872 -0.343807
0.204646 0.408654 -0.337182
0.222002 0.457369 -0.346821
0.246321 0.525327 -0.363980
0.310945 0.706685 -0.434579
0.608339 1.543905 -0.804890
1.369530 3.683720 -1.704789
1.446906 3.896923 -1.682703
1.548528 4.180139 -1.678386
1.662524 4.495229 -1.671847
1.788432 4.842973 -1.659819
1.931033 5.239598 -1.646687
1.992083 5.404554 -1.549918
2.022398 5.486202 -1.424017
2.493142 6.795012 -1.574079
2.786998 7.607317 -1.558939
3.084980 8.553409 -1.523332
3.501109 9.724515 -1.479057
0.006917 -0.150137 -0.003924
4.966847 13.835572 -1.392579
6.199000 17.300247 -1.303977
0.006917 -0.150137 -0.003924
0.006917 -0.150137 -0.003924
7.957352 22.193525 -0.010627
0.006917 -0.150137 -0.003924
11.935840 33.300369 1.642171
0.006917 -0.150137 -0.003924
10.928085 30.423727 3.015733
9.255823 25.713629 3.200342
8.916545 24.751078 3.705356
8.737407 24.223562 4.242151
8.759803 24.259130 4.874167
0.203188 0.395439 -0.347882
0.209626 0.412623 -0.340116
0.227869 0.462964 -0.350571
0.252006 0.529182 -0.366666
0.312173 0.694920 -0.429435
0.608752 1.514842 -0.792672
1.391528 3.676025 -1.704777
1.468242 3.883522 -1.680507
1.572757 4.169635 -1.677689
1.689841 4.487614 -1.672475
1.819061 4.838229 -1.661594
1.961312 5.226841 -1.646121
2.015406 5.369609 -1.543314
2.049426 5.460090 -1.420309
2.076848 5.529184 -1.290513
2.084451 5.543909 -1.147641
3.135646 8.537616 -1.523639
2.092196 5.637124 -0.870191
0.006896 -0.149938 -0.003917
5.044466 13.799529 -1.391809
6.297856 17.260803 -1.303666
0.006896 -0.149938 -0.003917
0.006896 -0.149938 -0.003917
8.142221 22.303715 -0.010637
0.006896 -0.149938 -0.003917
9.864122 26.996834 1.334775
11.144617 30.506550 2.267662
11.325565 30.970728 3.076164
9.559324 26.085810 3.253221
9.233100 25.176037 3.776510
9.016008 24.553263 4.308546
8.945119 24.332302 4.898982
0.205737 0.392882 -0.346855
0.211624 0.408381 -0.338147
0.228960 0.455254 -0.346806
0.253449 0.521250 -0.363068
0.316999 0.693358 -0.429426
0.609460 1.487557 -0.781266
1.410314 3.659544 -1.700909
1.490098 3.871763 -1.679038
1.599496 4.166054 -1.679730
1.714508 4.472730 -1.670540
1.845712 4.822560 -1.659792
1.995524 5.224735 -1.648866
2.036327 5.329148 -1.535186
2.069467 5.415612 -1.411985
2.101296 5.495383 -1.285502
2.106213 5.502592 -1.141693
2.092484 5.538469 -1.001028
2.115870 5.599211 -0.866271
2.099627 5.548698 -0.714465
5.129373 13.783623 -1.393087
6.404757 17.243269 -1.305037
8.560296 23.078247 -1.165179
0.006905 -0.149741 -0.003911
8.332074 22.421900 -0.010648
12.185688 32.834438 0.802566
12.204667 32.850311 1.626904
9.916470 26.645350 1.985774
9.687263 25.997484 2.589440
9.085200 24.344910 3.043535
9.140275 24.480236 3.680437
9.128348 24.421694 4.294668
10.323627 27.611797 5.567536
0.210036 0.395154 -0.348889
0.214820 0.407390 -0.338140
0.235512 0.462432 -0.351496
0.256669 0.518342 -0.362163
0.318041 0.681597 -0.424282
0.620428 1.487577 -0.782886
1.430909 3.648149 -1.699355
1.513865 3.865104 -1.679755
1.623716 4.153223 -1.678349
1.743054 4.468353 -1.672449
1.874936 4.813889 -1.660375
2.027309 5.213060 -1.648852
2.060284 5.297676 -1.529595
2.094852 5.383463 -1.406893
2.122931 5.451967 -1.278409
2.130620 5.466356 -1.136858
2.117532 5.506250 -0.997440
2.120099 5.507036 -0.854266
2.117724 5.497699 -0.709567
5.228248 13.804494 -1.398093
6.518859 17.235159 -1.307247
8.732262 23.131773 -1.170296
0.006884 -0.149542 -0.003904
0.006884 -0.149542 -0.003904
12.323786 32.627430 0.799269
10.091893 26.659569 1.323843
10.250817 27.053154 2.020555
9.846906 25.952915 2.590779
0.006884 -0.149542 -0.003904
9.556740 25.142986 3.787984
9.360243 24.596348 4.334846
9.384547 24.647467 4.983366
0.210821 0.387701 -0.344800
0.218130 0.406344 -0.338134
0.239110 0.461269 -0.351488
0.261870 0.520393 -0.363950
0.324238 0.683316 -0.425987
0.630468 1.485929 -0.783691
1.456646 3.648469 -1.703199
1.538269 3.858050 -1.680471
1.650449 4.149316 -1.680391
1.771053 4.459955 -1.673077
1.906354 4.808281 -1.662151
2.056042 5.196168 -1.647183
2.083514 5.262126 -1.522990
2.118951 5.351584 -1.401801
2.144562 5.412519 -1.272150
2.150168 5.421235 -1.130169
2.139789 5.464329 -0.992230
2.142733 5.469073 -0.850347
2.143376 5.464865 -0.706996
5.318597 13.793989 -1.400116
6.626514 17.218134 -1.308758
8.856483 23.044407 -1.168477
12.362706 32.199741 -0.817483
12.425307 32.346619 -0.013550
0.006894 -0.149345 -0.003899
12.458993 32.366512 1.610152
12.498633 32.452858 2.427750
9.933342 25.730621 2.574335
9.952244 25.752802 3.232955
11.129622 28.804104 4.346397
9.538480 24.636301 4.351395
9.504429 24.521963 4.969356
0.213271 0.385114 -0.343772
0.220688 0.403688 -0.337147
0.242617 0.460120 -0.351481
0.265081 0.517441 -0.363046
0.325743 0.673249 -0.421698
0.645136 1.496139 -0.790194
1.475117 3.631667 -1.699331
1.561947 3.851114 -1.681187
1.676480 4.143502 -1.681747
1.798883 4.453468 -1.674346
1.933433 4.793921 -1.660945
2.081161 5.170162 -1.642755
2.108942 5.235883 -1.518919
2.139912 5.312357 -1.394862
2.163681 5.367539 -1.264641
2.173546 5.387056 -1.125704
2.159937 5.420874 -0.986695
2.163559 5.427341 -0.845870
2.164148 5.423048 -0.703262
5.405870 13.781981 -1.401954
6.733469 17.198587 -1.310128
8.988957 22.991482 -1.168344
12.498514 31.999763 -0.814190
12.588734 32.215233 -0.013481
12.587339 32.178089 0.791895
10.139412 25.860933 1.290126
10.526676 26.841009 2.013695
10.242661 26.085169 2.615499
9.650004 24.540743 3.088385
9.707080 24.674004 3.734173
9.526940 24.187952 4.282166
9.683380 24.562317 4.988624
0.217587 0.387317 -0.345806
0.223844 0.402651 -0.337139
0.242243 0.449091 -0.345838
0.270857 0.521133 -0.365732
0.334436 0.681687 -0.426828
0.657946 1.501135 -0.794256
1.497493 3.625079 -1.700091
1.586292 3.845767 -1.682631
1.701808 4.135777 -1.682419
1.823242 4.437997 -1.672412
1.962519 4.784732 -1.661528
2.106755 5.145835 -1.638879
2.130589 5.200528 -1.512314
2.161211 5.274882 -1.388384
2.183811 5.326159 -1.257966
2.191531 5.340012 -1.118644
2.181082 5.381053 -0.981809
2.186157 5.391089 -0.842231
2.182305 5.375631 -0.698830
5.493158 13.769438 -1.403791
6.838196 17.172817 -1.311077
9.156346 23.026985 -1.172712
12.627287 31.786291 -0.810569
12.690764 31.930523 -0.013367
12.710429 31.947388 0.788048
10.266716 25.746719 1.287390
10.215530 25.604364 1.925636
10.342628 25.898355 2.602761
10.277982 25.709124 3.242079
9.889841 24.719252 3.749494
9.862226 24.624472 4.368956
9.866723 24.610548 5.009742
0.220030 0.384696 -0.344778
0.225706 0.398351 -0.335171
0.246985 0.451203 -0.347710
0.271371 0.511508 -0.361235
0.341913 0.686691 -0.430246
0.667698 1.497445 -0.794247
1.517804 3.613216 -1.698537
1.609913 3.838551 -1.683347
0.006860 -0.148754 -0.003879
1.852387 4.434711 -1.674961
1.993699 4.780687 -1.663900
2.128712 5.110329 -1.631691
2.151162 5.163315 -1.505202
2.199864 5.278461 -1.392526
2.208842 5.295231 -1.253788
2.215145 5.305313 -1.114180
2.201840 5.341172 -0.976923
2.207900 5.350696 -0.838034
2.205156 5.341105 -0.696026
5.578282 13.750798 -1.405070
6.948876 17.152609 -1.312588
9.302083 23.005716 -1.174266
12.747289 31.555706 -0.806525
12.818625 31.701012 -0.013271
11.275544 27.850769 0.688597
11.178406 27.581390 1.382090
10.314192 25.410398 1.915672
10.293237 25.332743 2.552233
11.947082 29.414820 3.715835
9.770471 24.001253 3.649803
10.165029 24.951872 4.437298
10.170446 24.952633 5.090762
0.223178 0.383622 -0.344771
0.228940 0.397243 -0.335165
0.253862 0.458139 -0.352400
0.275939 0.511783 -0.362125
0.345461 0.681548 -0.428525
1.470992 3.438958 -1.730304
1.537255 3.597569 -1.695440
1.633501 3.829180 -1.683335
1.758836 4.133483 -1.689241
1.878809 4.422138 -1.674309
2.024316 4.772559 -1.665079
2.148706 5.073339 -1.623953
2.172298 5.125658 -1.498089
2.225107 5.251561 -1.388818
2.246070 5.297151 -1.257105
2.251697 5.305444 -1.116762
2.223928 5.302673 -0.972363
2.228275 5.310632 -0.833836
2.227143 5.302425 -0.692757
5.670280 13.741720 -1.407466
7.050470 17.118151 -1.312977
9.541041 23.200130 -1.186879
12.875114 31.333654 -0.802765
12.942474 31.482628 -0.013178
12.963769 31.503090 0.780856
12.966618 31.478466 1.580718
10.463222 25.356449 1.916131
10.949876 26.516935 2.677314
11.527951 27.897621 3.533486
10.178677 24.600748 3.749298
10.134947 24.469805 4.362240
0.006869 -0.148561 -0.003874
0.225583 0.380974 -0.343744
0.230737 0.392929 -0.333197
0.257321 0.456910 -0.352392
0.279744 0.510416 -0.362119
0.346092 0.669759 -0.423382
1.485928 3.415231 -1.722968
1.556647 3.583791 -1.693114
1.654198 3.814800 -1.681139
1.784874 4.124965 -1.689912
1.905771 4.413249 -1.674936
2.053323 4.762838 -1.665663
2.175155 5.050114 -1.620628
2.192908 5.090108 -1.491485
2.230800 5.175675 -1.372647
2.273000 5.271356 -1.254177
2.280176 5.283179 -1.114894
2.255968 5.291862 -0.972673
2.249953 5.271960 -0.829917
2.245511 5.258568 -0.688790
5.752331 13.714643 -1.408000
7.157232 17.087376 -1.313788
9.676642 23.148823 -1.187026
12.996063 31.115330 -0.799051
13.071249 31.265291 -0.013086
13.090208 31.295351 0.777603
13.082935 31.246864 1.572895
10.737720 25.590746 1.938548
10.685832 25.441044 2.575472
10.693232 25.446171 3.232008
10.107450 24.019426 3.670162
10.419229 24.740934 4.421196
10.121240 24.016760 4.924447
0.231361 0.386210 -0.347819
0.235969 0.396613 -0.336131
0.255426 0.442593 -0.344870
0.289175 0.522162 -0.369294
0.357788 0.684654 -0.431935
1.504248 3.401818 -1.720515
1.578740 3.574737 -1.693104
1.681291 3.815760 -1.685495
1.807947 4.111409 -1.688531
1.930468 4.398965 -1.673641
2.077773 4.742404 -1.662667
2.195238 5.014749 -1.613441
2.216183 5.061621 -1.486908
2.251483 5.139711 -1.366632
2.267246 5.174204 -1.234595
2.272744 5.181993 -1.096709
2.279746 5.258627 -0.969087
2.271860 5.237265 -0.826557
2.259017 5.201466 -0.683197
5.838986 13.691574 -1.409092
7.268612 17.075588 -1.315999
0.006857 -0.148170 -0.003861
10.329066 24.298656 -0.627125
10.339679 24.299948 -0.011019
0.006857 -0.148170 -0.003861
10.346068 24.279333 1.225962
11.066868 25.956856 1.970972
11.055224 25.916687 2.629608
10.859574 25.430227 3.237846
0.006857 -0.148170 -0.003861
10.571683 24.715393 4.427064
10.590014 24.734343 5.083120
0.233673 0.383562 -0.346792
0.240365 0.398728 -0.338084
0.257316 0.438149 -0.342984
0.285880 0.504340 -0.360309
0.360439 0.677829 -0.429360
1.527499 3.400067 -1.723759
1.603821 3.576292 -1.697720
1.699643 3.795990 -1.681115
1.832418 4.101178 -1.688519
1.955105 4.384542 -1.672348
2.109634 4.739381 -1.665636
2.209678 4.966967 -1.602392
2.235393 5.024152 -1.479797
2.271059 5.101899 -1.360155
2.283983 5.126799 -1.226670
2.290222 5.136205 -1.090020
2.284261 5.186176 -0.958355
2.291109 5.197032 -0.822360
2.275525 5.157974 -0.679231
5.927024 13.684672 -1.411675
7.376931 17.055761 -1.317648
9.861251 22.843679 -1.177110
13.230916 30.675816 -0.791578
0.006836 -0.147970 -0.003854
0.006836 -0.147970 -0.003854
10.545521 24.357332 1.232950
10.523335 24.282196 1.848854
10.515197 24.239756 2.466445
10.512595 24.221977 3.092336
10.510210 24.193037 3.714694
10.587318 24.348171 4.372721
10.567600 24.290775 5.004770
0.236123 0.380827 -0.345764
0.244987 0.400730 -0.340038
0.265013 0.446563 -0.348614
0.293287 0.511070 -0.364790
0.366759 0.679235 -0.431065
1.542775 3.379735 -1.718050
1.620689 3.555125 -1.692309
1.725976 3.792916 -1.684016
1.856799 4.090813 -1.688506
1.982652 4.374857 -1.672975
2.139304 4.728786 -1.666219
2.225166 4.922715 -1.592446
2.258990 4.995107 -1.475219
2.293376 5.071170 -1.355524
2.307185 5.097697 -1.222908
2.315052 5.110587 -1.087411
2.307183 5.152873 -0.954769
2.310741 5.158575 -0.818441
2.295026 5.117311 -0.675730
6.016021 13.665987 -1.413327
7.494816 17.057207 -1.320978
