# This PCD file was generated using the MATLAB® pcwrite function
# from Computer Vision Toolbox®.
# .PCD v.7 - Point Cloud Data file format
VERSION .7
FIELDS x y z
SIZE 4 4 4
TYPE F F F
COUNT 1 1 1
WIDTH 1629
HEIGHT 1
VIEWPOINT 0 0 0 1 0 0 0
POINTS 1629
DATA ascii
0.004877 -0.097426 -0.002623
0.004877 -0.097426 -0.002623
69.099976 -20.120937 -0.024862
51.593594 -15.056924 1.227845
51.556347 -15.065144 2.484094
50.514442 -14.781271 3.659253
69.391342 -20.294662 6.716980
0.004877 -0.097426 -0.002623
0.004877 -0.097426 -0.002623
69.749924 -20.463062 11.911583
0.004877 -0.097426 -0.002623
3.004717 -0.979198 -1.858275
3.158960 -1.025699 -1.851300
3.336304 -1.078498 -1.850585
3.532489 -1.137579 -1.850575
3.754320 -1.204378 -1.854613
3.974817 -1.270195 -1.847217
4.210823 -1.341477 -1.836263
4.532555 -1.438322 -1.848221
4.878474 -1.541658 -1.854503
5.273869 -1.660789 -1.861619
5.456327 -1.716946 -1.779096
5.553066 -1.746686 -1.664276
5.636182 -1.773477 -1.542663
5.639040 -1.775342 -1.397454
5.652995 -1.781587 -1.257295
5.675026 -1.790259 -1.119411
5.650695 -1.757210 -0.971312
8.991529 -2.741097 -1.322070
9.061613 -2.765062 -1.107996
9.037038 -2.761162 -0.884078
15.990210 -4.814801 -1.173220
15.952876 -4.809685 -0.783236
68.467583 -20.352518 -1.682115
68.571388 -20.395592 -0.024523
51.109150 -15.245008 1.218568
51.537640 -15.391094 2.487677
0.004860 -0.097226 -0.002618
68.865570 -20.571590 6.677561
0.004860 -0.097226 -0.002618
0.004860 -0.097226 -0.002618
69.223145 -20.741655 11.841885
0.004860 -0.097226 -0.002618
2.996308 -0.995249 -1.856220
3.146883 -1.041616 -1.847365
3.325524 -1.095913 -1.847751
3.524729 -1.157132 -1.849662
3.739238 -1.223117 -1.850316
3.973259 -1.294392 -1.849643
4.205363 -1.365977 -1.837017
4.528332 -1.465219 -1.849658
4.866505 -1.568376 -1.853115
5.261163 -1.689763 -1.860316
5.474319 -1.756379 -1.788020
5.569226 -1.786176 -1.671980
5.659753 -1.815756 -1.551769
5.666529 -1.818835 -1.406666
5.680620 -1.825229 -1.265601
5.710298 -1.836387 -1.128290
5.669377 -1.797951 -0.976161
9.023606 -2.806775 -1.329013
9.089854 -2.830052 -1.113312
9.090198 -2.833526 -0.890756
16.048773 -4.932337 -1.179473
15.954210 -4.909760 -0.784591
16.597332 -5.109982 -0.410303
68.034279 -20.662523 -0.024184
0.004843 -0.097027 -0.002612
0.004843 -0.097027 -0.002612
0.004843 -0.097027 -0.002612
68.342720 -20.844299 6.638510
68.552330 -20.933401 8.353634
0.004843 -0.097027 -0.002612
68.672798 -21.007959 11.768304
0.004843 -0.097027 -0.002612
2.986138 -1.010721 -1.853143
3.144712 -1.060491 -1.849310
3.323089 -1.115828 -1.849615
3.518571 -1.177158 -1.849646
3.741349 -1.247037 -1.854582
3.964328 -1.317143 -1.848811
4.206810 -1.392632 -1.840856
4.515048 -1.489359 -1.847456
4.863058 -1.598616 -1.855148
5.246476 -1.718083 -1.858373
5.486556 -1.794379 -1.795154
5.592188 -1.829168 -1.681893
5.684880 -1.858938 -1.561381
5.687809 -1.861962 -1.414492
5.705768 -1.869662 -1.273490
5.731789 -1.879890 -1.134573
5.697251 -1.841869 -0.982637
9.056609 -2.875067 -1.336233
9.129072 -2.898961 -1.120025
9.119998 -2.899565 -0.895198
16.513695 -5.179133 -1.215709
0.004826 -0.096827 -0.002606
0.004826 -0.096827 -0.002606
47.840313 -14.867461 -0.017659
0.004826 -0.096827 -0.002606
0.004826 -0.096827 -0.002606
0.004826 -0.096827 -0.002606
67.803947 -21.119970 6.598349
67.977890 -21.186247 8.298463
0.004826 -0.096827 -0.002606
68.148132 -21.289890 11.699902
0.004826 -0.096827 -0.002606
2.987227 -1.030228 -1.857211
3.137278 -1.078358 -1.848315
3.317000 -1.135276 -1.849600
3.515521 -1.198832 -1.851426
3.736372 -1.268844 -1.855421
3.965949 -1.342435 -1.852863
4.190235 -1.414530 -1.836980
4.505189 -1.514515 -1.846709
4.857926 -1.627459 -1.856498
5.237063 -1.747999 -1.858352
5.505813 -1.834871 -1.804673
5.607790 -1.869184 -1.689597
5.704167 -1.900714 -1.569473
5.712816 -1.905583 -1.423243
5.731225 -1.912459 -1.281380
5.755484 -1.922302 -1.141228
5.718810 -1.885383 -0.988136
9.100970 -2.945813 -1.345128
9.176751 -2.972976 -1.127899
9.148805 -2.967632 -0.899637
16.375715 -5.239688 -1.207670
16.360029 -5.240876 -0.807270
16.561443 -5.307244 -0.410759
66.986496 -21.201794 -0.023519
48.963032 -15.541121 1.173988
0.004838 -0.096638 -0.002602
0.004838 -0.096638 -0.002602
0.004838 -0.096638 -0.002602
67.463470 -21.452381 8.250704
0.004838 -0.096638 -0.002602
67.631950 -21.543341 11.631812
0.004838 -0.096638 -0.002602
2.981984 -1.046649 -1.857198
3.130102 -1.095086 -1.847321
3.312831 -1.154068 -1.850525
3.507615 -1.217647 -1.850513
3.734758 -1.291747 -1.857974
3.963943 -1.366670 -1.855289
4.189849 -1.439905 -1.840049
4.495189 -1.539603 -1.845963
4.852639 -1.656298 -1.857848
5.229285 -1.778440 -1.858972
5.524817 -1.875650 -1.814193
5.619433 -1.908253 -1.696196
5.728675 -1.944549 -1.579085
5.735648 -1.948949 -1.431531
5.753862 -1.956997 -1.288853
5.772600 -1.965227 -1.146768
5.761381 -1.933818 -0.997209
9.131589 -3.012938 -1.352069
9.209757 -3.039595 -1.133913
9.185765 -3.035366 -0.904825
16.357265 -5.337182 -1.208457
16.361507 -5.341531 -0.808717
0.004821 -0.096439 -0.002597
66.477524 -21.462107 -0.023197
0.004821 -0.096439 -0.002597
0.004821 -0.096439 -0.002597
0.004821 -0.096439 -0.002597
0.004821 -0.096439 -0.002597
66.952019 -21.714514 8.203405
0.004821 -0.096439 -0.002597
67.107452 -21.815115 11.563729
0.004821 -0.096439 -0.002597
2.974648 -1.063541 -1.856162
3.130762 -1.115550 -1.851227
3.309860 -1.174546 -1.852388
3.500902 -1.238185 -1.850497
3.719005 -1.310813 -1.853676
3.947878 -1.386374 -1.851202
4.185324 -1.465632 -1.841574
4.486550 -1.565982 -1.845944
4.845361 -1.684532 -1.858513
5.230031 -1.812715 -1.862796
5.537738 -1.915875 -1.821923
5.645445 -1.952330 -1.707211
5.833404 -2.016369 -1.611009
5.939277 -2.052335 -1.485064
5.947404 -2.057255 -1.334634
5.808414 -2.013576 -1.156018
5.776655 -1.976246 -1.001734
9.184329 -3.087871 -1.362356
9.248805 -3.112360 -1.140856
9.234428 -3.111144 -0.911314
16.406504 -5.456946 -1.214287
16.455458 -5.479144 -0.814850
65.894234 -21.681076 -1.632620
65.977264 -21.720383 -0.022880
0.004804 -0.096240 -0.002591
0.004804 -0.096240 -0.002591
49.233875 -16.278450 3.605853
0.004804 -0.096240 -0.002591
66.428406 -21.980583 8.155184
0.004804 -0.096240 -0.002591
66.574745 -22.066113 11.493696
0.004804 -0.096240 -0.002591
2.973950 -1.082036 -1.859211
3.126482 -1.133859 -1.852192
3.298553 -1.191660 -1.849554
3.506128 -1.262022 -1.856766
3.715381 -1.333097 -1.855372
3.952527 -1.412878 -1.856883
4.173883 -1.488282 -1.840014
4.481551 -1.592710 -1.847381
4.834356 -1.711546 -1.857808
5.220077 -1.842535 -1.862776
5.561572 -1.958992 -1.833231
5.656542 -1.991869 -1.713811
5.851597 -2.059508 -1.619099
5.898433 -2.076315 -1.477656
5.904498 -2.080588 -1.327532
5.834524 -2.059257 -1.163412
5.808826 -2.023511 -1.009183
0.004787 -0.096040 -0.002585
19.040249 -6.428232 -2.350914
0.004787 -0.096040 -0.002585
16.494654 -5.590695 -1.223059
0.004787 -0.096040 -0.002585
65.382156 -21.930136 -1.622831
65.476265 -21.973625 -0.022565
0.004787 -0.096040 -0.002585
0.004787 -0.096040 -0.002585
0.004787 -0.096040 -0.002585
0.004787 -0.096040 -0.002585
65.945549 -22.242365 8.111589
0.004787 -0.096040 -0.002585
66.103127 -22.332474 11.434343
0.004787 -0.096040 -0.002585
2.964951 -1.097787 -1.857155
3.120468 -1.151598 -1.852178
3.297238 -1.212092 -1.852358
3.499368 -1.281938 -1.856751
3.715042 -1.356541 -1.858780
3.941427 -1.434182 -1.855238
4.167549 -1.512629 -1.840767
4.469349 -1.617032 -1.845907
4.826754 -1.739694 -1.858473
5.213521 -1.873520 -1.864036
5.574257 -1.998741 -1.840961
5.832911 -2.088190 -1.770627
5.856678 -2.098532 -1.623640
5.853785 -2.098622 -1.469322
5.855979 -2.101596 -1.319182
5.871474 -2.109135 -1.173033
5.827544 -2.066776 -1.014357
9.233731 -3.221422 -1.374843
6.348361 -2.246635 -0.786655
0.004769 -0.095844 -0.002579
16.515661 -5.703177 -1.226927
47.643295 -16.292639 -2.363512
64.894020 -22.182400 -1.613656
64.989693 -22.226976 -0.022257
0.004769 -0.095844 -0.002579
47.579960 -16.334082 2.327289
0.004769 -0.095844 -0.002579
0.004769 -0.095844 -0.002579
65.439308 -22.491596 8.065213
0.004769 -0.095844 -0.002579
65.606339 -22.585814 11.370781
0.004769 -0.095844 -0.002579
2.952627 -1.112348 -1.853058
3.117619 -1.170427 -1.854123
3.289082 -1.230228 -1.851403
3.487418 -1.300059 -1.854041
3.709432 -1.378242 -1.859620
3.940348 -1.459678 -1.858477
4.155829 -1.535125 -1.839206
4.465787 -1.644305 -1.848071
4.822252 -1.769885 -1.860507
5.205014 -1.903864 -1.864657
5.777754 -2.105213 -1.911897
5.795577 -2.113619 -1.762878
5.814019 -2.121121 -1.614998
5.827121 -2.127906 -1.465605
5.845842 -2.136666 -1.319575
5.877995 -2.150144 -1.176718
5.851570 -2.112249 -1.020506
0.004783 -0.095648 -0.002575
6.365920 -2.293249 -0.790351
0.004783 -0.095648 -0.002575
9.233237 -3.290858 -0.688265
41.117851 -14.338042 -2.044012
63.779858 -22.212906 -1.588929
63.891972 -22.276136 -0.021763
0.004783 -0.095648 -0.002575
0.004783 -0.095648 -0.002575
0.004783 -0.095648 -0.002575
0.004783 -0.095648 -0.002575
0.004783 -0.095648 -0.002575
0.004783 -0.095648 -0.002575
0.004783 -0.095648 -0.002575
0.004783 -0.095648 -0.002575
2.951416 -1.131308 -1.856105
3.109575 -1.188081 -1.853129
3.285625 -1.250641 -1.853267
3.480230 -1.320480 -1.854026
3.693255 -1.396969 -1.855323
3.941025 -1.485126 -1.862529
4.148973 -1.560116 -1.839960
4.449502 -1.668024 -1.845140
4.814315 -1.797987 -1.861171
5.194197 -1.934442 -1.864635
5.745969 -2.132163 -1.905316
5.758521 -2.137687 -1.755131
5.825610 -2.163724 -1.621566
5.853835 -2.174839 -1.475277
5.867178 -2.181827 -1.327047
5.901247 -2.196210 -1.183741
5.873007 -2.158430 -1.026328
9.114383 -3.299628 -1.362504
6.384631 -2.341911 -0.794279
9.182740 -3.330682 -0.913233
36.073139 -12.816259 -2.687790
41.061031 -14.591124 -2.045288
0.004766 -0.095448 -0.002569
63.759605 -22.641541 -0.021566
0.004766 -0.095448 -0.002569
48.643147 -17.333031 2.389356
0.004766 -0.095448 -0.002569
0.004766 -0.095448 -0.002569
0.004766 -0.095448 -0.002569
0.004766 -0.095448 -0.002569
0.004766 -0.095448 -0.002569
0.004766 -0.095448 -0.002569
2.948650 -1.149201 -1.858133
3.106509 -1.206896 -1.855074
3.283902 -1.271078 -1.856069
3.483191 -1.343863 -1.859396
3.689114 -1.419185 -1.857019
3.945022 -1.511872 -1.868211
4.143956 -1.584975 -1.841485
4.443905 -1.694627 -1.846579
4.804436 -1.825414 -1.861151
5.185304 -1.964690 -1.865255
5.696451 -2.151324 -1.892771
5.730411 -2.164659 -1.750142
5.842721 -2.207492 -1.629656
5.871054 -2.218838 -1.482641
5.899221 -2.231300 -1.337017
5.927871 -2.243956 -1.191506
5.901923 -2.206572 -1.033451
9.047325 -3.334387 -1.355220
6.412733 -2.393108 -0.799369
0.004749 -0.095249 -0.002564
0.004749 -0.095249 -0.002564
64.341354 -23.227337 -3.209947
64.371429 -23.262871 -1.609861
63.551773 -22.979734 -0.021348
0.004749 -0.095249 -0.002564
0.004749 -0.095249 -0.002564
63.791710 -23.127108 4.720783
0.004749 -0.095249 -0.002564
63.968788 -23.240221 7.933023
0.004749 -0.095249 -0.002564
64.120834 -23.331888 11.182349
0.004749 -0.095249 -0.002564
2.944158 -1.166506 -1.859140
3.096787 -1.223323 -1.853100
3.270464 -1.287296 -1.852297
3.465881 -1.359968 -1.853993
3.683123 -1.440768 -1.857859
3.931660 -1.532421 -1.865752
4.131841 -1.607280 -1.839924
4.436365 -1.720566 -1.847287
4.801486 -1.855381 -1.863871
5.185133 -1.998173 -1.869078
5.659451 -2.174596 -1.884402
5.741858 -2.205977 -1.757293
5.859519 -2.251525 -1.637745
5.904393 -2.269159 -1.494160
5.921700 -2.277819 -1.344905
5.948600 -2.290035 -1.198159
5.924927 -2.253095 -1.039600
8.978328 -3.367811 -1.347659
6.436723 -2.443342 -0.803995
0.004731 -0.095053 -0.002558
16.707333 -6.202659 -1.251080
46.821861 -17.232641 -2.341273
64.674599 -23.792648 -1.620609
63.096149 -23.226093 -0.021058
0.004731 -0.095053 -0.002558
63.228397 -23.323374 3.119944
63.315536 -23.367281 4.695548
0.004731 -0.095053 -0.002558
63.478588 -23.476221 7.888956
0.004731 -0.095053 -0.002558
63.652843 -23.576948 11.124283
0.004731 -0.095053 -0.002558
2.937945 -1.183194 -1.859126
3.090250 -1.240888 -1.853085
3.266866 -1.307090 -1.854162
3.465258 -1.382147 -1.857570
3.670236 -1.459807 -1.855274
3.919891 -1.553502 -1.864107
4.133459 -1.634664 -1.844535
4.423461 -1.744524 -1.845813
4.798314 -1.885365 -1.866589
5.172319 -2.027067 -1.868416
5.684937 -2.220930 -1.896901
5.760243 -2.250197 -1.766652
5.872388 -2.294463 -1.644821
5.922765 -2.314463 -1.501985
5.940166 -2.323292 -1.351959
5.972668 -2.337805 -1.205552
5.945710 -2.299257 -1.045423
8.922207 -3.405365 -1.342048
6.465953 -2.496003 -0.809319
16.926847 -6.390084 -1.691983
16.699974 -6.308828 -1.253125
0.004744 -0.094861 -0.002554
64.951294 -24.318285 -1.630789
62.180756 -23.296667 -0.020637
0.004744 -0.094861 -0.002554
0.004744 -0.094861 -0.002554
0.004744 -0.094861 -0.002554
0.004744 -0.094861 -0.002554
0.004744 -0.094861 -0.002554
62.546040 -23.553539 9.366517
0.004744 -0.094861 -0.002554
0.004744 -0.094861 -0.002554
2.936468 -1.201671 -1.862174
3.086853 -1.259643 -1.855030
3.263113 -1.326876 -1.856024
3.457799 -1.401830 -1.857554
3.662322 -1.480666 -1.855257
3.916289 -1.578418 -1.866531
4.127981 -1.659488 -1.846060
4.417385 -1.771029 -1.847251
4.782338 -1.911530 -1.864515
5.171763 -2.060595 -1.872241
5.717217 -2.270347 -1.911785
5.777898 -2.295699 -1.776009
5.895770 -2.341756 -1.654938
6.018592 -2.390940 -1.529660
6.032836 -2.398727 -1.376084
5.997806 -2.387672 -1.213316
5.975388 -2.349211 -1.052869
14.237752 -5.474648 -2.145195
6.489181 -2.546967 -0.813943
8.858203 -3.446326 -0.888322
0.004727 -0.094661 -0.002548
0.004727 -0.094661 -0.002548
65.240898 -24.854269 -1.641391
62.322632 -23.770927 -0.020521
62.395756 -23.810530 1.529107
0.004727 -0.094661 -0.002548
62.554749 -23.919659 4.659809
0.004727 -0.094661 -0.002548
0.004727 -0.094661 -0.002548
0.004727 -0.094661 -0.002548
0.004727 -0.094661 -0.002548
0.004727 -0.094661 -0.002548
2.928241 -1.218207 -1.861139
3.084771 -1.279565 -1.857956
3.250817 -1.344062 -1.853191
3.449995 -1.422068 -1.857539
3.659091 -1.504064 -1.857809
3.902577 -1.598714 -1.864072
4.127223 -1.687014 -1.849898
4.419528 -1.801649 -1.852328
4.773564 -1.939453 -1.865180
5.158264 -2.090295 -1.871579
5.746943 -2.320516 -1.926072
5.788439 -2.337698 -1.783159
5.972520 -2.411427 -1.680265
6.005289 -2.425282 -1.529637
6.006719 -2.428192 -1.373146
6.015643 -2.434011 -1.219596
6.006122 -2.401340 -1.060640
14.265732 -5.578942 -2.154071
6.524578 -2.604409 -0.820195
8.778698 -3.475602 -0.882326
9.466864 -3.742584 -0.714397
16.635521 -6.512953 -0.838630
65.518333 -25.404371 -1.651891
62.722748 -24.336285 -0.020482
0.004710 -0.094462 -0.002543
62.860672 -24.438740 3.122848
62.801826 -24.427902 4.688771
62.970306 -24.517815 6.280145
0.004710 -0.094462 -0.002543
0.004710 -0.094462 -0.002543
0.004710 -0.094462 -0.002543
0.004710 -0.094462 -0.002543
2.920114 -1.234171 -1.860103
3.076281 -1.296424 -1.856961
3.250166 -1.365090 -1.856934
3.445617 -1.442965 -1.859318
3.659344 -1.528159 -1.862074
3.898982 -1.622916 -1.866498
4.114583 -1.709151 -1.848339
4.407911 -1.826129 -1.851582
4.762890 -1.966651 -1.865161
5.144929 -2.118999 -1.870917
5.700301 -2.339992 -1.914721
5.811217 -2.384831 -1.794173
5.957302 -2.444795 -1.679735
5.995392 -2.460979 -1.530537
6.013210 -2.470378 -1.377703
6.045952 -2.485698 -1.228473
6.040551 -2.454295 -1.069061
9.471806 -3.797730 -1.433979
6.556274 -2.659763 -0.825982
8.696094 -3.501090 -0.875961
9.421561 -3.787256 -0.712542
16.695051 -6.646232 -0.843448
0.004692 -0.094266 -0.002537
62.960167 -24.844820 -0.020394
0.004692 -0.094266 -0.002537
63.128574 -24.960602 3.143424
0.004692 -0.094266 -0.002537
63.254883 -25.047298 6.322950
63.324322 -25.099562 7.940502
63.472462 -25.170193 9.569912
63.374187 -25.156271 11.174922
63.598747 -25.270058 12.865316
2.921509 -1.253901 -1.865193
3.075788 -1.316448 -1.860867
3.244425 -1.384181 -1.857858
3.441116 -1.463853 -1.861098
3.647668 -1.547611 -1.860345
3.894919 -1.647792 -1.868921
4.110362 -1.734612 -1.850635
4.389224 -1.847761 -1.847923
4.744731 -1.991818 -1.862403
5.138459 -2.150436 -1.872818
5.639442 -2.353322 -1.898599
5.827868 -2.431164 -1.803529
5.954472 -2.483117 -1.682755
6.026402 -2.514373 -1.542053
6.040778 -2.522533 -1.387255
6.071782 -2.537401 -1.236607
6.067205 -2.504804 -1.076182
6.172575 -2.549129 -0.937287
6.583869 -2.714101 -0.831304
8.639340 -3.536055 -0.872202
9.442143 -3.859789 -0.715729
0.004705 -0.094073 -0.002533
0.004705 -0.094073 -0.002533
63.250698 -25.392427 -0.020319
0.004705 -0.094073 -0.002533
63.340633 -25.465544 3.161408
63.563442 -25.579880 4.767974
63.534687 -25.593424 6.366132
63.609013 -25.635466 7.994704
0.004705 -0.094073 -0.002533
63.665844 -25.708546 11.253141
63.890499 -25.811195 12.954265
2.914583 -1.270967 -1.865179
3.063639 -1.332464 -1.857912
3.231829 -1.401173 -1.855025
3.431277 -1.483318 -1.860184
3.635648 -1.567615 -1.858616
3.891007 -1.672004 -1.871346
4.103981 -1.760099 -1.852159
4.383931 -1.875616 -1.850088
4.737215 -2.020261 -1.863753
5.138464 -2.185621 -1.877282
5.631251 -2.388630 -1.900365
5.844563 -2.476752 -1.812885
5.974222 -2.532021 -1.692363
6.043000 -2.561272 -1.549877
6.062921 -2.571810 -1.395558
6.099457 -2.589173 -1.245112
6.089416 -2.555286 -1.082653
6.163849 -2.586578 -0.938100
6.608724 -2.769242 -0.836393
8.563451 -3.564507 -0.866582
0.004688 -0.093874 -0.002527
0.004688 -0.093874 -0.002527
0.004688 -0.093874 -0.002527
63.532139 -25.929472 -0.020241
0.004688 -0.093874 -0.002527
0.004688 -0.093874 -0.002527
63.811230 -26.105854 4.797917
63.825848 -26.137121 6.410423
63.866661 -26.179096 8.046595
63.947224 -26.224337 9.687281
63.928490 -26.242035 11.326181
64.213562 -26.384102 13.051356
2.902993 -1.285523 -1.862103
3.058074 -1.350499 -1.858877
3.225887 -1.420183 -1.855949
3.419938 -1.501444 -1.858374
3.632399 -1.589714 -1.861169
3.878473 -1.692730 -1.869701
4.097734 -1.784854 -1.853684
4.377368 -1.901232 -1.851526
4.722569 -2.045804 -1.862363
5.123212 -2.212566 -1.875980
5.623666 -2.421963 -1.902132
5.860974 -2.522620 -1.822244
5.996280 -2.579899 -1.702480
6.068254 -2.612177 -1.560009
6.090545 -2.622616 -1.405110
6.127191 -2.640280 -1.253617
6.115304 -2.606543 -1.089774
6.176873 -2.633053 -0.942258
6.640978 -2.826634 -0.842411
0.004671 -0.093674 -0.002521
9.420338 -3.976792 -0.717341
0.004671 -0.093674 -0.002521
0.004671 -0.093674 -0.002521
63.805820 -26.469063 -0.020161
0.004671 -0.093674 -0.002521
0.004671 -0.093674 -0.002521
64.080849 -26.646206 4.829808
64.152397 -26.688293 6.458234
64.160576 -26.717236 8.102421
64.200142 -26.759228 9.748882
64.222740 -26.781061 11.404719
64.474274 -26.911274 13.134757
2.897877 -1.302126 -1.863109
3.054249 -1.368655 -1.860824
3.226571 -1.441330 -1.860631
3.418606 -1.523022 -1.861949
3.627316 -1.611112 -1.862865
3.867822 -1.713401 -1.868871
4.100142 -1.812451 -1.859065
4.372364 -1.927549 -1.853691
4.718526 -2.074790 -1.865081
5.113088 -2.241614 -1.876601
5.607080 -2.451576 -1.900918
5.884541 -2.570709 -1.833808
6.019761 -2.628847 -1.713104
6.098939 -2.664656 -1.571526
6.121392 -2.675323 -1.415494
6.150898 -2.690236 -1.261380
6.144888 -2.658628 -1.097544
6.157121 -2.664936 -0.941397
6.682457 -2.887162 -0.849593
0.004654 -0.093475 -0.002516
9.451879 -4.051378 -0.721368
9.496549 -4.073886 -0.485116
0.004654 -0.093475 -0.002516
64.116913 -27.016945 -0.020092
0.004654 -0.093475 -0.002516
0.004654 -0.093475 -0.002516
64.443024 -27.217985 4.868648
0.004654 -0.093475 -0.002516
64.476105 -27.270260 8.161492
64.515770 -27.312807 9.819928
64.560226 -27.344133 11.491678
0.004654 -0.093475 -0.002516
2.890462 -1.319553 -1.863095
3.046400 -1.387028 -1.860808
3.211780 -1.457987 -1.856857
3.411486 -1.544323 -1.862831
3.621303 -1.634392 -1.864560
3.864578 -1.739596 -1.872108
4.087881 -1.836471 -1.858276
4.355961 -1.951759 -1.851488
4.701173 -2.101087 -1.863008
5.101617 -2.273270 -1.877220
5.596073 -2.486997 -1.902086
5.894033 -2.616917 -1.841507
6.036180 -2.679005 -1.722205
6.195799 -2.749919 -1.600582
6.208011 -2.756367 -1.439200
6.207185 -2.758507 -1.276187
6.169077 -2.712805 -1.104663
6.159548 -2.709953 -0.944161
6.716465 -2.949410 -0.856075
9.384708 -4.088616 -0.956276
0.004667 -0.093282 -0.002512
0.004667 -0.093282 -0.002512
0.004667 -0.093282 -0.002512
64.402145 -27.599680 -0.020003
0.004667 -0.093282 -0.002512
64.506454 -27.682783 3.251533
0.004667 -0.093282 -0.002512
64.688751 -27.799435 6.544798
0.004667 -0.093282 -0.002512
64.823616 -27.909340 9.892660
64.826271 -27.923161 11.569266
0.004667 -0.093282 -0.002512
2.886718 -1.336787 -1.865122
3.037529 -1.403080 -1.859814
3.208987 -1.477756 -1.859661
3.400042 -1.561677 -1.861019
3.610744 -1.654255 -1.863688
3.853667 -1.760169 -1.871278
4.081491 -1.860481 -1.859801
4.355446 -1.980999 -1.855837
4.696795 -2.130035 -1.865726
5.094198 -2.304608 -1.879120
5.578715 -2.517388 -1.900871
5.913382 -2.664093 -1.851969
6.051365 -2.726575 -1.730800
6.177303 -2.782637 -1.599635
6.183611 -2.787883 -1.437093
6.211550 -2.802575 -1.280241
6.197880 -2.765705 -1.112434
6.173962 -2.756593 -0.948599
9.907901 -4.372660 -1.264923
9.890463 -4.369115 -1.010076
0.004650 -0.093083 -0.002506
46.656582 -20.299995 -2.385988
0.004650 -0.093083 -0.002506
64.712036 -28.159412 -0.019933
0.004650 -0.093083 -0.002506
64.806679 -28.252825 3.274996
0.004650 -0.093083 -0.002506
64.990349 -28.371685 6.591881
0.004650 -0.093083 -0.002506
65.117775 -28.466257 9.961768
65.102943 -28.486107 11.647820
65.249115 -28.576237 13.392392
2.876361 -1.351760 -1.863066
3.033129 -1.421700 -1.861759
3.200957 -1.495958 -1.859645
3.391541 -1.580981 -1.861004
3.605000 -1.676219 -1.865384
3.842059 -1.782015 -1.870447
4.074629 -1.885186 -1.861326
4.344507 -2.005785 -1.855818
4.682922 -2.156845 -1.865022
5.086593 -2.335934 -1.881022
5.559459 -2.546889 -1.899061
5.931442 -2.713628 -1.862427
6.087423 -2.783801 -1.745478
6.173724 -2.824480 -1.602842
6.203300 -2.840095 -1.445395
6.236706 -2.857429 -1.288744
6.225781 -2.820090 -1.120203
6.187078 -2.805629 -0.953036
0.004633 -0.092883 -0.002500
9.831087 -4.410468 -1.006502
35.149586 -15.549275 -2.696676
46.696888 -20.636877 -2.393894
0.004633 -0.092883 -0.002500
64.994827 -28.740484 -0.019845
0.004633 -0.092883 -0.002500
65.122559 -28.836092 3.299480
65.240471 -28.914642 4.967138
65.306137 -28.970182 6.641377
0.004633 -0.092883 -0.002500
65.417587 -29.058971 10.033943
65.442375 -29.096540 11.739329
65.544212 -29.154617 13.487271
2.875141 -1.371357 -1.867135
3.018843 -1.436588 -1.857825
3.194196 -1.515396 -1.860569
3.392464 -1.605198 -1.866376
3.595556 -1.697326 -1.865367
3.840609 -1.807583 -1.874499
4.072340 -1.912835 -1.865164
4.338201 -2.033553 -1.857983
4.672692 -2.184283 -1.865687
5.071477 -2.365026 -1.880360
5.534372 -2.574869 -1.895461
5.956612 -2.765581 -1.875094
6.090795 -2.828321 -1.751031
6.198721 -2.878063 -1.613433
6.226640 -2.893156 -1.454529
6.265501 -2.913203 -1.297989
6.250971 -2.875167 -1.127646
6.225633 -2.865116 -0.961376
9.777450 -4.451978 -1.254625
9.843493 -4.485452 -1.010377
35.340672 -15.876190 -2.718123
46.740330 -20.987118 -2.402264
0.004616 -0.092684 -0.002495
64.770615 -29.087307 -0.019625
0.004616 -0.092684 -0.002495
0.004616 -0.092684 -0.002495
0.004616 -0.092684 -0.002495
0.004616 -0.092684 -0.002495
0.004616 -0.092684 -0.002495
0.004616 -0.092684 -0.002495
0.004616 -0.092684 -0.002495
0.004616 -0.092684 -0.002495
2.866162 -1.386935 -1.866100
3.015813 -1.455855 -1.860750
3.189176 -1.534971 -1.862433
3.378816 -1.622241 -1.863666
3.591207 -1.719992 -1.867919
3.824018 -1.826393 -1.871226
4.063499 -1.936766 -1.865918
4.340535 -2.064410 -1.863788
4.662286 -2.211669 -1.866351
5.068677 -2.398640 -1.884183
5.513049 -2.603256 -1.893054
5.986616 -2.820298 -1.889416
6.101350 -2.875118 -1.758611
6.225085 -2.932833 -1.624487
6.251352 -2.947389 -1.464079
6.295627 -2.970210 -1.307604
6.276226 -2.929547 -1.135091
6.238474 -2.913710 -0.965814
9.710586 -4.489044 -1.249243
9.700182 -4.488303 -0.998234
35.480091 -16.183559 -2.735788
46.659454 -21.273451 -2.404176
0.004628 -0.092495 -0.002490
65.620590 -29.921667 -0.019687
0.004628 -0.092495 -0.002490
65.709839 -30.016144 3.347166
0.004628 -0.092495 -0.002490
0.004628 -0.092495 -0.002490
0.004628 -0.092495 -0.002490
66.092659 -30.271133 10.190520
0.004628 -0.092495 -0.002490
66.238876 -30.392292 13.702565
2.861785 -1.404608 -1.868126
3.007939 -1.472958 -1.860736
3.179224 -1.552324 -1.861479
3.369967 -1.641423 -1.863651
3.578500 -1.738880 -1.866191
3.815349 -1.849560 -1.872023
4.049456 -1.958324 -1.864357
4.327417 -2.088329 -1.863041
4.654788 -2.241398 -1.868386
5.045016 -2.422754 -1.880319
5.496767 -2.633886 -1.892435
6.012194 -2.874880 -1.902632
6.122122 -2.927016 -1.769234
6.246985 -2.987453 -1.634617
6.282229 -3.006388 -1.475293
6.321240 -3.027105 -1.316478
6.304621 -2.985954 -1.143183
6.264813 -2.970243 -0.972480
9.649057 -4.527979 -1.244560
7.896649 -3.725260 -0.815112
35.652325 -16.516796 -2.756389
46.420784 -21.487612 -2.398035
0.004611 -0.092295 -0.002485
65.920288 -30.530163 -0.019600
0.004611 -0.092295 -0.002485
66.040825 -30.626303 3.373142
66.202263 -30.728266 5.080939
0.004611 -0.092295 -0.002485
0.004611 -0.092295 -0.002485
66.394218 -30.885223 10.265205
0.004611 -0.092295 -0.002485
66.514549 -30.981833 13.796343
2.857077 -1.422773 -1.870154
3.002847 -1.492002 -1.862681
3.168911 -1.570163 -1.860524
3.365579 -1.663408 -1.866328
3.567321 -1.758437 -1.865318
3.806811 -1.872017 -1.872819
4.040010 -1.982848 -1.865111
4.327659 -2.118487 -1.868117
4.637242 -2.265510 -1.866313
5.033241 -2.452305 -1.880938
5.485535 -2.666852 -1.893606
6.036098 -2.927992 -1.915298
6.144207 -2.980056 -1.780361
6.268960 -3.041335 -1.644747
6.326065 -3.069488 -1.489423
6.386560 -3.100632 -1.333509
6.332075 -3.043883 -1.151276
6.300216 -3.030286 -0.980541
9.586589 -4.568019 -1.239875
7.882187 -3.775124 -0.815826
36.039810 -16.946966 -2.793648
46.720234 -21.961910 -2.419981
0.004594 -0.092096 -0.002479
66.256691 -31.148666 -0.019524
0.004594 -0.092096 -0.002479
66.381393 -31.248035 3.399865
66.539680 -31.349930 5.120775
0.004594 -0.092096 -0.002479
0.004594 -0.092096 -0.002479
66.715981 -31.501574 10.342946
0.004594 -0.092096 -0.002479
66.844284 -31.603201 13.902329
2.855828 -1.441401 -1.874222
2.991851 -1.507008 -1.860707
3.162217 -1.588344 -1.861449
3.351901 -1.679623 -1.863618
3.564212 -1.781800 -1.868726
3.796525 -1.893657 -1.872803
4.029393 -2.005116 -1.865093
4.310894 -2.140716 -1.865915
4.629760 -2.294338 -1.868347
5.023017 -2.482616 -1.882200
5.472337 -2.698947 -1.894179
6.063088 -2.983132 -1.929068
6.165928 -3.033458 -1.791491
6.357266 -3.127450 -1.672417
6.377130 -3.139602 -1.505632
6.389882 -3.148370 -1.337932
6.360123 -3.100026 -1.159369
6.326169 -3.086585 -0.987208
9.530973 -4.606710 -1.235890
7.861528 -3.818786 -0.815797
36.729923 -17.527597 -2.854700
46.436966 -22.145517 -2.411502
0.004577 -0.091896 -0.002473
66.555618 -31.756569 -0.019437
0.004577 -0.091896 -0.002473
66.684525 -31.859219 3.424920
0.004577 -0.091896 -0.002473
66.864494 -32.000736 6.892043
0.004577 -0.091896 -0.002473
0.004577 -0.091896 -0.002473
52.324875 -25.115984 9.512373
67.177917 -32.233612 14.010168
2.847800 -1.458077 -1.874209
2.983392 -1.524482 -1.860691
3.156469 -1.608360 -1.863312
3.347272 -1.701561 -1.866297
3.559016 -1.805019 -1.871278
3.792670 -1.918405 -1.876041
4.021317 -2.030338 -1.866618
4.300372 -2.166811 -1.866625
4.616991 -2.320694 -1.868326
5.000230 -2.507981 -1.878975
5.460254 -2.732764 -1.895350
6.053273 -3.021072 -1.931250
6.188426 -3.089116 -1.803126
6.332699 -3.160333 -1.670546
6.378852 -3.185391 -1.510186
6.407568 -3.202011 -1.345322
6.388427 -3.159652 -1.167786
6.353452 -3.144140 -0.994153
9.462893 -4.643060 -1.230510
7.966685 -3.926416 -0.828990
37.734444 -18.270857 -2.940661
46.368484 -22.450367 -2.414626
0.004589 -0.091707 -0.002469
66.894737 -32.390663 -0.019357
0.004589 -0.091707 -0.002469
67.005936 -32.500523 3.451467
0.004589 -0.091707 -0.002469
67.212219 -32.642208 6.947297
53.434925 -25.991898 6.927557
0.004589 -0.091707 -0.002469
52.158787 -25.405819 9.508655
0.004589 -0.091707 -0.002469
2.838334 -1.473454 -1.873173
2.976685 -1.542162 -1.861658
3.141347 -1.623164 -1.859540
3.333151 -1.718207 -1.863588
3.545867 -1.823646 -1.869550
3.778809 -1.938355 -1.874396
4.015065 -2.055640 -1.868913
4.296725 -2.195378 -1.870246
4.612554 -2.351126 -1.871730
4.993043 -2.539805 -1.881516
5.439823 -2.761366 -1.893538
5.988008 -3.031864 -1.915778
6.202344 -3.139799 -1.812227
6.334131 -3.205916 -1.675597
6.401313 -3.241670 -1.519735
6.428355 -3.257693 -1.353454
6.415000 -3.217732 -1.175877
6.382060 -3.202971 -1.001376
0.004572 -0.091508 -0.002463
7.735188 -3.869638 -0.807172
38.265572 -18.798374 -2.990226
0.004572 -0.091508 -0.002463
0.004572 -0.091508 -0.002463
67.239555 -33.034985 -0.019278
67.379356 -33.131882 1.722896
67.356506 -33.149078 3.479496
0.004572 -0.091508 -0.002463
0.004572 -0.091508 -0.002463
52.949993 -26.133617 6.884139
0.004572 -0.091508 -0.002463
0.004572 -0.091508 -0.002463
0.004572 -0.091508 -0.002463
2.836502 -1.492579 -1.877242
2.974544 -1.562127 -1.865564
3.137241 -1.643334 -1.862343
3.322114 -1.736326 -1.862673
3.542322 -1.846995 -1.872958
3.779270 -1.966179 -1.880077
4.003694 -2.078468 -1.868895
0.004555 -0.091309 -0.002458
4.595718 -2.376513 -1.870341
4.975483 -2.566563 -1.880214
5.432928 -2.796636 -1.896497
5.961870 -3.062769 -1.912995
6.226247 -3.195916 -1.824368
6.355629 -3.263165 -1.686188
6.429795 -3.302932 -1.530949
6.458683 -3.320117 -1.363808
6.449991 -3.280600 -1.185593
6.409657 -3.263352 -1.008599
7.788359 -3.947737 -1.018727
7.699050 -3.906744 -0.805652
0.004555 -0.091309 -0.002458
0.004555 -0.091309 -0.002458
0.004555 -0.091309 -0.002458
67.553566 -33.686317 -0.019185
67.617889 -33.732246 1.734146
0.004555 -0.091309 -0.002458
0.004555 -0.091309 -0.002458
67.907516 -33.962749 7.060049
52.735386 -26.405445 6.875961
49.970043 -25.046667 7.834282
51.868507 -26.016870 9.510612
0.004555 -0.091309 -0.002458
2.832741 -1.511450 -1.880288
2.964204 -1.578716 -1.864568
3.129549 -1.662460 -1.863267
3.317101 -1.758164 -1.865351
3.530216 -1.866912 -1.872084
3.761574 -1.985026 -1.876804
3.988560 -2.100270 -1.867335
4.281817 -2.249981 -1.874574
4.588796 -2.406865 -1.873059
4.967488 -2.599189 -1.882755
5.420196 -2.830273 -1.897667
5.949327 -3.100427 -1.914627
6.243972 -3.250878 -1.834987
6.378359 -3.321648 -1.697239
6.457737 -3.364634 -1.542161
6.483268 -3.380344 -1.373052
6.476832 -3.341559 -1.194009
6.442052 -3.326833 -1.016657
0.004538 -0.091109 -0.002452
7.633619 -3.930580 -0.801153
0.004538 -0.091109 -0.002452
0.004538 -0.091109 -0.002452
0.004538 -0.091109 -0.002452
67.876511 -34.349739 -0.019094
67.951050 -34.401466 1.748116
0.004538 -0.091109 -0.002452
0.004538 -0.091109 -0.002452
68.201347 -34.615135 7.111982
52.392479 -26.622902 6.851787
49.810711 -25.336634 7.832778
49.786686 -25.345711 9.156209
49.732178 -25.328369 10.491663
2.823019 -1.526713 -1.879255
2.957144 -1.596296 -1.865533
3.122051 -1.681009 -1.864192
3.307457 -1.776984 -1.865335
3.516743 -1.885312 -1.870357
3.754204 -2.007402 -1.878415
3.980212 -2.124623 -1.868859
4.269346 -2.274342 -1.874556
4.572459 -2.430472 -1.871670
4.946260 -2.624032 -1.880173
5.402673 -2.860298 -1.897049
5.934152 -3.134196 -1.915155
6.265306 -3.306834 -1.846623
6.405258 -3.380060 -1.709214
6.503747 -3.433460 -1.557537
6.550426 -3.460278 -1.391191
6.507250 -3.403595 -1.203073
6.528014 -3.415529 -1.033080
0.004551 -0.090916 -0.002448
7.591907 -3.964218 -0.799076
7.575463 -3.957407 -0.598752
7.691182 -4.019796 -0.406889
0.004551 -0.090916 -0.002448
0.004551 -0.090916 -0.002448
0.004551 -0.090916 -0.002448
0.004551 -0.090916 -0.002448
0.004551 -0.090916 -0.002448
52.606792 -27.089764 5.500910
50.477341 -26.018454 6.620780
0.004551 -0.090916 -0.002448
49.366055 -25.479094 9.104880
0.004551 -0.090916 -0.002448
2.828458 -1.549802 -1.888425
2.949995 -1.613855 -1.866499
3.111265 -1.697895 -1.863236
3.299286 -1.796573 -1.866218
3.507953 -1.906111 -1.871196
3.741494 -2.027893 -1.877584
3.973390 -2.149807 -1.871157
4.261679 -2.301205 -1.876721
4.563927 -2.459096 -1.873704
4.931604 -2.652206 -1.880152
5.395105 -2.895492 -1.900007
5.919969 -3.169820 -1.916234
6.289580 -3.364923 -1.859270
6.425943 -3.437299 -1.719805
6.543394 -3.501336 -1.571664
6.558828 -3.512216 -1.397097
6.533683 -3.464284 -1.211489
6.514073 -3.455513 -1.033891
7.637049 -4.039269 -1.007716
7.581888 -4.013990 -0.800351
7.535399 -3.991502 -0.597324
7.689735 -4.074757 -0.407983
0.004534 -0.090717 -0.002442
68.591873 -35.690632 -0.018931
68.657471 -35.754295 1.777204
0.004534 -0.090717 -0.002442
0.004534 -0.090717 -0.002442
53.699516 -28.041620 5.632128
49.872883 -26.071199 6.561118
46.952023 -24.559345 7.426493
46.006519 -24.086418 8.510503
0.004534 -0.090717 -0.002442
0.536221 -0.369129 -0.358607
2.931921 -1.625715 -1.860605
3.106672 -1.718000 -1.866040
3.290998 -1.816124 -1.867100
3.502246 -1.928548 -1.873747
3.728312 -2.048949 -1.876752
3.964739 -2.174114 -1.872681
4.250535 -2.326316 -1.877430
4.561459 -2.492005 -1.878475
4.915102 -2.679408 -1.879490
5.385637 -2.929811 -1.902369
5.891410 -3.199225 -1.912900
6.311710 -3.422501 -1.871411
6.479953 -3.514194 -1.739624
6.543821 -3.550796 -1.576632
6.578393 -3.571945 -1.405598
6.564863 -3.528133 -1.220878
6.532617 -3.514060 -1.039999
7.603661 -4.077351 -1.006293
7.578569 -4.067473 -0.802369
7.528038 -4.044199 -0.598554
7.668456 -4.119611 -0.408047
0.004517 -0.090517 -0.002436
68.969078 -36.406422 -0.018847
69.056274 -36.466923 1.793157
0.004517 -0.090517 -0.002436
69.161430 -36.582375 5.448919
52.631378 -27.882868 5.537399
50.297024 -26.660709 6.637105
0.004517 -0.090517 -0.002436
0.004517 -0.090517 -0.002436
50.295177 -26.714064 10.706311
0.520898 -0.364817 -0.349416
2.925829 -1.644469 -1.862549
3.096961 -1.736151 -1.866024
3.283887 -1.837050 -1.868880
3.488444 -1.946740 -1.872020
3.720226 -2.071854 -1.878364
3.957206 -2.199950 -1.874977
4.240890 -2.352253 -1.878867
4.542592 -2.515314 -1.876402
4.900140 -2.707407 -1.879470
5.367539 -2.959606 -1.901751
5.873450 -3.232828 -1.912876
6.331672 -3.479525 -1.883045
6.467031 -3.554853 -1.741445
6.579595 -3.616593 -1.589927
6.614287 -3.638088 -1.417435
6.593174 -3.592678 -1.229942
6.540792 -3.566218 -1.044433
7.530808 -4.095971 -0.999757
0.004500 -0.090318 -0.002431
0.004500 -0.090318 -0.002431
0.004500 -0.090318 -0.002431
0.004500 -0.090318 -0.002431
69.350159 -37.117706 -0.018765
69.405640 -37.177639 1.808152
0.004500 -0.090318 -0.002431
52.366634 -28.106155 4.137853
51.840046 -27.835426 5.470461
0.004500 -0.090318 -0.002431
0.004500 -0.090318 -0.002431
48.294621 -25.990208 8.988777
50.278061 -27.075981 10.735696
0.537503 -0.377279 -0.361655
2.924806 -1.664679 -1.867436
3.090855 -1.754852 -1.867889
3.274073 -1.855107 -1.868864
3.476120 -1.965684 -1.871148
3.710381 -2.093860 -1.879161
3.935622 -2.216488 -1.870331
4.227814 -2.376378 -1.878849
4.538473 -2.546541 -1.880489
4.898340 -2.742538 -1.884574
5.359355 -2.994754 -1.904710
5.848501 -3.262650 -1.910645
6.344382 -3.533196 -1.892651
6.491446 -3.615915 -1.753418
6.613570 -3.685197 -1.603219
6.648377 -3.707056 -1.429271
6.630882 -3.660050 -1.240631
6.600868 -3.646778 -1.057229
7.361494 -4.058457 -0.980210
0.004482 -0.090122 -0.002425
0.004482 -0.090122 -0.002425
0.004482 -0.090122 -0.002425
0.004482 -0.090122 -0.002425
69.704216 -37.823128 -0.018674
69.792053 -37.885597 1.823922
0.004482 -0.090122 -0.002425
52.239742 -28.425558 4.140805
51.030724 -27.792152 5.402413
48.919800 -26.656593 6.495510
0.004482 -0.090122 -0.002425
48.516518 -26.480257 9.059212
46.798733 -25.555786 10.023795
0.532764 -0.378586 -0.359607
2.915404 -1.681750 -1.867421
3.074730 -1.769521 -1.864116
3.263571 -1.874255 -1.868849
3.461756 -1.984283 -1.869418
3.698782 -2.114937 -1.879143
3.932658 -2.244868 -1.874941
4.217460 -2.402954 -1.880286
4.529208 -2.575083 -1.882522
4.872552 -2.765810 -1.880708
5.340364 -3.025308 -1.904091
5.838585 -3.300638 -1.913380
6.383183 -3.603167 -1.910367
6.506864 -3.672681 -1.763085
6.644182 -3.751279 -1.615680
6.668761 -3.767789 -1.438141
6.658100 -3.725543 -1.249694
6.634192 -3.713899 -1.065845
7.350031 -4.108442 -0.981807
7.363145 -4.118861 -0.786828
40.766495 -22.416254 -3.261791
73.173012 -40.198414 -3.910521
70.591774 -38.814663 -1.887968
70.094521 -38.556934 -0.018591
70.187325 -38.638901 1.840441
0.004495 -0.089930 -0.002421
51.605667 -28.466583 4.103554
50.268677 -27.753586 5.338624
48.893768 -27.018518 6.513299
45.515457 -25.167513 7.289798
44.380383 -24.561708 8.312910
0.004495 -0.089930 -0.002421
0.534112 -0.383091 -0.361642
2.904678 -1.697421 -1.866426
3.066541 -1.787803 -1.865039
3.257939 -1.895370 -1.871526
3.455550 -2.006571 -1.871971
3.695040 -2.140385 -1.883195
3.915385 -2.264537 -1.872611
4.207344 -2.428756 -1.881723
4.524703 -2.606351 -1.886610
4.868676 -2.800014 -1.885172
5.326716 -3.057597 -1.905260
5.826750 -3.337682 -1.915563
6.410159 -3.665991 -1.924533
6.535408 -3.737327 -1.776442
6.744234 -3.856961 -1.645204
0.004478 -0.089730 -0.002415
8.876130 -5.003756 -1.670721
6.663482 -3.779598 -1.073903
7.321613 -4.147528 -0.981083
0.004478 -0.089730 -0.002415
35.118542 -19.585835 -2.818976
73.583847 -40.975323 -3.944717
70.955093 -39.546165 -1.903472
70.497879 -39.307159 -0.018508
70.549751 -39.367409 1.856085
52.622238 -29.409286 2.794567
51.218616 -28.638243 4.085914
49.656624 -27.789660 5.290586
48.268085 -27.036509 6.450611
0.004478 -0.089730 -0.002415
47.486271 -26.631447 8.923511
46.023064 -25.834038 9.921638
0.530918 -0.385096 -0.360615
2.890820 -1.711313 -1.863472
3.061349 -1.807783 -1.867843
3.247496 -1.913850 -1.871511
3.455482 -2.032388 -1.877946
3.676461 -2.158431 -1.879923
3.904401 -2.287697 -1.873363
4.198686 -2.455432 -1.883888
0.004461 -0.089531 -0.002410
4.862903 -2.833332 -1.888995
5.312893 -3.089834 -1.906431
5.812428 -3.374761 -1.917195
6.450108 -3.736867 -1.942756
6.603449 -3.826588 -1.800876
6.701392 -3.885056 -1.640183
6.789472 -3.938025 -1.473674
6.825778 -3.919282 -1.289246
0.004461 -0.089531 -0.002410
7.320656 -4.201987 -0.984075
0.004461 -0.089531 -0.002410
36.900883 -20.862131 -2.971635
73.984673 -41.756313 -3.978723
0.004461 -0.089531 -0.002410
0.004461 -0.089531 -0.002410
0.004461 -0.089531 -0.002410
52.513695 -29.745504 2.797984
51.142357 -28.993933 4.093599
51.412128 -29.169462 5.496168
48.018978 -27.260504 6.438245
0.004461 -0.089531 -0.002410
45.551105 -25.904816 8.588478
0.004461 -0.089531 -0.002410
0.529126 -0.388009 -0.360607
2.879639 -1.727326 -1.862477
3.051104 -1.825667 -1.867827
3.235084 -1.931952 -1.870598
3.436069 -2.048126 -1.873650
3.670843 -2.182937 -1.883161
3.896103 -2.313310 -1.875659
4.181355 -2.478195 -1.882413
4.504787 -2.664154 -1.890676
4.848200 -2.862809 -1.889615
5.291709 -3.119137 -1.905216
5.801775 -3.412686 -1.919929
6.477058 -3.802715 -1.957429
6.743857 -3.957259 -1.845152
6.698101 -3.934013 -1.644735
6.763834 -3.974819 -1.472907
6.790950 -3.952594 -1.286946
6.669827 -3.885101 -1.081932
8.770041 -5.085055 -1.182465
0.004443 -0.089335 -0.002404
36.773914 -21.069767 -2.970953
74.406219 -42.576038 -4.014591
0.004443 -0.089335 -0.002404
0.004443 -0.089335 -0.002404
0.004443 -0.089335 -0.002404
52.872791 -30.362600 2.826829
53.480419 -30.722265 4.295081
47.928772 -27.563713 5.140554
47.967434 -27.607521 6.453249
45.930481 -26.448921 7.429228
46.913044 -27.034052 8.874597
43.938671 -25.345385 9.535371
0.518465 -0.385669 -0.354477
2.876220 -1.747124 -1.866383
3.041086 -1.842965 -1.867813
3.224420 -1.950300 -1.870582
3.426304 -2.068533 -1.874490
3.657163 -2.202873 -1.882330
3.886457 -2.337308 -1.877184
4.167542 -2.501975 -1.882395
4.493156 -2.691677 -1.892026
4.832168 -2.890419 -1.889594
5.275853 -3.150249 -1.905791
5.790874 -3.450593 -1.922663
6.458937 -3.841616 -1.958417
6.718161 -3.993796 -1.844204
6.718150 -3.996844 -1.655113
6.734586 -4.009465 -1.471397
6.753238 -3.982478 -1.283998
6.637590 -3.917224 -1.080233
6.977977 -4.116824 -0.944287
0.004456 -0.089142 -0.002400
36.663044 -21.286619 -2.971671
74.850639 -43.402161 -4.051676
0.004456 -0.089142 -0.002400
71.641747 -41.593502 -0.018226
71.755684 -41.692085 1.907371
0.004456 -0.089142 -0.002400
53.562225 -31.179249 4.316125
0.004456 -0.089142 -0.002400
50.616261 -29.515116 6.832599
46.134235 -26.919437 7.487197
46.561153 -27.188902 8.837506
43.306988 -25.314394 9.429715
0.521197 -0.391028 -0.357532
2.874147 -1.767814 -1.871268
3.029422 -1.859306 -1.866859
3.219819 -1.972197 -1.874156
3.411754 -2.086155 -1.872762
3.649675 -2.226416 -1.884755
3.868676 -2.356592 -1.874852
4.156817 -2.527563 -1.883832
4.481349 -2.719148 -1.893375
4.819259 -2.919858 -1.890855
5.253214 -3.177404 -1.903980
5.788004 -3.493364 -1.928156
6.417247 -3.866684 -1.952309
6.688866 -4.028178 -1.842330
6.707347 -4.042136 -1.657999
6.820236 -4.111830 -1.495093
6.734137 -4.023011 -1.284620
6.694123 -4.001095 -1.093029
6.964992 -4.162676 -0.945654
0.004439 -0.088943 -0.002394
34.251144 -20.155375 -2.785497
75.241470 -44.207497 -4.086232
0.004439 -0.088943 -0.002394
72.053879 -42.387218 -0.018136
72.141113 -42.471390 1.924317
0.004439 -0.088943 -0.002394
0.004439 -0.088943 -0.002394
0.004439 -0.088943 -0.002394
47.122330 -27.847221 6.382362
45.958721 -27.171930 7.484013
0.004439 -0.088943 -0.002394
43.459110 -25.738564 9.494967
0.516492 -0.392048 -0.355484
2.856940 -1.779642 -1.866354
3.019183 -1.876475 -1.866844
3.205856 -1.988635 -1.872345
3.404864 -2.108283 -1.875314
3.637340 -2.247149 -1.884739
3.858746 -2.380462 -1.876377
4.141128 -2.550252 -1.883086
4.464546 -2.743691 -1.892671
4.807772 -2.950208 -1.892756
5.248484 -3.215158 -1.908727
5.761725 -3.522424 -1.925925
6.402077 -3.907266 -1.954311
6.661089 -4.063358 -1.840919
6.835660 -4.170730 -1.695430
7.004454 -4.274825 -1.540658
6.848945 -4.142908 -1.310887
6.872557 -4.158427 -1.125890
6.989295 -4.230803 -0.952132
0.004422 -0.088743 -0.002388
34.015114 -20.280451 -2.775591
44.199856 -26.347315 -2.409314
0.004422 -0.088743 -0.002388
72.436913 -43.173756 -0.018038
72.581749 -43.293304 1.942926
0.004422 -0.088743 -0.002388
0.004422 -0.088743 -0.002388
0.004422 -0.088743 -0.002388
48.877491 -29.260836 6.642978
46.188248 -27.665972 7.547265
0.004422 -0.088743 -0.002388
0.004422 -0.088743 -0.002388
0.516182 -0.395665 -0.356497
2.847177 -1.795821 -1.866340
3.010366 -1.894488 -1.867768
3.191823 -2.004971 -1.870535
3.393195 -2.127603 -1.875297
3.630722 -2.272197 -1.887976
3.847075 -2.403335 -1.877131
4.130086 -2.575717 -1.884523
4.455182 -2.773755 -1.895389
4.791231 -2.977576 -1.892735
5.225518 -3.242098 -1.906916
5.756088 -3.565220 -1.930866
6.389924 -3.949786 -1.957326
6.630776 -4.098493 -1.839047
0.004406 -0.088540 -0.002383
7.228302 -4.466784 -1.595488
7.011650 -4.293694 -1.346566
7.050376 -4.320185 -1.159029
6.985801 -4.282968 -0.954893
0.004406 -0.088540 -0.002383
33.800888 -20.424789 -2.767781
44.207352 -26.696590 -2.417866
0.004406 -0.088540 -0.002383
0.004406 -0.088540 -0.002383
73.025574 -44.127846 1.961817
0.004406 -0.088540 -0.002383
0.004406 -0.088540 -0.002383
45.351780 -27.500753 4.931476
48.285686 -29.285164 6.585387
45.129360 -27.397406 7.400646
0.004406 -0.088540 -0.002383
42.806568 -26.021191 9.417195
0.502596 -0.391344 -0.348326
2.842968 -1.816061 -1.870245
3.001124 -1.912987 -1.868693
3.181930 -2.024554 -1.871416
3.388770 -2.152155 -1.879561
3.613419 -2.289960 -1.885517
3.834888 -2.426830 -1.877885
4.118452 -2.601861 -1.885960
4.438043 -2.798120 -1.894685
4.786972 -3.013597 -1.897839
5.209998 -3.274769 -1.908086
5.726180 -3.592016 -1.927533
6.366954 -3.987360 -1.957300
6.725410 -4.208546 -1.871785
7.059320 -4.416539 -1.763212
7.362108 -4.605740 -1.630672
7.258079 -4.500041 -1.398799
7.237417 -4.489104 -1.193840
7.128772 -4.426329 -0.977862
0.004417 -0.088351 -0.002378
33.536915 -20.529263 -2.755639
0.004417 -0.088351 -0.002378
0.004417 -0.088351 -0.002378
0.004417 -0.088351 -0.002378
73.435585 -44.970284 1.980209
0.004417 -0.088351 -0.002378
49.219532 -30.203312 4.021823
0.004417 -0.088351 -0.002378
0.004417 -0.088351 -0.002378
0.004417 -0.088351 -0.002378
45.022339 -27.708332 8.665168
0.004417 -0.088351 -0.002378
0.511099 -0.400326 -0.355463
2.834471 -1.833074 -1.871211
2.989051 -1.929062 -1.867737
3.172267 -2.043537 -1.872299
3.374138 -2.168897 -1.877834
3.606925 -2.314325 -1.888756
3.821372 -2.448620 -1.877867
4.101204 -2.622604 -1.884486
4.425601 -2.825352 -1.896035
4.777035 -3.044014 -1.900382
5.190542 -3.302544 -1.907469
5.714102 -3.629729 -1.930268
6.346741 -4.023590 -1.957781
6.888417 -4.362930 -1.923903
7.159711 -4.533028 -1.794397
7.542091 -4.774118 -1.676233
7.419095 -4.656385 -1.434800
7.446343 -4.674861 -1.232551
7.348867 -4.618231 -1.011519
0.004401 -0.088152 -0.002373
33.296585 -20.646044 -2.745456
45.311131 -28.086264 -2.495569
0.004401 -0.088152 -0.002373
0.004401 -0.088152 -0.002373
0.004401 -0.088152 -0.002373
0.004401 -0.088152 -0.002373
0.004401 -0.088152 -0.002373
48.272682 -30.017532 5.286129
0.004401 -0.088152 -0.002373
44.928421 -27.986145 7.420126
44.207111 -27.548323 8.537699
44.373314 -27.672443 9.831462
0.509342 -0.402950 -0.355456
2.818774 -1.844935 -1.867277
2.978763 -1.945484 -1.867724
3.168875 -2.065705 -1.876772
3.359052 -2.186126 -1.876106
3.594053 -2.334802 -1.888739
3.809706 -2.470645 -1.878621
4.091288 -2.648887 -1.886651
4.411365 -2.851530 -1.896699
4.759939 -3.071205 -1.900360
5.173584 -3.333127 -1.908044
5.688730 -3.659228 -1.928588
6.335487 -4.067006 -1.961305
7.025146 -4.503776 -1.969098
7.283879 -4.669963 -1.832238
7.642238 -4.899148 -1.704743
7.614515 -4.835327 -1.477617
7.658383 -4.866302 -1.272095
7.574543 -4.815696 -1.046104
0.004384 -0.087952 -0.002367
33.120354 -20.800951 -2.740590
0.004384 -0.087952 -0.002367
0.004384 -0.087952 -0.002367
34.500874 -21.704987 -0.009479
0.004384 -0.087952 -0.002367
0.004384 -0.087952 -0.002367
49.189335 -30.967312 4.048450
45.804657 -28.864033 5.034471
47.605003 -30.006140 6.562436
42.874474 -27.053200 7.106411
0.004384 -0.087952 -0.002367
43.470509 -27.458710 9.666236
0.517633 -0.412173 -0.362593
2.815665 -1.866043 -1.872162
2.975154 -1.967595 -1.872405
3.149552 -2.079443 -1.872268
3.351127 -2.208668 -1.878657
3.587255 -2.359125 -1.891978
3.798617 -2.494924 -1.880144
4.077608 -2.673853 -1.887359
4.401744 -2.880655 -1.899417
0.004367 -0.087753 -0.002361
5.160697 -3.367596 -1.910405
5.672975 -3.694755 -1.930220
6.326468 -4.113594 -1.965839
7.001277 -4.544921 -1.969532
7.407530 -4.807245 -1.870081
7.834815 -5.083375 -1.754008
0.004367 -0.087753 -0.002361
0.004367 -0.087753 -0.002361
7.816665 -5.031282 -1.083475
0.004367 -0.087753 -0.002361
32.808575 -20.869089 -2.724534
0.004367 -0.087753 -0.002361
0.004367 -0.087753 -0.002361
0.004367 -0.087753 -0.002361
0.004367 -0.087753 -0.002361
34.477589 -22.000103 1.895514
48.883022 -31.168015 4.038036
45.290668 -28.905371 4.996237
0.004367 -0.087753 -0.002361
0.004367 -0.087753 -0.002361
0.004367 -0.087753 -0.002361
45.935532 -29.392153 10.253153
0.512862 -0.413069 -0.360545
2.806884 -1.882928 -1.873128
2.958334 -1.980638 -1.868633
3.145574 -2.102122 -1.876741
3.343434 -2.230608 -1.881209
3.573733 -2.380115 -1.891961
3.787843 -2.518508 -1.881671
4.065812 -2.699055 -1.888797
4.386703 -2.907480 -1.900082
4.729559 -3.129203 -1.902241
5.143366 -3.398027 -1.910980
5.656352 -3.731202 -1.931851
6.312970 -4.155971 -1.968854
6.987821 -4.594539 -1.973195
7.589783 -4.986673 -1.923319
7.951990 -5.224432 -1.786964
0.004378 -0.087564 -0.002357
0.004378 -0.087564 -0.002357
17.266048 -11.150052 -2.399843
0.004378 -0.087564 -0.002357
0.004378 -0.087564 -0.002357
44.755928 -28.820831 -2.491472
48.809948 -31.447178 -1.359057
0.004378 -0.087564 -0.002357
47.386967 -30.566677 1.296136
48.178051 -31.098688 2.659708
46.232483 -29.868471 3.833614
0.004378 -0.087564 -0.002357
47.329262 -30.608847 6.573427
43.031002 -27.857462 7.185934
0.004378 -0.087564 -0.002357
0.004378 -0.087564 -0.002357
0.510907 -0.415879 -0.360538
2.797627 -1.900245 -1.874092
2.947069 -1.997909 -1.868618
3.135074 -2.121477 -1.877623
3.327641 -2.248184 -1.879480
3.558947 -2.399407 -1.891130
3.770263 -2.538667 -1.880110
4.045587 -2.719825 -1.886595
4.364106 -2.928330 -1.897325
4.725752 -3.166262 -1.907985
5.133228 -3.434473 -1.914533
5.633703 -3.762395 -1.931276
6.283886 -4.189900 -1.967307
6.968308 -4.638679 -1.975013
7.851259 -5.219533 -1.996947
8.157459 -5.423757 -1.839932
0.004362 -0.087364 -0.002352
0.004362 -0.087364 -0.002352
