# This PCD file was generated using the MATLAB® pcwrite function
# from Computer Vision Toolbox®.
# .PCD v.7 - Point Cloud Data file format
VERSION .7
FIELDS x y z
SIZE 4 4 4
TYPE F F F
COUNT 1 1 1
WIDTH 1676
HEIGHT 1
VIEWPOINT 0 0 0 1 0 0 0
POINTS 1676
DATA ascii
0.495781 0.350570 -0.329516
0.520612 0.374905 -0.325724
2.925617 2.746221 -1.720893
2.943835 2.762115 -1.618735
2.990370 2.806872 -1.532895
3.026717 2.840533 -1.440427
3.048211 2.859515 -1.339756
3.057714 2.867763 -1.235407
3.068708 2.876405 -1.132215
3.066446 2.873054 -1.024587
3.072438 2.876785 -0.921437
3.062667 2.865018 -0.814797
3.131517 2.958270 -0.730475
8.211309 7.979379 -1.637790
9.711495 9.455657 -1.611497
9.533423 9.272963 -1.267182
9.520796 9.257042 -0.952872
0.007179 -0.131785 -0.003618
0.007179 -0.131785 -0.003618
11.975399 11.658109 -0.021871
11.979557 11.653736 0.368161
11.982883 11.648511 0.761472
0.007179 -0.131785 -0.003618
11.989388 11.642117 1.545210
16.740353 16.298651 2.712974
57.935616 56.727604 11.314209
58.013603 56.763226 13.254774
0.007179 -0.131785 -0.003618
0.421286 0.273576 -0.348046
0.430809 0.282601 -0.337348
0.480492 0.330999 -0.356437
0.505601 0.355188 -0.354353
0.506288 0.355519 -0.334657
0.554895 0.402741 -0.345291
2.926260 2.714128 -1.711616
2.964439 2.749262 -1.620923
3.005860 2.788547 -1.532207
3.039700 2.819341 -1.438500
3.059859 2.836851 -1.337362
3.070780 2.846339 -1.233746
3.079017 2.852200 -1.129671
3.076674 2.848828 -1.022269
3.082668 2.852491 -0.919347
3.079836 2.847589 -0.814795
3.144974 2.936307 -0.729494
8.273396 7.947476 -1.640881
9.782081 9.415148 -1.614079
9.567388 9.198748 -1.264558
9.556067 9.184258 -0.951038
9.502496 9.125334 -0.636472
12.108880 11.657815 -0.414246
12.015773 11.562774 -0.021840
12.022756 11.561184 0.367399
0.007167 -0.131589 -0.003613
0.007167 -0.131589 -0.003613
12.036900 11.553790 1.542628
0.007167 -0.131589 -0.003613
0.007167 -0.131589 -0.003613
0.007167 -0.131589 -0.003613
0.007167 -0.131589 -0.003613
0.421124 0.268990 -0.345997
0.433192 0.280345 -0.337344
0.478072 0.323554 -0.352669
0.507096 0.351268 -0.353449
0.512992 0.356589 -0.337226
2.829415 2.590392 -1.754403
2.942559 2.697482 -1.711614
2.975584 2.727227 -1.618003
3.014489 2.763620 -1.528090
3.052512 2.798102 -1.436571
3.072752 2.815463 -1.335568
3.082287 2.823537 -1.231530
3.084952 2.823957 -1.125600
3.088137 2.825931 -1.020414
3.092703 2.828176 -0.917255
3.082731 2.816463 -0.811069
3.162557 2.918404 -0.729492
8.328261 7.908250 -1.642570
9.849669 9.371385 -1.616193
9.596498 9.120310 -1.261369
9.590809 9.111381 -0.949203
9.643316 9.155331 -0.642295
12.107343 11.521650 -0.411923
12.059762 11.471524 -0.021816
12.065296 11.468527 0.366636
12.072887 11.467484 0.758632
0.007184 -0.131404 -0.003609
12.075126 11.457044 1.538947
0.007184 -0.131404 -0.003609
0.007184 -0.131404 -0.003609
0.007184 -0.131404 -0.003609
0.007184 -0.131404 -0.003609
0.419672 0.263233 -0.342925
0.433005 0.275680 -0.335375
0.484495 0.324689 -0.355487
0.516309 0.354744 -0.357941
0.522320 0.360100 -0.341510
2.832266 2.561207 -1.746246
2.949429 2.671834 -1.706203
2.983862 2.702597 -1.613623
3.027507 2.742050 -1.526031
3.063810 2.775511 -1.434000
3.078566 2.787456 -1.330783
3.089991 2.796189 -1.227656
3.103289 2.807732 -1.126107
3.102778 2.805135 -1.019486
3.101667 2.801960 -0.914746
3.100111 2.798388 -0.811067
6.454212 6.028785 -1.478553
8.377168 7.860363 -1.642855
9.912762 9.323047 -1.617604
9.625063 9.041836 -1.258181
9.629515 9.039482 -0.947652
9.718219 9.120635 -0.643730
12.117662 11.398305 -0.410037
12.105102 11.378052 -0.021791
12.114407 11.382654 0.366096
12.111854 11.371964 0.756894
0.007172 -0.131208 -0.003604
12.126225 11.369089 1.536733
58.612259 55.461086 9.353515
58.572369 55.383316 11.247719
0.007172 -0.131208 -0.003604
0.007172 -0.131208 -0.003604
0.434503 0.272778 -0.353142
0.436665 0.274538 -0.336352
0.482033 0.317203 -0.351718
0.533466 0.365395 -0.367829
0.535709 0.367154 -0.348365
2.850340 2.547610 -1.747874
2.964642 2.653272 -1.705428
3.001966 2.686368 -1.614352
3.041231 2.722249 -1.524656
3.075463 2.752343 -1.431430
3.090241 2.764166 -1.328390
3.101170 2.773337 -1.225441
3.110785 2.780257 -1.122546
3.109690 2.778154 -1.016243
3.114205 2.780288 -0.913491
3.102576 2.767307 -0.807341
6.487730 5.987955 -1.477903
8.437369 7.825881 -1.645664
9.975838 9.271186 -1.618783
9.796608 9.095494 -1.273412
9.663195 8.966407 -0.945815
0.007159 -0.131016 -0.003598
10.723680 9.951030 -0.361251
12.150657 11.289309 -0.021768
12.156167 11.286271 0.365291
0.007159 -0.131016 -0.003598
12.171543 11.288302 1.144818
12.171796 11.280341 1.534155
58.801414 54.982700 9.331357
0.007159 -0.131016 -0.003598
0.007159 -0.131016 -0.003598
0.007159 -0.131016 -0.003598
0.436819 0.270505 -0.353137
0.444070 0.277011 -0.340273
0.480716 0.311047 -0.348890
0.537606 0.363774 -0.368723
0.541197 0.366760 -0.350075
2.873725 2.538864 -1.752766
2.967089 2.623839 -1.697697
3.009914 2.661683 -1.609972
3.049340 2.697264 -1.520538
3.090578 2.733556 -1.430784
3.104044 2.743979 -1.327193
3.113566 2.751768 -1.223777
3.116094 2.752035 -1.118474
3.120655 2.755162 -1.014388
3.125147 2.757248 -0.911817
3.113395 2.744314 -0.805848
0.007147 -0.130819 -0.003593
8.497460 7.790969 -1.648473
10.039907 9.223373 -1.620427
9.709641 8.908934 -1.255373
9.696378 8.893240 -0.943979
0.007147 -0.130819 -0.003593
0.007147 -0.130819 -0.003593
12.195607 11.200422 -0.021745
12.199618 11.196010 0.364620
0.007147 -0.130819 -0.003593
12.217995 11.200719 1.143025
12.216760 11.191443 1.531577
0.007147 -0.130819 -0.003593
0.007147 -0.130819 -0.003593
0.007147 -0.130819 -0.003593
0.007147 -0.130819 -0.003593
0.428981 0.258897 -0.344955
0.442580 0.271136 -0.337324
0.484547 0.309704 -0.349827
0.543074 0.363323 -0.370518
2.718353 2.366318 -1.753162
2.885450 2.518312 -1.750316
3.004600 2.626941 -1.710060
3.019063 2.638254 -1.606322
3.063249 2.676838 -1.519163
3.102803 2.712123 -1.428855
3.113485 2.719860 -1.324201
3.124933 2.728300 -1.221563
3.134061 2.735599 -1.118981
3.130494 2.730288 -1.012068
3.134989 2.732310 -0.909725
3.124569 2.720743 -0.804357
6.573608 5.928113 -1.481496
8.551535 7.747420 -1.649880
9.732763 8.833223 -1.562603
0.007135 -0.130623 -0.003587
9.736441 8.823711 -0.942708
0.007135 -0.130623 -0.003587
0.007135 -0.130623 -0.003587
12.243381 11.110614 -0.021725
12.240977 11.104267 0.363906
12.250047 11.104511 0.753141
12.271660 11.116241 1.141782
12.264524 11.101619 1.529182
0.007135 -0.130623 -0.003587
0.007135 -0.130623 -0.003587
0.007135 -0.130623 -0.003587
0.007135 -0.130623 -0.003587
0.427487 0.253100 -0.341885
0.447513 0.271090 -0.339283
0.487144 0.307057 -0.349822
0.542015 0.356723 -0.367815
2.728633 2.347228 -1.750585
2.904684 2.505586 -1.752760
3.063192 2.647782 -1.734017
3.083180 2.664903 -1.631853
3.080738 2.660666 -1.519847
3.114890 2.690639 -1.426926
3.125573 2.698291 -1.322405
3.132762 2.702771 -1.218239
3.134715 2.703472 -1.113384
3.141129 2.707244 -1.010213
3.143628 2.708457 -0.907632
3.133139 2.696915 -0.802492
6.616667 5.895937 -1.483129
8.611317 7.711683 -1.652687
9.760732 8.752892 -1.558627
9.919058 8.890574 -1.268727
9.767117 8.749007 -0.940729
0.007122 -0.130431 -0.003582
12.277970 11.021204 -0.406664
12.282632 11.017404 -0.021693
12.293999 11.019689 0.363500
12.290765 11.012645 0.751679
0.007122 -0.130431 -0.003582
12.306275 11.014582 1.526607
0.007122 -0.130431 -0.003582
0.007122 -0.130431 -0.003582
0.007122 -0.130431 -0.003582
0.007122 -0.130431 -0.003582
0.439797 0.260162 -0.350055
0.445861 0.265320 -0.336333
0.488264 0.303385 -0.348877
0.547368 0.356318 -0.369608
2.742828 2.331723 -1.750582
2.912992 2.482962 -1.748680
3.084135 2.635814 -1.737106
3.151831 2.694644 -1.659571
3.141479 2.683286 -1.541799
3.133891 2.675434 -1.428208
3.137523 2.676675 -1.320609
3.144718 2.681084 -1.216577
3.153842 2.688207 -1.114399
3.151600 2.684171 -1.008358
3.151632 2.682190 -0.905121
3.151296 2.679844 -0.802862
6.648701 5.857854 -1.482803
8.662164 7.667562 -1.653812
9.804221 8.693238 -1.557694
0.007110 -0.130234 -0.003577
9.797243 8.674250 -0.938748
10.201579 9.034519 -0.657865
12.327013 10.937288 -0.406183
12.337605 10.938806 -0.021686
12.332154 10.929835 0.362788
12.333801 10.923349 0.750400
0.007110 -0.130234 -0.003577
12.348348 10.920460 1.523663
63.653374 56.839352 9.890830
0.007110 -0.130234 -0.003577
0.007110 -0.130234 -0.003577
0.007110 -0.130234 -0.003577
0.433135 0.249771 -0.342897
0.449462 0.264072 -0.337308
0.493446 0.303065 -0.350753
0.552912 0.355671 -0.371403
0.007098 -0.130038 -0.003571
2.933423 2.471247 -1.751938
3.105960 2.622623 -1.740194
3.217261 2.719414 -1.685102
3.159005 2.666647 -1.542483
3.204299 2.704801 -1.452613
3.202662 2.701301 -1.340933
3.206863 2.703962 -1.234282
3.200876 2.696629 -1.125076
3.170643 2.668808 -1.009282
3.191202 2.684976 -0.911806
3.208626 2.698333 -0.813288
6.691432 5.825146 -1.484436
8.715727 7.625750 -1.655497
9.834046 8.615418 -1.554185
9.907553 8.674480 -1.254259
9.828294 8.600774 -0.936907
10.457317 9.153260 -0.670741
12.371427 10.845712 -0.405508
12.380098 10.849329 -0.021660
12.376494 10.838246 0.362164
12.378139 10.831765 0.749120
12.398081 10.845391 1.135723
12.396762 10.836313 1.521822
63.919796 56.399647 9.879963
0.007098 -0.130038 -0.003571
0.007098 -0.130038 -0.003571
0.007098 -0.130038 -0.003571
0.435295 0.247506 -0.342892
0.451723 0.261710 -0.337304
0.494572 0.299296 -0.349806
0.552991 0.350362 -0.369599
2.775447 2.303562 -1.753148
2.952472 2.458171 -1.754383
3.120359 2.603725 -1.739418
3.302192 2.761270 -1.720846
3.170790 2.644949 -1.540421
3.286065 2.743980 -1.482156
3.274890 2.732101 -1.364246
3.276588 2.732549 -1.254753
3.278220 2.731894 -1.146435
3.202774 2.664853 -1.014374
0.007086 -0.129846 -0.003566
3.181905 2.642584 -0.802484
6.712224 5.775063 -1.481498
8.769103 7.583580 -1.657181
9.869260 8.545833 -1.551846
9.869779 8.540030 -1.243172
9.870836 8.537758 -0.936201
10.545051 9.123523 -0.672937
12.414810 10.757475 -0.404881
12.417459 10.755771 -0.021626
12.418298 10.748681 0.361541
12.427420 10.748800 0.748298
0.007086 -0.129846 -0.003566
12.440100 10.748045 1.519433
64.082214 55.890217 9.855069
0.007086 -0.129846 -0.003566
0.007086 -0.129846 -0.003566
0.007086 -0.129846 -0.003566
0.443912 0.250884 -0.347996
0.455267 0.260485 -0.338280
0.497048 0.296669 -0.349803
0.543614 0.336854 -0.361500
2.790779 2.288966 -1.754004
2.965910 2.440185 -1.753563
3.138805 2.588382 -1.740961
3.348302 2.768080 -1.736163
3.190948 2.630590 -1.542476
0.007074 -0.129650 -0.003560
4.089250 3.404242 -1.694848
0.007074 -0.129650 -0.003560
0.007074 -0.129650 -0.003560
3.177577 2.610992 -1.001400
3.189300 2.619145 -0.902186
0.007074 -0.129650 -0.003560
6.752014 5.741778 -1.482802
8.825240 7.543655 -1.659425
10.235249 8.764161 -1.601249
9.913465 8.478131 -1.242422
9.916009 8.477155 -0.935778
11.044644 9.450576 -0.701163
12.454520 10.666494 -0.404154
12.463191 10.670017 -0.021604
12.465542 10.664234 0.361095
12.468613 10.659090 0.747021
0.007074 -0.129650 -0.003560
12.478347 10.655726 1.516491
64.326576 55.454849 9.843297
0.007074 -0.129650 -0.003560
0.007074 -0.129650 -0.003560
0.007074 -0.129650 -0.003560
0.442193 0.245193 -0.344925
0.457489 0.258097 -0.338275
0.496789 0.291743 -0.347915
0.551704 0.338613 -0.365093
2.804631 2.273113 -1.753999
2.981070 2.422801 -1.753559
3.074584 2.502054 -1.696904
3.355009 2.740526 -1.731053
3.215804 2.619198 -1.546590
3.216731 2.618992 -1.436545
4.115293 3.385866 -1.697236
4.475449 3.691268 -1.696345
4.865055 4.022850 -1.684043
3.192267 2.591092 -1.000933
3.199575 2.595357 -0.900511
3.194606 2.589139 -0.797635
0.007063 -0.129450 -0.003555
8.884067 7.503082 -1.661951
0.007063 -0.129450 -0.003555
10.157653 8.588572 -1.266670
9.956202 8.409401 -0.934786
10.899412 9.215437 -0.688577
12.498177 10.579318 -0.403572
12.501142 10.574105 -0.021570
12.507648 10.575709 0.360518
12.509178 10.569275 0.745746
12.522191 10.572667 1.129809
12.523833 10.566334 1.514285
64.540840 54.995293 9.827387
66.423111 56.562084 12.171117
0.007063 -0.129450 -0.003555
0.007063 -0.129450 -0.003555
0.456174 0.252826 -0.354119
0.463752 0.259003 -0.341215
0.496573 0.286743 -0.346028
0.551710 0.333264 -0.363288
2.818807 2.256683 -1.753996
2.995707 2.405837 -1.753556
3.053519 2.453013 -1.676805
0.007050 -0.129257 -0.003549
3.210050 2.582678 -1.536295
3.219964 2.589098 -1.430762
4.134582 3.360416 -1.696635
4.495866 3.664457 -1.695788
4.893993 3.997925 -1.685566
3.201917 2.567897 -0.999077
3.212206 2.574620 -0.899672
3.204159 2.565892 -0.796141
7.720590 6.428574 -1.678315
8.938354 7.461077 -1.663913
10.570011 8.841234 -1.637072
0.007050 -0.129257 -0.003549
10.002095 8.349658 -0.934503
0.007050 -0.129257 -0.003549
12.547656 10.493689 -0.403137
12.544158 10.486772 -0.021545
12.552522 10.486156 0.359985
12.552485 10.478446 0.744561
12.566736 10.486558 1.128297
12.568388 10.480248 1.512264
0.007050 -0.129257 -0.003549
0.007050 -0.129257 -0.003549
0.007050 -0.129257 -0.003549
0.007050 -0.129257 -0.003549
0.446524 0.240467 -0.344916
0.472640 0.262166 -0.346117
0.504377 0.288649 -0.349788
0.544784 0.322278 -0.356988
2.828316 2.237178 -1.751418
3.011626 2.389968 -1.754368
3.055591 2.424972 -1.669846
3.102694 2.462539 -1.585142
3.146346 2.498092 -1.498555
3.196310 2.537957 -1.413416
3.204098 2.542546 -1.308632
4.524998 3.644924 -1.698553
4.922092 3.973662 -1.687088
5.368512 4.344635 -1.666155
3.223165 2.552582 -0.898413
3.213578 2.542615 -0.794648
7.761190 6.386837 -1.678966
8.997024 7.422514 -1.666718
10.636631 8.793303 -1.639414
0.007038 -0.129061 -0.003544
10.064441 8.303767 -0.935779
0.007038 -0.129061 -0.003544
12.584003 10.401055 -0.402360
12.586570 10.399295 -0.021519
12.593390 10.397366 0.359410
12.594864 10.390956 0.743469
12.609196 10.399010 1.126648
12.613874 10.395282 1.510428
64.977020 54.069344 9.796720
0.007038 -0.129061 -0.003544
0.007038 -0.129061 -0.003544
63.760284 52.957409 15.533063
0.447300 0.237033 -0.343888
0.461464 0.248542 -0.336296
0.508093 0.287107 -0.350722
0.539107 0.312526 -0.351586
2.846055 2.224555 -1.753988
3.024667 2.371667 -1.753549
3.064552 2.402876 -1.666751
3.111815 2.440127 -1.582220
3.158488 2.477791 -1.497178
3.201359 2.511319 -1.408915
0.007025 -0.128868 -0.003538
0.007025 -0.128868 -0.003538
0.007025 -0.128868 -0.003538
0.007025 -0.128868 -0.003538
3.232487 2.529258 -0.896737
3.222805 2.519330 -0.793154
7.804585 6.347372 -1.680269
9.050952 7.379735 -1.668680
10.703034 8.744900 -1.641754
10.061201 8.206346 -1.236407
0.007025 -0.128868 -0.003538
13.286972 10.868522 -0.826560
12.627403 10.314727 -0.401826
12.625318 10.309133 -0.021489
12.636757 10.310999 0.358923
12.642808 10.308415 0.742741
12.651051 10.311323 1.125000
12.654196 10.306339 1.508041
65.204781 53.626854 9.784272
0.007025 -0.128868 -0.003538
0.007025 -0.128868 -0.003538
0.007025 -0.128868 -0.003538
0.449376 0.234692 -0.343882
0.467660 0.249433 -0.339236
0.503671 0.278807 -0.346014
0.554076 0.319842 -0.359676
2.855347 2.204942 -1.751411
3.039419 2.353928 -1.753545
3.074780 2.381934 -1.664429
3.125079 2.421242 -1.581486
3.172416 2.458070 -1.496488
3.212094 2.489493 -1.406985
0.007013 -0.128672 -0.003533
3.220912 2.492892 -1.197734
3.227020 2.496891 -1.096059
3.230310 2.497634 -0.993506
3.239074 2.502883 -0.894226
3.233855 2.496699 -0.792033
7.850855 6.310120 -1.682226
9.106012 7.334991 -1.670644
10.766164 8.693510 -1.643626
10.125889 8.162465 -1.238473
10.251715 8.259456 -0.943995
13.334530 10.779515 -0.825606
12.668672 10.226985 -0.401243
12.674558 10.224252 -0.021473
12.679546 10.224479 0.358436
12.679404 10.216826 0.741376
12.692563 10.220031 1.123215
12.698815 10.217584 1.506020
65.431145 53.184795 9.772057
0.007013 -0.128672 -0.003533
0.007013 -0.128672 -0.003533
30.644917 24.792189 7.392549
0.454183 0.234420 -0.345921
0.471241 0.247985 -0.340213
0.511545 0.280498 -0.349772
0.565032 0.323534 -0.365067
2.870514 2.189348 -1.752264
3.060733 2.342380 -1.757617
3.091009 2.365062 -1.665196
3.137224 2.400568 -1.580022
3.182868 2.436466 -1.494427
3.226064 2.469459 -1.406338
3.230840 2.471417 -1.300849
3.232954 2.472139 -1.196623
3.236492 2.473098 -1.094021
3.240801 2.475587 -0.992112
3.252623 2.483217 -0.893803
3.244285 2.474599 -0.790910
7.899580 6.272422 -1.684508
9.157988 7.290221 -1.672324
10.838299 8.646049 -1.646668
10.208891 8.130111 -1.242608
10.408340 8.288439 -0.953913
12.771342 10.193074 -0.787082
12.678454 10.110515 -0.399637
12.687190 10.113733 -0.021405
12.684632 10.104203 0.356845
12.693814 10.104133 0.738647
12.699037 10.104535 1.118547
12.708446 10.104652 1.500147
65.696297 52.756615 9.764673
0.007001 -0.128476 -0.003528
0.007001 -0.128476 -0.003528
27.146521 21.680954 6.516721
0.457607 0.233108 -0.346939
0.467945 0.241145 -0.336281
0.513873 0.277784 -0.349766
2.734777 2.055408 -1.762652
2.888044 2.176408 -1.754833
3.073884 2.323290 -1.756798
3.098107 2.341711 -1.661329
3.145910 2.378061 -1.577101
3.193580 2.414278 -1.492363
3.235023 2.446369 -1.403764
3.241249 2.449457 -1.299050
3.236271 2.443588 -1.192192
3.246865 2.451056 -1.092491
3.250057 2.451730 -0.990253
3.263462 2.460473 -0.892546
3.255033 2.451897 -0.789789
7.942424 6.232049 -1.685812
9.206419 7.239768 -1.673164
10.907191 8.598700 -1.649476
10.310608 8.115040 -1.249183
10.482941 8.246792 -0.956178
13.428169 10.597366 -0.823601
12.991791 10.241039 -0.407560
12.986815 10.229486 -0.021740
12.930818 10.180956 0.362155
12.924273 10.168198 0.748657
12.846810 10.098978 1.126239
12.834267 10.081520 1.507860
65.856232 52.264458 9.743490
65.920387 52.277145 11.736837
0.006988 -0.128284 -0.003522
27.276081 21.528429 6.517823
0.459741 0.230622 -0.346934
0.472853 0.240763 -0.338239
0.514868 0.273875 -0.348820
2.740640 2.033856 -1.758150
2.896978 2.156631 -1.752255
3.089361 2.306933 -1.757608
3.109776 2.321254 -1.659778
3.160242 2.360163 -1.577095
3.205196 2.393775 -1.490986
3.239349 2.419745 -1.399263
3.250017 2.426280 -1.296654
3.252513 2.426351 -1.192741
3.258587 2.430182 -1.091469
3.260247 2.429619 -0.988859
3.267050 2.434010 -0.889614
3.258542 2.425442 -0.787177
7.986160 6.190004 -1.687115
9.256396 7.193078 -1.674563
10.977386 8.548941 -1.652283
10.410810 8.094781 -1.255383
10.648319 8.279361 -0.966802
13.472672 10.502990 -0.822456
13.437280 10.471107 -0.419516
13.377515 10.416184 -0.022201
13.346589 10.384098 0.372152
13.336369 10.372128 0.769130
13.261285 10.305326 1.157414
13.240015 10.284672 1.548806
66.076698 51.822556 9.731748
0.006976 -0.128087 -0.003517
0.006976 -0.128087 -0.003517
27.655281 21.571753 6.578568
0.467117 0.232532 -0.351016
0.480389 0.242646 -0.342161
0.528214 0.279927 -0.356342
2.772363 2.034165 -1.770736
2.911480 2.141273 -1.753107
3.101885 2.288222 -1.756789
3.123386 2.304101 -1.659773
3.171572 2.339879 -1.575632
3.216671 2.373218 -1.489609
3.249456 2.397811 -1.397331
3.261629 2.405433 -1.295453
3.258022 2.400759 -1.189415
3.268657 2.408069 -1.089938
3.271818 2.408671 -0.987928
3.280637 2.413636 -0.889193
3.272074 2.405110 -0.786801
8.027454 6.150471 -1.688415
9.312385 7.150933 -1.677084
11.053772 8.509841 -1.656494
10.549062 8.109162 -1.266469
10.776706 8.280825 -0.974027
14.030960 10.817571 -0.852681
0.006994 -0.127899 -0.003513
13.046693 10.034427 -0.021653
13.059557 10.040636 0.362469
13.781213 10.594959 0.791330
13.700600 10.524389 1.190512
13.661531 10.486186 1.590852
66.262917 51.355469 9.715405
0.006994 -0.127899 -0.003513
0.006994 -0.127899 -0.003513
27.391224 21.111443 6.486533
0.463791 0.225784 -0.346922
0.478441 0.236826 -0.339211
0.529221 0.275945 -0.355396
2.770987 2.007008 -1.761738
2.930616 2.128620 -1.756534
3.120048 2.273922 -1.759230
3.133354 2.282402 -1.657449
3.181704 2.317864 -1.573438
3.230992 2.354909 -1.489604
3.267360 2.381053 -1.398611
3.267519 2.379309 -1.291863
3.270995 2.381036 -1.188857
3.279013 2.385353 -1.088407
3.281735 2.386485 -0.986534
3.290531 2.391390 -0.887933
3.283460 2.384095 -0.786050
8.078579 6.113884 -1.691350
9.361898 7.103551 -1.678482
11.118895 8.455354 -1.658598
10.782111 8.189085 -1.288459
10.993877 8.349342 -0.989185
13.130470 9.990411 -0.794509
13.191073 10.029645 -0.408184
13.101727 9.957031 -0.021644
13.100527 9.948693 0.361943
14.221429 10.803229 0.812984
14.158682 10.750890 1.224983
14.125053 10.717064 1.637674
66.511566 50.919926 9.707345
28.684292 21.876190 5.036073
28.239134 21.518641 5.801231
27.454130 20.901228 6.471807
0.467192 0.224384 -0.347940
0.479114 0.233249 -0.338223
0.539952 0.279552 -0.361036
2.783195 1.991267 -1.761732
2.947441 2.115761 -1.759101
3.132344 2.255062 -1.758409
3.142760 2.261213 -1.655126
3.187884 2.294667 -1.569785
3.237750 2.330824 -1.486169
3.278291 2.360725 -1.397321
3.278380 2.358973 -1.290660
3.277691 2.356608 -1.186084
3.286823 2.362576 -1.086368
3.288373 2.361924 -0.984212
3.304512 2.373233 -0.887928
3.287992 2.358860 -0.783809
8.125284 6.075943 -1.693629
9.415908 7.059438 -1.680721
11.185441 8.404752 -1.661169
11.130554 8.356607 -1.324168
13.093728 9.850181 -1.172400
0.006969 -0.127510 -0.003502
0.006969 -0.127510 -0.003502
0.006969 -0.127510 -0.003502
0.006969 -0.127510 -0.003502
14.689325 11.033524 0.836279
14.600718 10.957990 1.257809
14.586570 10.943084 1.684130
0.006969 -0.127510 -0.003502
28.786659 21.693193 5.031935
28.905224 21.774839 5.912997
27.545835 20.729105 6.465924
0.470513 0.223039 -0.348957
0.488066 0.236053 -0.343126
0.543592 0.277836 -0.361971
2.793544 1.974863 -1.760827
2.952690 2.094076 -1.754807
3.142662 2.235583 -1.756772
3.157485 2.244992 -1.655892
3.204313 2.279320 -1.571239
3.248391 2.310700 -1.484791
3.287561 2.339217 -1.395389
3.283052 2.333997 -1.287069
3.283808 2.332748 -1.183312
3.294444 2.339800 -1.084327
3.300627 2.342613 -0.983742
3.309017 2.347959 -0.885415
3.301788 2.340720 -0.783803
8.169202 6.037899 -1.695582
9.471655 7.018979 -1.683521
11.248669 8.354446 -1.663503
14.061787 10.469049 -1.665137
13.442305 9.998176 -1.198467
13.138895 9.762188 -0.788205
0.006956 -0.127318 -0.003497
0.006956 -0.127318 -0.003497
0.006956 -0.127318 -0.003497
13.261041 9.831908 0.751408
21.384428 15.923971 1.836357
15.046255 11.160702 1.730036
17.404129 12.920772 2.515405
28.979158 21.586060 5.044371
28.857843 21.486952 5.878542
27.858362 20.722725 6.511950
0.475367 0.222464 -0.350994
0.484688 0.229139 -0.339195
0.544652 0.273691 -0.361026
2.807745 1.959084 -1.761721
2.967623 2.077337 -1.755659
3.161406 2.219874 -1.759213
3.164488 2.220420 -1.652023
3.215939 2.257741 -1.569775
3.258673 2.287713 -1.482727
3.296439 2.314843 -1.392813
3.297988 2.314165 -1.287063
3.291030 2.307183 -1.180540
3.306324 2.317589 -1.083305
3.306244 2.315727 -0.980958
3.319317 2.324476 -0.884155
3.312054 2.317259 -0.782682
8.219296 5.997631 -1.698188
9.532519 6.974327 -1.686602
11.317737 8.298960 -1.666075
14.161283 10.409480 -1.669267
13.207695 9.695911 -1.172246
13.542019 9.937202 -0.808606
13.174926 9.660552 -0.402429
13.188730 9.663520 -0.021510
13.206653 9.669555 0.360101
13.308696 9.741559 0.750685
21.461084 15.778048 1.834577
0.006945 -0.127118 -0.003491
17.472202 12.806356 2.513799
28.781433 21.165279 4.987207
29.125576 21.411774 5.906246
29.700209 21.820507 6.911395
0.470379 0.214937 -0.345878
0.496472 0.233898 -0.346060
0.542599 0.267738 -0.358197
2.823638 1.946796 -1.764413
2.983156 2.062601 -1.757369
3.178870 2.205677 -1.761655
3.176041 2.201868 -1.651244
3.232585 2.241644 -1.571228
3.284210 2.278623 -1.488211
3.311968 2.297190 -1.393451
3.307364 2.291996 -1.285265
3.310741 2.293569 -1.182747
3.315634 2.295342 -1.081773
3.316688 2.295179 -0.980026
3.322327 2.297489 -0.881225
3.321288 2.294927 -0.781558
8.267631 5.962463 -1.701120
9.586309 6.931862 -1.689120
11.372535 8.241838 -1.667239
13.249521 9.616651 -1.555539
13.239772 9.605789 -1.170256
13.586641 9.853487 -0.807930
13.216486 9.574210 -0.401985
13.214070 9.568767 -0.021462
13.241703 9.581812 0.359578
13.355539 9.658022 0.750146
21.528484 15.643052 1.832801
0.006933 -0.126922 -0.003486
0.006933 -0.126922 -0.003486
29.332949 21.321632 5.062061
29.342934 21.312920 5.925258
25.882408 18.769745 5.996929
0.465387 0.207396 -0.340763
0.491476 0.226143 -0.341146
0.542053 0.262678 -0.356310
2.828303 1.925493 -1.759912
2.997169 2.046696 -1.758221
3.186705 2.182737 -1.758386
3.188301 2.182150 -1.650467
3.246155 2.223243 -1.571222
3.312073 2.269275 -1.494379
3.338534 2.286641 -1.398583
3.337079 2.283784 -1.291237
3.335919 2.282026 -1.186615
3.328348 2.274752 -1.081258
3.329814 2.273994 -0.979557
3.333873 2.275126 -0.880383
3.330775 2.271992 -0.780434
8.320047 5.927826 -1.704704
9.639156 6.883329 -1.691076
11.441330 8.191724 -1.670274
13.274715 9.518283 -1.551960
0.006920 -0.126729 -0.003480
13.710217 9.819983 -0.811739
13.257471 9.487719 -0.401540
13.272916 9.491709 -0.021459
13.294138 9.499902 0.359451
13.406791 9.574274 0.749789
0.006920 -0.126729 -0.003480
17.597382 12.593744 1.997741
17.696043 12.655509 2.524399
30.005999 21.534529 5.155415
29.840715 21.406981 5.999989
19.783726 14.137272 4.563007
0.482777 0.215823 -0.352001
0.487959 0.219305 -0.337215
0.550067 0.263816 -0.360067
2.843643 1.910520 -1.761703
3.011465 2.030178 -1.759074
3.198861 2.162975 -1.757566
3.198920 2.161297 -1.648915
3.256990 2.202023 -1.569757
3.329276 2.252023 -1.495746
3.376988 2.285271 -1.408854
3.374181 2.281429 -1.300199
3.364212 2.272501 -1.191591
3.365717 2.272659 -1.088882
3.340369 2.252783 -0.978624
3.337637 2.249914 -0.877868
3.341313 2.250748 -0.779684
8.355221 5.876041 -1.704372
9.688556 6.832099 -1.692472
11.504762 8.131281 -1.672141
13.326821 9.432727 -1.551201
0.006908 -0.126533 -0.003475
13.424676 9.492057 -0.791515
13.299581 9.398746 -0.401096
13.313386 9.401492 -0.021429
13.339539 9.413063 0.359150
13.457467 9.493773 0.749524
18.355183 12.986931 1.548694
17.699385 12.513430 2.001056
0.006908 -0.126533 -0.003475
29.972015 21.249146 5.128360
20.253683 14.311033 4.054023
20.183992 14.250542 4.636278
0.477652 0.208379 -0.346885
0.489870 0.216810 -0.337209
0.543596 0.254840 -0.354417
2.856437 1.895887 -1.762598
3.017902 2.008872 -1.755636
3.202631 2.138991 -1.752667
3.208618 2.141515 -1.647363
3.265765 2.180254 -1.567563
3.336352 2.229306 -1.492996
3.401618 2.273693 -1.413344
3.409774 2.277634 -1.308562
3.397944 2.268345 -1.198778
3.382612 2.255727 -1.089893
3.348809 2.230984 -0.977228
3.349645 2.229786 -0.877444
3.346884 2.226068 -0.777815
8.383725 5.826156 -1.703384
9.738522 6.786215 -1.694429
11.579761 8.087925 -1.676346
13.370176 9.351579 -1.550065
13.335712 9.323535 -1.163997
13.331371 9.313351 -0.782923
13.344344 9.315413 -0.400796
13.358134 9.321568 -0.021409
0.006896 -0.126337 -0.003469
18.489271 12.932904 1.027007
19.068489 13.337008 1.602674
0.006896 -0.126337 -0.003469
18.653618 13.024156 2.639479
30.416103 21.311373 5.183887
17.756012 12.376913 3.539037
0.006896 -0.126337 -0.003469
0.482388 0.207834 -0.348924
0.493256 0.215219 -0.338186
0.535678 0.244837 -0.347826
2.857750 1.872481 -1.756295
3.036059 1.995851 -1.759061
3.215976 2.120207 -1.752659
3.217046 2.120087 -1.645037
3.265220 2.152063 -1.560990
3.314822 2.184978 -1.477209
3.361011 2.216362 -1.390856
3.373447 2.223267 -1.289424
3.382087 2.227516 -1.188256
3.386732 2.229825 -1.086836
3.359538 2.209101 -0.976296
3.355524 2.204538 -0.875349
3.359135 2.205305 -0.777436
8.422660 5.781474 -1.704356
9.789005 6.735451 -1.696103
11.652821 8.039672 -1.680084
13.408135 9.263342 -1.548176
13.432328 9.273186 -1.167532
13.365780 9.223022 -0.781769
13.386930 9.230733 -0.400446
13.399104 9.232183 -0.021380
13.689292 9.431303 0.365715
18.645967 12.883781 1.031567
19.051332 13.156698 1.594583
17.630037 12.156107 1.976841
17.326990 11.940254 2.441586
0.006883 -0.126144 -0.003464
17.854078 12.288649 3.543877
20.231750 13.937173 4.609793
0.484328 0.205209 -0.348918
0.502417 0.217488 -0.343088
0.543646 0.245916 -0.351583
2.876896 1.860820 -1.760786
3.046706 1.977561 -1.758196
3.224349 2.098780 -1.750208
3.227256 2.099116 -1.643485
3.276739 2.132416 -1.560254
3.324951 2.163975 -1.475830
3.352600 2.182165 -1.381858
0.006871 -0.125948 -0.003459
0.006871 -0.125948 -0.003459
3.363574 2.185311 -1.075131
3.364891 2.184460 -0.973973
3.365220 2.183807 -0.874505
3.370475 2.185650 -0.777058
8.460748 5.733944 -1.705001
9.833199 6.682651 -1.696937
11.722243 7.985407 -1.683120
13.455333 9.178299 -1.547226
13.453339 9.173326 -1.164688
0.006871 -0.125948 -0.003459
13.428967 9.145885 -0.400094
0.006871 -0.125948 -0.003459
13.758858 9.359344 0.366078
18.348696 12.520289 1.011019
19.083021 13.016609 1.590888
17.580147 11.976526 1.963633
17.029465 11.588385 2.390049
17.931545 12.199807 3.029485
0.006871 -0.125948 -0.003459
17.533245 11.912098 3.978432
0.486179 0.202729 -0.348913
0.497140 0.209987 -0.338175
0.541348 0.240114 -0.348756
2.890860 1.846992 -1.762578
3.060235 1.961250 -1.759047
3.253672 2.091754 -1.759171
3.238100 2.080267 -1.642706
3.288118 2.112715 -1.559518
3.336505 2.143985 -1.475137
3.365802 2.163075 -1.381851
3.363960 2.160061 -1.275661
3.367621 2.160808 -1.173856
3.370407 2.161810 -1.073089
3.376492 2.164212 -0.973502
3.373992 2.160761 -0.873245
3.375952 2.160363 -0.775188
8.499798 5.691360 -1.706297
9.883628 6.634049 -1.698891
11.813186 7.951549 -1.689665
13.541533 9.126951 -1.551163
13.496688 9.089289 -1.163827
0.006859 -0.125752 -0.003453
13.475457 9.064232 -0.399890
14.077580 9.467764 -0.022118
0.006859 -0.125752 -0.003453
18.541670 12.496901 1.017672
19.057655 12.838422 1.582523
17.855726 12.011264 1.986412
18.134945 12.196361 2.535501
20.586205 13.851874 3.465025
17.394571 11.675090 3.425379
17.545198 11.772710 3.965560
0.483835 0.197184 -0.345842
0.503443 0.210197 -0.341114
0.539108 0.234170 -0.345928
2.903978 1.831053 -1.763471
3.071056 1.942296 -1.758183
3.272419 2.077320 -1.762426
3.249585 2.060235 -1.641927
3.298247 2.091332 -1.558053
3.344828 2.121838 -1.473072
3.377740 2.142261 -1.381202
3.372693 2.137121 -1.273861
3.379102 2.140566 -1.173295
3.380685 2.139874 -1.072065
3.387982 2.143902 -0.973032
3.380568 2.137197 -0.871565
3.385782 2.138948 -0.774436
8.548826 5.651073 -1.709226
9.937099 6.587308 -1.701407
11.865748 7.884981 -1.690356
14.929602 9.946869 -1.703027
14.124959 9.400050 -1.213127
13.486898 8.962594 -0.779450
13.521367 8.978878 -0.399636
0.006846 -0.125559 -0.003448
0.006846 -0.125559 -0.003448
0.006846 -0.125559 -0.003448
0.006846 -0.125559 -0.003448
17.946699 11.923067 1.988813
18.029470 11.969371 2.510658
20.356977 13.526051 3.413117
17.822826 11.816917 3.496249
17.612101 11.666615 3.964836
0.489938 0.197502 -0.348901
0.502451 0.205594 -0.339145
0.533812 0.226397 -0.341217
2.912224 1.812560 -1.761666
3.085894 1.926829 -1.759892
3.283890 2.057105 -1.761604
3.257474 2.038675 -1.639600
3.310932 2.072558 -1.558046
3.353373 2.099090 -1.471006
3.381244 2.116742 -1.377341
3.385644 2.117915 -1.273854
3.387680 2.117538 -1.171629
3.396871 2.122763 -1.073076
3.398134 2.121865 -0.972100
3.389015 2.114118 -0.870305
3.397480 2.117998 -0.774056
8.593383 5.609717 -1.711502
9.975036 6.527441 -1.701116
11.929788 7.828969 -1.692920
15.033666 9.892002 -1.708277
13.551872 8.897260 -1.159411
0.006834 -0.125363 -0.003442
13.568498 8.897882 -0.399478
13.667307 8.956639 -0.021409
0.006834 -0.125363 -0.003442
22.043118 14.508247 1.201112
18.880146 12.398198 1.555498
17.355474 11.377647 1.915569
21.337822 14.012631 2.960799
18.176573 11.908109 3.035048
17.931129 11.736418 3.503670
0.006834 -0.125363 -0.003442
0.494707 0.196720 -0.350940
0.501475 0.200929 -0.337176
0.541778 0.227347 -0.344975
2.925147 1.796478 -1.762559
3.099503 1.909729 -1.760742
3.299427 2.040420 -1.763227
3.276414 2.023613 -1.642686
3.322336 2.052106 -1.557309
3.367688 2.081024 -1.471686
3.394471 2.096892 -1.377334
3.394077 2.094908 -1.272053
3.394081 2.094037 -1.169408
3.400415 2.096467 -1.070017
3.410985 2.102515 -0.972092
3.398561 2.092681 -0.869462
3.403741 2.094353 -0.772560
7.395004 4.746453 -1.467343
10.026354 6.478915 -1.703350
11.999939 7.773665 -1.696188
15.129337 9.827061 -1.712400
0.006821 -0.125171 -0.003437
13.600409 8.810465 -0.779903
13.621701 8.817569 -0.399466
13.794529 8.927527 -0.021495
0.006821 -0.125171 -0.003437
18.553686 12.033529 1.006434
31.803791 20.711681 2.613080
0.006821 -0.125171 -0.003437
0.006821 -0.125171 -0.003437
19.077648 12.347925 3.173704
18.129530 11.718675 3.529130
18.206085 11.759515 4.067212
0.499423 0.195975 -0.352978
0.504799 0.199221 -0.338152
0.542284 0.223499 -0.344028
2.937644 1.780823 -1.763451
3.111157 1.892098 -1.760736
3.319490 2.026607 -1.767298
3.280968 1.999946 -1.638814
3.336345 2.034210 -1.558030
3.378746 2.060827 -1.470993
3.402431 2.074471 -1.375401
3.400368 2.071433 -1.269654
3.403552 2.072624 -1.168294
3.413106 2.077112 -1.070008
3.417203 2.078869 -0.970232
3.409612 2.072269 -0.869036
3.414812 2.073905 -0.772181
7.416274 4.699765 -1.466028
10.079103 6.431096 -1.705863
12.058467 7.713421 -1.698048
15.209687 9.755314 -1.715017
13.736691 8.794523 -1.166328
13.659952 8.737775 -0.780367
13.671216 8.738237 -0.399404
0.006809 -0.124974 -0.003431
0.006809 -0.124974 -0.003431
18.702116 11.977903 1.010726
31.763920 20.425724 2.600057
17.979940 11.496793 1.969763
17.978750 11.487013 2.475035
19.137381 12.230747 3.171788
18.514095 11.818913 3.590664
18.247671 11.637836 4.061338
0.505608 0.196122 -0.356040
0.512510 0.200318 -0.342073
2.807029 1.674666 -1.777914
2.951555 1.766060 -1.765243
3.122700 1.874401 -1.760728
3.325647 2.003771 -1.764028
3.290026 1.979282 -1.637260
3.342438 2.011199 -1.555105
3.386499 2.038553 -1.468927
3.405437 2.048980 -1.371539
3.411312 2.051055 -1.269048
3.411262 2.050146 -1.166626
3.420821 2.054558 -1.068475
3.426505 2.057329 -0.969296
3.418885 2.050758 -0.868193
3.420753 2.050244 -0.770683
7.805718 4.889915 -1.537174
10.128293 6.380759 -1.707815
12.120070 7.654909 -1.700377
15.299767 9.689429 -1.718761
13.812961 8.731770 -1.168440
13.717388 8.663634 -0.780732
13.725311 8.661871 -0.399486
13.746087 8.671711 -0.021268
13.769432 8.679790 0.358015
18.857250 11.925287 1.015384
19.817963 12.534437 1.614739
0.006798 -0.124775 -0.003426
17.894463 11.287520 2.454342
20.148348 12.720411 3.327296
18.867104 11.893907 3.645757
18.180656 11.447451 4.031536
0.500177 0.188833 -0.350923
0.523197 0.203198 -0.347957
2.832206 1.668180 -1.787315
2.963882 1.750235 -1.766135
3.140251 1.860504 -1.764151
3.341273 1.986211 -1.765651
3.305171 1.962528 -1.638798
3.354647 1.992174 -1.555097
3.397665 2.017675 -1.468233
3.416282 2.028575 -1.370889
3.420552 2.029587 -1.267846
3.424066 2.030130 -1.166618
3.433291 2.035079 -1.068467
3.439379 2.037217 -0.969289
3.425098 2.026523 -0.866514
3.438558 2.033309 -0.771792
8.767278 5.437436 -1.719946
10.174991 6.326171 -1.709204
12.191441 7.602334 -1.704109
15.386225 9.620694 -1.722129
0.006786 -0.124582 -0.003420
13.776134 8.590182 -0.781195
13.775614 8.583034 -0.399472
0.006786 -0.124582 -0.003420
0.006786 -0.124582 -0.003420
18.860302 11.775307 1.011855
19.030216 11.873140 1.544580
20.891075 13.036427 2.272381
17.988348 11.202680 2.458272
19.114309 11.902526 3.144483
0.006786 -0.124582 -0.003420
18.994120 11.812762 4.196856
0.496185 0.182443 -0.346829
0.528066 0.202176 -0.349914
2.832308 1.645035 -1.780721
2.971897 1.730974 -1.764328
3.151955 1.842088 -1.764144
3.353355 1.967183 -1.765643
3.312798 1.940200 -1.636473
3.360831 1.968535 -1.552173
3.408338 1.997334 -1.467540
3.425754 2.006522 -1.369596
3.430009 2.007491 -1.266642
3.434781 2.009611 -1.166057
3.442744 2.012884 -1.067443
3.445142 2.013520 -0.967429
3.439069 2.008050 -0.866924
3.447569 2.011658 -0.771040
8.811751 5.392961 -1.722218
10.223683 6.275131 -1.711156
12.252141 7.539679 -1.706202
15.453808 9.535926 -1.723240
0.006803 -0.124393 -0.003417
13.854637 8.525567 -0.782706
13.850712 8.516310 -0.400138
0.006803 -0.124393 -0.003417
15.469643 9.515355 0.399716
18.574348 11.441756 0.992767
0.006803 -0.124393 -0.003417
0.006803 -0.124393 -0.003417
18.279528 11.235663 2.488897
18.501741 11.369224 3.032649
20.362698 12.515719 3.906360
18.501572 11.350993 4.072805
0.493547 0.177104 -0.343757
0.529926 0.199367 -0.349909
2.839436 1.627084 -1.778833
2.979471 1.712203 -1.762522
3.163215 1.824153 -1.764137
3.366887 1.949050 -1.766451
3.318341 1.917464 -1.633374
3.369618 1.947454 -1.550705
3.415659 1.974975 -1.465472
3.436322 1.986024 -1.368946
3.442213 1.987959 -1.266634
3.442086 1.987032 -1.164390
3.454961 1.993282 -1.067434
3.455697 1.992889 -0.966957
3.447933 1.986424 -0.866080
3.456445 1.989971 -0.770287
8.848366 5.345539 -1.723185
10.272099 6.223753 -1.713107
12.317974 7.482893 -1.709231
15.515893 9.451305 -1.723976
14.077189 8.559580 -1.177745
14.012968 8.513097 -0.788792
13.969935 8.479761 -0.402114
0.006791 -0.124197 -0.003411
0.006791 -0.124197 -0.003411
18.676285 11.356970 0.994696
18.308504 11.126294 1.475266
18.777212 11.405294 2.027489
18.322519 11.117097 2.485925
18.012022 10.922094 2.941804
18.376869 11.137003 3.512472
18.027443 10.914035 3.954278
0.499651 0.177182 -0.346817
0.527292 0.193824 -0.346957
2.850972 1.611868 -1.779766
2.996083 1.698982 -1.766111
3.172811 1.805218 -1.763271
0.006778 -0.124005 -0.003406
3.331582 1.899540 -1.634138
3.381469 1.928266 -1.550696
3.427663 1.955527 -1.465464
3.445170 1.964483 -1.367654
3.451015 1.966380 -1.265430
3.450879 1.965437 -1.163275
3.462106 1.970600 -1.065900
3.464485 1.971195 -0.966022
3.454973 1.963758 -0.864818
3.463490 1.967238 -0.769162
8.893139 5.303019 -1.725784
10.201921 6.099806 -1.695420
12.383552 7.425608 -1.712259
15.594482 9.376664 -1.726588
14.273406 8.567983 -1.189913
14.616961 8.770220 -0.819762
14.249782 8.539794 -0.408659
14.892937 8.927383 -0.022415
18.698112 11.232021 0.480488
0.006778 -0.124005 -0.003406
18.620211 11.171167 1.495200
18.717165 11.220960 2.013923
18.815046 11.271219 2.543938
0.006778 -0.124005 -0.003406
17.732006 10.602187 3.377217
18.109083 10.821635 3.958349
0.496957 0.171870 -0.343746
0.532101 0.192814 -0.348915
2.859373 1.594764 -1.778817
3.011114 1.684711 -1.768802
3.185403 1.788094 -1.764121
3.320419 1.867716 -1.729739
3.338425 1.877720 -1.631811
3.390013 1.907098 -1.549229
3.436699 1.933475 -1.464084
3.453855 1.942922 -1.366360
3.464610 1.947711 -1.266019
3.461533 1.944197 -1.162713
3.470771 1.948898 -1.064874
3.475173 1.949860 -0.965551
3.465608 1.942473 -0.864392
3.474112 1.945909 -0.768780
8.927600 5.254045 -1.726425
10.216586 6.026187 -1.691761
12.443787 7.364739 -1.714586
15.686393 9.309639 -1.730705
14.702524 8.710643 -1.221210
22.387114 13.324847 -1.249561
0.006766 -0.123809 -0.003400
22.545544 13.398414 -0.032061
18.974005 11.251041 0.485951
19.710228 11.683108 1.042689
18.798077 11.127509 1.504147
18.753265 11.091709 2.010639
0.006766 -0.123809 -0.003400
0.006766 -0.123809 -0.003400
0.006766 -0.123809 -0.003400
20.112955 11.876166 4.381753
0.504613 0.172667 -0.347829
0.536939 0.191673 -0.350872
2.872538 1.579821 -1.780691
3.020211 1.666157 -1.767893
3.204112 1.774581 -1.768401
3.333393 1.849743 -1.730547
3.348614 1.857197 -1.631029
3.411250 1.893492 -1.553598
3.456575 1.918682 -1.467507
3.465676 1.923253 -1.366351
3.471526 1.925067 -1.264217
3.476663 1.926444 -1.163811
3.484308 1.930113 -1.065375
3.485343 1.929085 -0.965079
3.477065 1.923348 -0.864383
3.485587 1.926732 -0.768771
8.977942 5.212383 -1.730002
10.217717 5.947329 -1.686136
0.006754 -0.123612 -0.003395
10.278314 5.973553 -1.130926
0.006754 -0.123612 -0.003395
22.457808 13.187107 -1.249060
22.596052 13.263636 -0.641661
22.610878 13.261647 -0.032021
18.985989 11.106079 0.484557
0.006754 -0.123612 -0.003395
0.006754 -0.123612 -0.003395
0.006754 -0.123612 -0.003395
18.032871 10.516328 2.421321
0.006754 -0.123612 -0.003395
18.886282 11.006537 3.572768
18.440359 10.734884 4.003308
0.501791 0.167471 -0.344756
0.535681 0.187140 -0.348903
2.873158 1.558138 -1.775038
3.033249 1.651314 -1.769685
3.208726 1.752697 -1.764961
3.343085 1.829849 -1.729722
3.358371 1.837196 -1.630249
3.429222 1.877824 -1.556508
3.492577 1.913215 -1.477789
3.503928 1.918182 -1.376621
3.500105 1.914300 -1.270188
3.490060 1.907609 -1.164356
3.493047 1.907717 -1.064349
3.492390 1.905690 -0.963681
3.486084 1.900369 -0.863538
3.497677 1.906276 -0.768763
9.014359 5.166459 -1.731293
10.231966 5.876670 -1.682755
0.006741 -0.123420 -0.003389
0.006741 -0.123420 -0.003389
19.826511 11.483144 -1.634609
22.509819 13.043853 -1.247697
40.666641 23.658253 -1.148325
22.668488 13.120536 -0.031971
15.873131 9.141714 0.403172
18.003674 10.377327 0.945559
0.006741 -0.123420 -0.003389
18.517925 10.664199 1.971941
0.006741 -0.123420 -0.003389
20.083221 11.557447 3.235202
18.339325 10.538442 3.457159
19.581944 11.251894 4.236745
0.506508 0.166364 -0.346794
0.536046 0.183226 -0.347916
2.886134 1.543075 -1.776912
3.042461 1.632111 -1.768777
3.221334 1.734784 -1.765810
3.353022 1.809317 -1.728899
3.369929 1.817489 -1.630241
3.436183 1.854907 -1.554311
3.511098 1.896464 -1.480525
3.548420 1.917141 -1.389457
3.546480 1.914366 -1.282733
3.533665 1.905335 -1.174860
3.514731 1.893608 -1.067392
3.503997 1.885805 -0.963672
3.492212 1.878208 -0.862275
3.504156 1.883425 -0.767636
5.718442 3.184391 -1.095150
10.299895 5.835017 -1.688070
10.359075 5.864398 -1.412994
15.956861 9.094556 -1.742299
0.006729 -0.123224 -0.003384
22.583986 12.908482 -1.247481
22.709234 12.975393 -0.640442
22.744808 12.985233 -0.031941
0.006729 -0.123224 -0.003384
0.006729 -0.123224 -0.003384
18.596903 10.572113 1.472903
19.056110 10.831806 2.022643
18.105898 10.276853 2.414691
18.724236 10.623400 3.005989
19.011469 10.783827 3.572171
19.101301 10.826428 4.118958
0.511090 0.165472 -0.348832
0.527157 0.174411 -0.341039
2.895367 1.527185 -1.776903
3.053733 1.616234 -1.769667
3.238253 1.720031 -1.769233
3.366915 1.792625 -1.730520
3.383901 1.800716 -1.631778
3.452353 1.838102 -1.556491
3.523924 1.878013 -1.481202
3.573255 1.904418 -1.394586
3.579702 1.906419 -1.290495
3.568315 1.899110 -1.182598
3.526272 1.873590 -1.067383
3.511760 1.864539 -0.962737
3.505371 1.859283 -0.862685
3.513935 1.862501 -0.767256
5.729951 3.148761 -1.093834
10.398290 5.815053 -1.698713
0.006716 -0.123031 -0.003379
16.054697 9.032308 -1.747351
20.618935 11.631342 -1.688539
22.647598 12.777640 -1.246974
22.780687 12.842846 -0.640315
22.798416 12.847559 -0.031888
22.846083 12.864040 0.578037
22.879475 12.872379 1.194749
21.756670 12.229320 1.718361
18.606066 10.431357 1.968318
0.006716 -0.123031 -0.003379
19.421471 10.880450 3.108205
16.918261 9.453874 3.167967
18.327265 10.243270 3.938951
0.515733 0.164447 -0.350871
0.536428 0.175886 -0.345941
2.904802 1.510730 -1.776895
3.065255 1.599740 -1.770559
3.251931 1.703380 -1.770938
3.359096 1.762127 -1.720726
3.388459 1.777837 -1.628677
3.445692 1.808417 -1.548456
3.501298 1.838023 -1.466784
3.530324 1.853489 -1.373381
3.538034 1.856168 -1.271356
3.539984 1.855623 -1.169309
3.541072 1.855398 -1.068392
3.523463 1.843927 -0.962727
3.508509 1.833940 -0.860586
3.539362 1.849539 -0.770227
5.841474 3.168333 -1.111447
10.552315 5.820652 -1.718051
12.750316 7.056455 -1.727373
16.136564 8.956668 -1.750523
20.768200 11.554184 -1.695030
22.707464 12.639591 -1.246182
22.840933 12.704028 -0.639898
22.860897 12.704660 -0.031841
22.899426 12.720955 0.577537
23.002617 12.768191 1.197326
0.006705 -0.122835 -0.003373
0.006705 -0.122835 -0.003373
19.046106 10.528190 2.523828
18.813684 10.389487 3.000792
17.212513 9.486540 3.212439
0.006705 -0.122835 -0.003373
0.512907 0.159114 -0.347799
0.536665 0.172087 -0.344954
2.920586 1.497151 -1.780649
3.075402 1.581775 -1.770550
3.256365 1.680802 -1.767499
3.379785 1.747732 -1.725610
3.401268 1.758851 -1.629440
3.448945 1.783676 -1.544801
3.496413 1.808374 -1.459915
3.513798 1.817177 -1.362453
3.509593 1.813245 -1.256999
3.524718 1.819978 -1.160446
3.530710 1.822458 -1.061771
3.531648 1.821365 -0.961792
3.521734 1.814293 -0.860994
3.550960 1.828769 -0.770216
6.021228 3.223104 -1.141789
10.684278 5.812123 -1.733742
12.816946 6.994511 -1.730633
16.214441 8.874656 -1.753132
21.032429 11.539529 -1.710871
22.780930 12.504092 -1.246057
22.897276 12.558048 -0.639333
22.925983 12.563410 -0.031798
22.952372 12.572706 0.576991
18.117994 9.889616 0.939194
0.006693 -0.122639 -0.003368
19.005283 10.362677 1.997381
19.869036 10.834779 2.624428
19.298906 10.511398 3.068209
0.006693 -0.122639 -0.003368
18.669161 10.151397 3.986494
0.525059 0.162185 -0.354947
0.544442 0.172587 -0.348873
2.923657 1.477162 -1.776877
3.083576 1.563434 -1.769642
3.266682 1.662273 -1.767490
3.380544 1.723825 -1.720708
3.408784 1.737721 -1.627885
3.456571 1.762257 -1.543332
3.507130 1.789075 -1.459905
3.521564 1.795359 -1.361159
3.527390 1.796911 -1.259382
3.530415 1.797770 -1.158775
3.541820 1.802359 -1.061761
3.539010 1.800014 -0.960856
3.530775 1.793919 -0.860567
3.570418 1.813861 -0.772069
5.938294 3.132649 -1.122520
10.710240 5.748879 -1.732601
12.876814 6.931424 -1.733187
16.286867 8.792977 -1.755363
21.121609 11.435719 -1.712823
22.844402 12.368325 -1.245548
22.976826 12.430245 -0.639495
23.017405 12.447130 -0.031790
23.030252 12.443626 0.577157
18.155962 9.774989 0.938220
0.006681 -0.122443 -0.003362
0.006681 -0.122443 -0.003362
0.006681 -0.122443 -0.003362
19.316101 10.381167 3.061610
17.529955 9.401569 3.251142
17.231853 9.231712 3.667686
0.522158 0.156931 -0.351876
0.536940 0.164700 -0.342979
2.937464 1.463064 -1.779691
3.096356 1.547598 -1.771431
3.280081 1.645395 -1.769196
3.395921 1.707182 -1.723144
3.414561 1.715685 -1.625558
3.467347 1.742576 -1.543323
3.516405 1.768211 -1.459210
3.529194 1.773504 -1.359865
3.533319 1.774113 -1.257578
3.541396 1.777665 -1.158766
3.547704 1.779442 -1.060225
3.548282 1.778940 -0.960383
3.536559 1.771039 -0.859304
3.584939 1.795387 -0.772804
5.967333 3.104309 -1.124466
5.964794 3.101576 -0.962917
12.938121 6.868824 -1.735976
16.378159 8.721164 -1.759661
21.201763 11.321883 -1.713926
22.914089 12.236031 -1.245421
41.379036 22.178871 -1.145498
52.469898 28.145231 -0.067907
23.318672 12.427807 0.582633
23.146267 12.324510 1.193419
18.478338 9.809410 1.440346
18.164885 9.632634 1.897176
18.775352 9.952094 2.464303
17.763353 9.404835 2.806429
19.070078 10.097313 3.526245
17.413582 9.201404 3.694956
0.525256 0.154967 -0.352891
0.515498 0.149535 -0.328249
2.948105 1.447198 -1.780624
3.104342 1.529144 -1.770524
3.290173 1.626731 -1.769186
3.396719 1.682694 -1.718243
3.428322 1.697978 -1.627093
3.476342 1.721962 -1.542582
3.527217 1.748181 -1.459201
3.540050 1.753400 -1.359856
3.544139 1.753994 -1.257568
3.547173 1.754794 -1.157097
3.558566 1.759242 -1.060215
3.562595 1.760554 -0.961300
3.545644 1.749987 -0.858876
3.601133 1.777716 -0.773912
5.970109 3.061808 -1.121516
5.948286 3.048803 -0.957294
12.997372 6.804817 -1.738529
16.483208 8.656087 -1.765461
21.253130 11.192496 -1.712761
22.984770 12.104293 -1.245387
23.126715 12.169389 -0.639623
49.519661 26.189594 -0.064024
23.164377 12.173728 0.577003
18.519156 9.698973 0.951199
20.574638 10.784753 1.599293
18.657084 9.759501 1.942745
18.839975 9.847932 2.465252
17.777546 9.281471 2.800105
17.393965 9.070678 3.206101
0.006657 -0.122050 -0.003351
0.525296 0.151376 -0.351863
0.529398 0.153287 -0.336096
2.952367 1.427983 -1.777791
3.120099 1.514817 -1.774111
3.304963 1.610530 -1.771749
3.410591 1.664458 -1.719865
3.437096 1.677598 -1.626311
3.490203 1.703893 -1.544033
3.536561 1.726610 -1.458504
3.550765 1.733242 -1.359846
3.554878 1.733806 -1.257559
3.558221 1.733970 -1.157087
3.567626 1.738073 -1.059697
3.571959 1.738739 -0.960827
3.554936 1.728271 -0.858448
3.610559 1.755673 -0.773529
5.988307 3.027654 -1.121503
5.947683 3.003592 -0.954196
13.058089 6.741279 -1.741317
16.589825 8.591014 -1.771450
21.369255 11.092565 -1.716696
23.058214 11.974005 -1.245543
23.200523 12.038293 -0.639684
23.222282 12.039282 -0.031677
23.229376 12.037772 0.576904
23.250679 12.038521 1.191577
18.637199 9.616590 1.443836
18.662315 9.621377 1.937265
19.280901 9.940106 2.515456
17.866308 9.193634 2.805380
17.369333 8.926662 3.191634
17.108124 8.786697 3.608122
0.520792 0.145321 -0.347768
0.538731 0.154391 -0.340997
2.969327 1.414752 -1.782486
3.128137 1.495710 -1.773202
3.313563 1.590313 -1.770882
3.427276 1.648404 -1.723116
3.446053 1.656583 -1.625528
3.499294 1.682552 -1.543293
3.543783 1.704742 -1.457122
3.556628 1.709794 -1.357909
3.565790 1.712943 -1.257548
3.565419 1.711946 -1.155970
3.576863 1.716244 -1.059179
3.579122 1.716620 -0.959890
3.565504 1.708029 -0.858438
3.626542 1.737801 -0.774637
