# This PCD file was generated using the MATLAB® pcwrite function
# from Computer Vision Toolbox®.
# .PCD v.7 - Point Cloud Data file format
VERSION .7
FIELDS x y z
SIZE 4 4 4
TYPE F F F
COUNT 1 1 1
WIDTH 1627
HEIGHT 1
VIEWPOINT 0 0 0 1 0 0 0
POINTS 1627
DATA ascii
5.581710 -3.237200 -1.680789
5.616690 -3.259438 -1.531451
5.650664 -3.279845 -1.382643
5.670806 -3.293757 -1.230594
5.646914 -3.250314 -1.066642
14.279871 -8.091289 -2.306072
0.003592 -0.087789 -0.002447
0.003592 -0.087789 -0.002447
0.003592 -0.087789 -0.002447
44.890636 -25.321505 -2.414401
0.003592 -0.087789 -0.002447
65.237366 -36.802593 -0.017805
65.319199 -36.877689 1.722624
0.003592 -0.087789 -0.002447
65.458824 -36.999481 5.236783
65.610222 -37.098942 7.009599
65.699951 -37.178776 8.804469
0.003592 -0.087789 -0.002447
48.906792 -27.729908 9.214954
0.003592 -0.087789 -0.002447
0.528580 -0.385684 -0.360652
2.912400 -1.740518 -1.883119
3.079474 -1.836816 -1.884797
3.271933 -1.946963 -1.891307
3.468764 -2.060472 -1.890834
3.689375 -2.187716 -1.892178
3.902138 -2.310667 -1.878040
4.200936 -2.481951 -1.890488
4.548769 -2.682395 -1.908541
4.907521 -2.889389 -1.912108
5.389825 -3.167345 -1.939866
5.476959 -3.218349 -1.811880
5.599885 -3.291155 -1.691902
5.682217 -3.340825 -1.554487
5.809267 -3.416208 -1.426305
5.771036 -3.395538 -1.256503
5.673812 -3.306879 -1.075045
0.003586 -0.087585 -0.002447
9.092615 -5.253928 -1.225316
0.003586 -0.087585 -0.002447
0.003586 -0.087585 -0.002447
0.003586 -0.087585 -0.002447
0.003586 -0.087585 -0.002447
65.546272 -37.474289 -0.017483
65.615280 -37.543003 1.736551
0.003586 -0.087585 -0.002447
0.003586 -0.087585 -0.002447
65.923836 -37.792374 7.067335
52.274570 -30.008713 7.028746
66.082458 -37.942249 10.684862
66.163498 -38.002956 12.510139
0.003586 -0.087585 -0.002447
0.520805 -0.385256 -0.356567
2.902258 -1.758041 -1.883098
3.064450 -1.852175 -1.881957
3.258997 -1.965792 -1.890387
3.458580 -2.081690 -1.891666
3.673702 -2.207504 -1.890524
3.896874 -2.338162 -1.881868
4.189895 -2.508458 -1.891914
4.534943 -2.710039 -1.909194
4.896254 -2.920212 -1.913997
5.421562 -3.226800 -1.957712
5.499880 -3.274648 -1.825633
5.706876 -3.395914 -1.729879
5.776151 -3.438701 -1.585367
5.782157 -3.443436 -1.424185
5.796085 -3.454141 -1.266100
5.715629 -3.376671 -1.086692
0.003579 -0.087385 -0.002446
0.003579 -0.087385 -0.002446
9.200293 -5.393578 -0.995102
9.227289 -5.411150 -0.749229
0.003579 -0.087385 -0.002446
0.003579 -0.087385 -0.002446
65.834297 -38.157230 -0.017142
65.923424 -38.238449 1.751140
0.003579 -0.087385 -0.002446
66.105637 -38.388031 5.324916
52.107098 -30.288363 5.604425
51.952091 -30.221905 7.008927
49.181919 -28.637129 7.978212
48.660805 -28.345169 9.230847
0.003579 -0.087385 -0.002446
0.510212 -0.382733 -0.350440
2.892877 -1.773988 -1.883077
3.062181 -1.873482 -1.886632
3.250019 -1.984634 -1.891263
3.448611 -2.102254 -1.892498
3.666541 -2.230518 -1.892940
3.887446 -2.361516 -1.883383
4.174278 -2.531361 -1.891156
4.515379 -2.732230 -1.907109
4.881485 -2.949069 -1.914601
5.429766 -3.273193 -1.967212
5.511849 -3.322587 -1.835524
5.731117 -3.453964 -1.743017
5.737239 -3.458816 -1.579789
5.745892 -3.466503 -1.419982
5.761389 -3.478234 -1.262724
5.732971 -3.429160 -1.093468
9.331247 -5.530078 -1.522300
9.187733 -5.450482 -1.246330
9.184306 -5.452632 -0.996529
9.233619 -5.483461 -0.752103
9.268461 -5.508025 -0.505044
0.003573 -0.087181 -0.002446
66.102394 -38.805630 -0.016796
66.209824 -38.898537 1.764944
0.003573 -0.087181 -0.002446
66.367599 -39.035599 5.363909
52.372105 -30.845510 5.652251
0.003573 -0.087181 -0.002446
49.588707 -29.244009 8.070839
48.092594 -28.386080 9.154104
0.003573 -0.087181 -0.002446
0.505518 -0.383688 -0.348394
2.886121 -1.792167 -1.885016
3.051859 -1.890856 -1.886610
3.237510 -2.002173 -1.890342
3.438500 -2.122763 -1.893328
3.664774 -2.258526 -1.898610
3.882214 -2.388330 -1.887210
4.161752 -2.556073 -1.891855
4.506074 -2.762572 -1.909814
4.868205 -2.978826 -1.915848
5.370313 -3.279753 -1.952270
5.666028 -3.458252 -1.893405
5.698335 -3.478735 -1.738920
5.730524 -3.500514 -1.583440
5.761039 -3.521326 -1.428680
5.788435 -3.540310 -1.273061
5.761236 -3.489985 -1.102518
9.310770 -5.592133 -1.524185
9.221710 -5.541471 -1.255095
9.167014 -5.513277 -0.997954
9.295865 -5.593810 -0.759730
9.280105 -5.586504 -0.507319
0.003567 -0.086977 -0.002445
0.003567 -0.086977 -0.002445
0.003567 -0.086977 -0.002445
0.003567 -0.086977 -0.002445
0.003567 -0.086977 -0.002445
52.428421 -31.297699 5.678584
0.003567 -0.086977 -0.002445
0.003567 -0.086977 -0.002445
0.003567 -0.086977 -0.002445
0.003567 -0.086977 -0.002445
0.512611 -0.391764 -0.354514
2.878975 -1.810829 -1.886956
3.041117 -1.908702 -1.886588
3.230675 -2.023869 -1.893010
3.432930 -2.146018 -1.896727
3.652238 -2.279361 -1.898585
3.866939 -2.410141 -1.886412
4.150678 -2.581683 -1.893281
4.490621 -2.788241 -1.909782
4.853125 -3.007551 -1.916455
5.322428 -3.292643 -1.941503
5.651483 -3.493555 -1.895020
5.680390 -3.512246 -1.739387
5.760767 -3.563386 -1.597242
5.783658 -3.578482 -1.439044
5.814488 -3.599780 -1.283027
5.786669 -3.551234 -1.111240
9.681569 -5.886663 -1.590170
9.286315 -5.654046 -1.268269
9.173942 -5.590857 -1.002168
0.003560 -0.086777 -0.002445
0.003560 -0.086777 -0.002445
0.003560 -0.086777 -0.002445
0.003560 -0.086777 -0.002445
66.884346 -40.350300 1.796337
0.003560 -0.086777 -0.002445
0.003560 -0.086777 -0.002445
0.003560 -0.086777 -0.002445
47.847363 -28.954777 6.522217
0.003560 -0.086777 -0.002445
48.461494 -29.358313 9.288552
0.003560 -0.086777 -0.002445
0.516761 -0.397963 -0.358591
2.866315 -1.824836 -1.884974
3.027886 -1.923594 -1.884688
3.216766 -2.039793 -1.891191
3.410229 -2.158948 -1.890712
3.647362 -2.304871 -1.902627
3.852327 -2.430498 -1.885612
4.133065 -2.603364 -1.891794
4.470170 -2.810875 -1.907695
4.833009 -3.033237 -1.915138
5.305532 -3.323991 -1.942060
5.600609 -3.506749 -1.884498
5.695265 -3.565846 -1.749990
5.785498 -3.623674 -1.609660
5.811221 -3.642098 -1.451069
5.852232 -3.669904 -1.295957
5.824602 -3.618038 -1.122233
9.676816 -5.959515 -1.594837
6.392546 -3.966947 -0.876559
9.388160 -5.790665 -1.028906
0.003554 -0.086573 -0.002445
0.003554 -0.086573 -0.002445
0.003554 -0.086573 -0.002445
0.003554 -0.086573 -0.002445
67.230629 -41.071136 1.812249
0.003554 -0.086573 -0.002445
52.301125 -32.017792 4.271951
50.157593 -30.732210 5.471072
47.887280 -29.355640 6.550860
47.048817 -28.864882 7.738838
46.588753 -28.605000 8.962081
48.776096 -29.954895 10.763072
0.509049 -0.397196 -0.354505
2.861902 -1.845237 -1.888873
3.016932 -1.941293 -1.884665
3.209696 -2.061423 -1.893860
3.405568 -2.183652 -1.894965
3.638808 -2.329113 -1.905041
3.843081 -2.455985 -1.887897
4.111726 -2.623688 -1.888852
4.453954 -2.837110 -1.907663
4.820286 -3.064604 -1.917024
5.283001 -3.353157 -1.940828
5.572089 -3.534613 -1.881699
5.714010 -3.623773 -1.762110
5.814062 -3.688451 -1.623460
5.838273 -3.706173 -1.463095
5.870942 -3.729183 -1.304807
5.860727 -3.687424 -1.133225
9.542308 -5.955313 -1.578324
6.418504 -4.034748 -0.883249
9.337207 -5.835539 -1.026974
39.840252 -24.642702 -3.282494
0.003548 -0.086369 -0.002444
0.003548 -0.086369 -0.002444
0.003548 -0.086369 -0.002444
67.576797 -41.833282 1.828738
0.003548 -0.086369 -0.002444
50.343021 -31.233068 4.127303
47.990746 -29.799978 5.254082
0.003548 -0.086369 -0.002444
51.021919 -31.712059 8.423683
46.361851 -28.844940 8.951412
48.411152 -30.127068 10.721992
0.515994 -0.405345 -0.360623
2.853209 -1.862375 -1.889831
3.013705 -1.963071 -1.889338
3.195261 -2.077750 -1.892041
3.391930 -2.202037 -1.894084
3.624686 -2.348189 -1.904199
3.827815 -2.476859 -1.887097
4.104967 -2.652023 -1.892460
4.430563 -2.856705 -1.904207
4.799857 -3.090051 -1.915706
5.265753 -3.384291 -1.941386
5.590209 -3.588906 -1.894343
5.732907 -3.681050 -1.774231
5.881235 -3.775438 -1.647873
5.885889 -3.781119 -1.480112
5.903798 -3.795128 -1.316625
5.895206 -3.755282 -1.143892
9.495980 -5.999848 -1.576025
6.452986 -4.107107 -0.891097
9.358054 -5.922660 -1.032860
39.758518 -24.899170 -3.286817
70.161621 -43.908035 -3.872983
0.003543 -0.086162 -0.002444
0.003543 -0.086162 -0.002444
67.910141 -42.580597 1.844871
0.003543 -0.086162 -0.002444
50.543877 -31.748251 4.158572
49.992332 -31.426161 5.492768
0.003543 -0.086162 -0.002444
48.207611 -30.340708 7.986981
0.003543 -0.086162 -0.002444
46.099209 -29.060635 10.246905
0.519986 -0.411765 -0.364702
2.847381 -1.881345 -1.892750
3.004349 -1.981109 -1.890254
3.185262 -2.096839 -1.892915
3.384271 -2.224200 -1.896626
3.614316 -2.371380 -1.905800
3.821790 -2.503561 -1.890923
4.093298 -2.677378 -1.893886
4.420427 -2.886732 -1.906912
4.792094 -3.123488 -1.919513
5.249921 -3.416362 -1.942538
5.614808 -3.650636 -1.909746
5.762735 -3.745918 -1.789898
5.870748 -3.817321 -1.651057
5.895251 -3.835680 -1.487974
5.921468 -3.855168 -1.325473
5.920731 -3.818393 -1.152935
6.017491 -3.882262 -1.003058
6.476775 -4.173640 -0.897552
9.346189 -5.990000 -1.035209
39.663059 -25.167225 -3.290853
71.186470 -45.119236 -3.943218
0.003535 -0.085961 -0.002444
69.718552 -44.256279 -0.014831
68.262421 -43.349194 1.861702
0.003535 -0.085961 -0.002444
49.024590 -31.202301 4.048974
49.785526 -31.708809 5.490919
50.570454 -32.218899 6.994819
44.524445 -28.397961 7.404552
43.691883 -27.889143 8.497602
44.595409 -28.474268 9.949018
0.513665 -0.411832 -0.361634
2.830803 -1.894214 -1.888808
2.984154 -1.992963 -1.884597
3.174771 -2.116431 -1.893787
3.370029 -2.243037 -1.895745
3.599553 -2.390929 -1.904958
3.816710 -2.531936 -1.895520
4.080998 -2.703395 -1.895309
4.404225 -2.911901 -1.906877
4.772427 -3.150607 -1.918836
5.225254 -3.444106 -1.940709
5.632995 -3.707622 -1.922939
5.792999 -3.813311 -1.806071
5.895005 -3.880324 -1.663932
5.919622 -3.898991 -1.499580
5.955867 -3.925180 -1.338029
5.950068 -3.886151 -1.162951
6.027276 -3.936866 -1.008307
6.521027 -4.255626 -0.907024
9.458623 -6.139563 -1.051512
39.565186 -25.424877 -3.294471
71.535629 -45.935795 -3.976976
0.003529 -0.085758 -0.002443
69.156960 -44.459759 -0.014256
0.003529 -0.085758 -0.002443
0.003529 -0.085758 -0.002443
49.041138 -31.609749 4.065632
0.003529 -0.085758 -0.002443
44.985767 -29.045517 6.246021
0.003529 -0.085758 -0.002443
43.916054 -28.387756 8.573091
44.484158 -28.775053 9.962310
0.507445 -0.411761 -0.358569
2.824744 -1.913102 -1.891726
2.982017 -2.015646 -1.890208
3.160058 -2.132509 -1.891968
3.360591 -2.264139 -1.897430
3.593904 -2.416363 -1.909000
3.801048 -2.552639 -1.894721
4.062731 -2.724579 -1.893822
4.383190 -2.933906 -1.904792
4.759470 -3.180893 -1.920721
5.205846 -3.473895 -1.940669
5.658789 -3.770187 -1.938891
5.794140 -3.861152 -1.813120
5.920350 -3.944788 -1.677267
5.953267 -3.969115 -1.513680
5.983036 -3.991403 -1.349100
5.977791 -3.952262 -1.172640
6.006668 -3.972327 -1.008539
6.563605 -4.336051 -0.916263
0.003523 -0.085554 -0.002443
39.495758 -25.701771 -3.300600
71.925919 -46.771610 -4.012969
0.003523 -0.085554 -0.002443
0.003523 -0.085554 -0.002443
0.003523 -0.085554 -0.002443
0.003523 -0.085554 -0.002443
49.216789 -32.123997 4.095802
48.345547 -31.579950 5.372385
44.978199 -29.407682 6.268636
44.502636 -29.107883 7.456668
43.729382 -28.624506 8.568888
43.296490 -28.362701 9.732854
0.499821 -0.410685 -0.354484
2.814202 -1.929114 -1.891705
2.969389 -2.031586 -1.889246
3.146730 -2.149460 -1.891046
3.351005 -2.285203 -1.899115
3.580436 -2.436790 -1.908972
3.791403 -2.577287 -1.897004
4.055269 -2.752819 -1.897429
4.366730 -2.958863 -1.904758
4.738427 -3.205925 -1.919403
5.179914 -3.499374 -1.938246
5.695271 -3.840582 -1.958703
5.819167 -3.925123 -1.827773
5.945132 -4.009667 -1.690601
5.986320 -4.039758 -1.527781
6.019459 -4.064567 -1.362393
6.006621 -4.019904 -1.182654
5.989191 -4.009859 -1.009329
6.608824 -4.419295 -0.925967
0.003488 -0.085342 -0.002441
39.419487 -25.975430 -3.306309
0.003488 -0.085342 -0.002441
0.003488 -0.085342 -0.002441
0.003488 -0.085342 -0.002441
0.003488 -0.085342 -0.002441
0.003488 -0.085342 -0.002441
48.521961 -32.070286 4.053567
0.003488 -0.085342 -0.002441
51.990322 -34.406887 7.274192
43.563145 -28.853388 7.327141
42.914108 -28.445450 8.441251
0.003488 -0.085342 -0.002441
0.505097 -0.418088 -0.359582
2.804972 -1.946017 -1.892661
2.956657 -2.047445 -1.888283
3.139253 -2.170277 -1.893713
3.336799 -2.303234 -1.898233
3.566862 -2.457138 -1.908944
3.784687 -2.603960 -1.900830
4.042962 -2.777958 -1.898853
4.346996 -2.981633 -1.903354
4.728272 -3.238174 -1.922568
5.163345 -3.531018 -1.939396
5.721529 -3.905104 -1.975203
5.840393 -3.987351 -1.841408
5.970992 -4.076043 -1.704395
6.056154 -4.135935 -1.551451
6.074859 -4.151411 -1.380132
6.039804 -4.091281 -1.193640
6.014359 -4.075794 -1.017362
9.207937 -6.200488 -1.294189
0.003481 -0.085141 -0.002440
39.175228 -26.138559 -3.298038
0.003481 -0.085141 -0.002440
0.003481 -0.085141 -0.002440
0.003481 -0.085141 -0.002440
69.719872 -46.571751 1.932577
49.800301 -33.313629 2.781872
0.003481 -0.085141 -0.002440
49.054672 -32.851383 5.493543
45.843433 -30.728529 6.438731
43.126930 -28.922653 7.281870
43.029079 -28.878132 8.496662
44.367805 -29.795578 10.050665
0.503167 -0.420770 -0.359578
2.801480 -1.966783 -1.897539
2.949735 -2.067169 -1.891078
3.131680 -2.191095 -1.896383
3.322492 -2.321172 -1.897351
3.551615 -2.476377 -1.908100
0.003475 -0.084937 -0.002440
4.030481 -2.803040 -1.900276
4.334926 -3.009533 -1.905372
4.710050 -3.265107 -1.922530
5.143435 -3.560448 -1.939355
5.751998 -3.973284 -1.993357
5.861131 -4.049956 -1.855045
6.010780 -4.152662 -1.722340
6.042459 -4.177071 -1.553899
6.085531 -4.209237 -1.387866
6.073978 -4.164263 -1.204949
6.038965 -4.142148 -1.025393
0.003475 -0.084937 -0.002440
0.003475 -0.084937 -0.002440
45.971771 -31.041653 -3.884399
0.003475 -0.084937 -0.002440
0.003475 -0.084937 -0.002440
0.003475 -0.084937 -0.002440
70.090988 -47.403633 1.950950
50.730698 -34.357590 2.845270
0.003475 -0.084937 -0.002440
48.537132 -32.910728 5.457003
44.840553 -30.432478 6.322591
44.203438 -30.011654 7.493021
43.954117 -29.864376 8.713441
44.109909 -29.991529 10.031401
0.496933 -0.420528 -0.356511
2.803577 -1.991489 -1.906336
2.932420 -2.079912 -1.887296
3.119501 -2.208861 -1.896357
3.311065 -2.341056 -1.898181
3.537405 -2.497180 -1.908073
3.756980 -2.647953 -1.901541
4.024029 -2.832279 -1.904611
4.312869 -3.031781 -1.903285
4.690129 -3.290874 -1.921853
5.128099 -3.593005 -1.941103
5.667015 -3.964725 -1.971803
5.873324 -4.107451 -1.866145
6.009041 -4.203415 -1.728751
6.076164 -4.252448 -1.568827
6.114427 -4.281731 -1.400043
6.102615 -4.234440 -1.215283
6.063908 -4.211085 -1.033701
9.091002 -6.274269 -1.287543
7.646673 -5.294287 -0.866443
33.416008 -22.874949 -2.835170
43.286617 -29.617785 -2.451875
0.003469 -0.084734 -0.002440
0.003469 -0.084734 -0.002440
70.459763 -48.244682 1.969476
50.512913 -34.635036 2.844557
49.563892 -34.010315 4.190659
0.003469 -0.084734 -0.002440
0.003469 -0.084734 -0.002440
44.211491 -30.400515 7.525082
0.003469 -0.084734 -0.002440
46.127907 -31.748384 10.532108
0.492102 -0.421294 -0.354466
0.492900 -0.422079 -0.336573
2.923461 -2.099055 -1.889151
3.109786 -2.229127 -1.898125
3.299112 -2.361453 -1.899009
3.524962 -2.518312 -1.908858
3.738695 -2.667867 -1.899968
4.004603 -2.853746 -1.903122
4.298924 -3.058469 -1.904618
4.669477 -3.317321 -1.921173
5.104072 -3.620948 -1.939868
5.627202 -3.984991 -1.965690
5.887520 -4.168455 -1.878258
6.031599 -4.269882 -1.742080
6.108322 -4.326188 -1.583339
6.145054 -4.354765 -1.412591
6.136406 -4.310632 -1.226913
6.100413 -4.287272 -1.043959
0.003462 -0.084533 -0.002439
7.579580 -5.314399 -0.862288
33.156315 -22.978148 -2.824004
43.127270 -29.884956 -2.452458
0.003462 -0.084533 -0.002439
0.003462 -0.084533 -0.002439
70.896423 -49.161926 1.990381
0.003462 -0.084533 -0.002439
48.000301 -33.346809 4.074875
0.003462 -0.084533 -0.002439
46.888542 -32.622974 6.665420
0.003462 -0.084533 -0.002439
43.953392 -30.618303 8.784137
41.133595 -28.679728 9.430324
0.494393 -0.426856 -0.357523
0.486666 -0.421698 -0.333629
2.908929 -2.113603 -1.887249
3.094478 -2.244723 -1.896305
3.291901 -2.384332 -1.902406
3.510907 -2.538338 -1.908829
3.728288 -2.692289 -1.902250
3.993191 -2.879737 -1.905272
4.283307 -3.084021 -1.905268
4.646154 -3.340654 -1.919214
5.091465 -3.655524 -1.942806
5.603106 -4.015980 -1.965093
5.905107 -4.230968 -1.891384
6.050409 -4.334508 -1.754486
6.144619 -4.403806 -1.599098
6.178260 -4.430557 -1.425879
6.162185 -4.380651 -1.236922
6.136225 -4.364010 -1.054216
0.003456 -0.084330 -0.002439
7.524895 -5.340586 -0.859437
0.003456 -0.084330 -0.002439
0.003456 -0.084330 -0.002439
0.003456 -0.084330 -0.002439
0.003456 -0.084330 -0.002439
71.295746 -50.047180 2.010231
0.003456 -0.084330 -0.002439
47.687286 -33.537304 4.064954
45.263454 -31.859518 5.151390
0.003456 -0.084330 -0.002439
44.848209 -31.601231 7.695467
41.284492 -29.117353 8.284161
43.390568 -30.620298 9.988420
0.489599 -0.427494 -0.355476
0.480418 -0.421253 -0.330682
2.900080 -2.132130 -1.889106
3.080540 -2.261245 -1.895387
3.269742 -2.396744 -1.897247
3.502678 -2.562501 -1.912059
3.714735 -2.714550 -1.902996
3.980072 -2.904599 -1.906701
4.269020 -3.110568 -1.906607
4.622718 -3.363828 -1.917264
5.069285 -3.683439 -1.942178
5.588222 -4.053503 -1.967814
5.922125 -4.293805 -1.904520
6.076605 -4.405136 -1.769210
6.215280 -4.506942 -1.624019
6.231573 -4.521691 -1.443994
6.193788 -4.455658 -1.248238
6.169740 -4.440161 -1.064205
0.003448 -0.084133 -0.002435
7.494531 -5.383570 -0.859391
0.003448 -0.084133 -0.002435
0.003448 -0.084133 -0.002435
43.408443 -30.844488 -1.242556
0.003448 -0.084133 -0.002435
0.003448 -0.084133 -0.002435
0.003448 -0.084133 -0.002435
0.003448 -0.084133 -0.002435
0.003448 -0.084133 -0.002435
0.003448 -0.084133 -0.002435
0.003448 -0.084133 -0.002435
41.272755 -29.465132 8.315829
0.003448 -0.084133 -0.002435
0.477816 -0.423088 -0.348326
0.482739 -0.426848 -0.333615
2.891143 -2.150629 -1.890968
3.076667 -2.284958 -1.900753
3.266670 -2.422676 -1.903219
3.486877 -2.581338 -1.911226
3.701043 -2.736741 -1.903746
3.971354 -2.932675 -1.910318
4.251540 -3.134864 -1.906584
4.612994 -3.396783 -1.921081
5.051594 -3.714556 -1.943344
5.557517 -4.079762 -1.965030
5.943370 -4.360379 -1.919185
6.125865 -4.493262 -1.790860
6.208790 -4.556139 -1.628981
6.241021 -4.582546 -1.452114
6.234343 -4.538052 -1.261507
6.202566 -4.516839 -1.074200
7.513762 -5.458261 -1.081627
7.400777 -5.381165 -0.852102
0.003439 -0.083940 -0.002429
0.003439 -0.083940 -0.002429
48.876480 -35.143459 -1.404313
0.003439 -0.083940 -0.002429
0.003439 -0.083940 -0.002429
47.099327 -33.928024 2.696906
72.410812 -52.135075 6.225245
47.649475 -34.359268 5.468112
50.049030 -36.110931 7.203165
0.003439 -0.083940 -0.002429
41.231098 -29.794134 8.341932
41.273190 -29.845486 9.579488
0.482823 -0.430660 -0.353420
0.493438 -0.438598 -0.342425
2.879196 -2.167005 -1.890950
3.063971 -2.302411 -1.900735
3.250236 -2.439091 -1.901488
3.475427 -2.603288 -1.912833
3.685720 -2.757773 -1.903725
3.954897 -2.955254 -1.910295
4.240021 -3.163482 -1.909299
4.590801 -3.420824 -1.919775
5.039891 -3.750083 -1.946893
5.528211 -4.106923 -1.962794
5.968700 -4.430743 -1.935368
6.127135 -4.547700 -1.798671
6.238278 -4.631915 -1.643509
6.273764 -4.661029 -1.465789
6.267785 -4.616429 -1.273480
6.239522 -4.597513 -1.085031
7.447332 -5.475542 -1.076484
7.379848 -5.430444 -0.853181
7.359071 -5.417188 -0.638559
7.469134 -5.500811 -0.433379
0.003431 -0.083744 -0.002424
0.003431 -0.083744 -0.002424
0.003431 -0.083744 -0.002424
0.003431 -0.083744 -0.002424
72.844223 -53.084602 6.288951
47.317886 -34.535263 5.452910
45.921940 -33.542404 6.636748
42.860325 -31.322107 7.446301
0.003431 -0.083744 -0.002424
40.266232 -29.472651 9.384974
0.473856 -0.428130 -0.348310
0.501231 -0.448437 -0.349276
2.864309 -2.181235 -1.889054
3.042501 -2.313443 -1.895332
3.241005 -2.460751 -1.904037
3.458966 -2.622552 -1.912000
3.677712 -2.784184 -1.907560
3.950315 -2.986576 -1.916094
4.223203 -3.189461 -1.909959
4.571531 -3.446965 -1.919751
5.014096 -3.775404 -1.945078
5.505818 -4.140545 -1.963317
5.994983 -4.502691 -1.952057
6.147524 -4.618390 -1.812476
6.274138 -4.715086 -1.660115
6.295512 -4.734133 -1.477240
6.300504 -4.695341 -1.285451
6.268590 -4.675186 -1.094748
7.403367 -5.508681 -1.074590
7.387510 -5.500865 -0.857608
7.349852 -5.477030 -0.640478
7.466808 -5.564754 -0.435022
0.003422 -0.083551 -0.002418
33.311470 -24.579828 -0.005865
33.408127 -24.659216 0.956959
46.907944 -34.615242 2.708932
44.635651 -32.965466 3.869496
44.844807 -33.142773 5.190467
45.746288 -33.818752 6.639497
41.359699 -30.605097 7.216990
42.929199 -31.785654 8.760351
39.968426 -29.608961 9.355166
0.481464 -0.437894 -0.355444
0.492069 -0.445996 -0.344370
2.860324 -2.204276 -1.894670
3.030664 -2.332291 -1.896210
3.222500 -2.476467 -1.901450
3.450147 -2.646553 -1.915233
3.657212 -2.802423 -1.905226
3.927053 -3.005274 -1.913161
4.203741 -3.212364 -1.909251
4.559089 -3.479445 -1.922926
5.002838 -3.812838 -1.949222
5.477753 -4.168486 -1.961633
6.026031 -4.580763 -1.970772
6.171235 -4.690738 -1.827206
6.310079 -4.797744 -1.676723
6.359938 -4.838344 -1.498696
6.326955 -4.772357 -1.296448
6.361348 -4.799443 -1.115603
7.393416 -5.568830 -1.077803
7.412819 -5.587093 -0.864265
0.003413 -0.083359 -0.002412
0.003413 -0.083359 -0.002412
0.003413 -0.083359 -0.002412
0.003413 -0.083359 -0.002412
45.544765 -34.005726 1.311475
0.003413 -0.083359 -0.002412
73.835670 -55.135822 6.430322
50.303818 -37.615749 5.847774
0.003413 -0.083359 -0.002412
0.003413 -0.083359 -0.002412
40.778030 -30.560789 8.357048
0.003413 -0.083359 -0.002412
0.486303 -0.445610 -0.360539
0.508080 -0.462218 -0.357100
2.845255 -2.218363 -1.892775
3.023392 -2.353775 -1.899782
3.207254 -2.493677 -1.900576
3.430963 -2.662849 -1.912772
3.638546 -2.820981 -1.903662
3.910189 -3.027607 -1.913139
4.193183 -3.241941 -1.912649
4.533427 -3.500839 -1.920340
4.970643 -3.833292 -1.945025
5.454159 -4.199718 -1.961605
6.174473 -4.746960 -2.027992
6.202061 -4.769372 -1.844241
6.359295 -4.891583 -1.697074
6.371665 -4.904297 -1.507926
6.361444 -4.854662 -1.309068
6.335719 -4.836943 -1.115851
7.206092 -5.494130 -1.055020
0.003404 -0.083166 -0.002407
0.003404 -0.083166 -0.002407
0.003404 -0.083166 -0.002407
0.003404 -0.083166 -0.002407
45.899647 -34.657978 -0.006812
45.925236 -34.701439 1.328374
46.487083 -35.149456 2.708499
0.003404 -0.083166 -0.002407
0.003404 -0.083166 -0.002407
43.819733 -33.194534 6.415868
41.214321 -31.236090 7.254066
40.406826 -30.646980 8.317037
41.277225 -31.327168 9.746768
0.474604 -0.440906 -0.353389
0.501711 -0.461754 -0.354152
2.831540 -2.233426 -1.891819
3.013120 -2.373083 -1.901559
3.200504 -2.517343 -1.904835
3.417527 -2.683443 -1.913567
3.631553 -2.848369 -1.908268
3.896157 -3.052105 -1.914573
4.177932 -3.268081 -1.913995
4.512195 -3.525506 -1.919676
4.945954 -3.859296 -1.943807
5.422752 -4.224978 -1.958820
6.150621 -4.784542 -2.028974
6.218291 -4.837875 -1.857126
6.373461 -4.959981 -1.708272
6.418709 -4.998034 -1.525675
6.401471 -4.942295 -1.322985
6.380789 -4.928207 -1.128629
7.133731 -5.504022 -1.048950
0.003395 -0.082973 -0.002401
31.471659 -24.032385 -2.770607
0.003395 -0.082973 -0.002401
46.176666 -35.272850 -1.354516
0.003395 -0.082973 -0.002401
0.003395 -0.082973 -0.002401
46.460850 -35.550629 2.719024
0.003395 -0.082973 -0.002401
0.003395 -0.082973 -0.002401
0.003395 -0.082973 -0.002401
44.285870 -33.959850 7.829288
0.003395 -0.082973 -0.002401
0.003395 -0.082973 -0.002401
0.478007 -0.447616 -0.357464
0.493997 -0.460172 -0.350225
2.823317 -2.252695 -1.894619
2.998475 -2.389075 -1.900643
3.186466 -2.535507 -1.904817
3.403954 -2.703962 -1.914360
3.612653 -2.866746 -1.906705
3.884913 -3.078809 -1.917462
4.162511 -3.294145 -1.915340
4.493832 -3.552357 -1.920293
4.925653 -3.888641 -1.944376
5.407963 -4.262950 -1.962100
6.057697 -4.768718 -2.007159
6.244690 -4.915054 -1.873238
6.405617 -5.043082 -1.724463
6.452467 -5.082833 -1.540461
6.442269 -5.031748 -1.337226
6.371659 -4.979110 -1.131939
7.124443 -5.561707 -1.052163
0.003388 -0.082777 -0.002395
31.409266 -24.271250 -2.777175
46.401913 -35.843266 -2.738355
0.003388 -0.082777 -0.002395
46.835320 -36.214417 -0.006539
47.654194 -36.871735 1.391061
44.798409 -34.690922 2.633451
44.452938 -34.435459 3.921962
0.003388 -0.082777 -0.002395
44.279457 -34.348896 6.540915
0.003388 -0.082777 -0.002395
43.601830 -33.859089 9.054722
0.003388 -0.082777 -0.002395
0.477255 -0.451207 -0.358477
0.493186 -0.463870 -0.351198
2.806586 -2.265431 -1.891783
2.989397 -2.409373 -1.903318
3.173709 -2.554694 -1.905653
3.389789 -2.725003 -1.915153
3.600952 -2.890684 -1.908998
3.867611 -3.100896 -1.917440
4.152303 -3.325498 -1.919422
4.475276 -3.579102 -1.920908
4.900668 -3.914346 -1.943158
5.390678 -4.300648 -1.964829
5.995584 -4.775829 -1.995474
6.263411 -4.988979 -1.887504
6.422292 -5.116971 -1.736909
6.572675 -5.238481 -1.576359
6.477557 -5.118188 -1.350493
6.456612 -5.105374 -1.152235
7.119458 -5.623136 -1.056073
0.003379 -0.082584 -0.002390
31.542273 -24.672678 -2.801613
0.003379 -0.082584 -0.002390
0.003379 -0.082584 -0.002390
0.003379 -0.082584 -0.002390
0.003379 -0.082584 -0.002390
0.003379 -0.082584 -0.002390
39.993244 -31.368946 3.544716
43.941593 -34.481747 5.199964
42.071941 -33.028927 6.242765
40.217564 -31.598446 7.174753
44.365211 -34.872997 9.256189
41.557590 -32.681923 9.944972
0.468278 -0.448488 -0.353366
0.495028 -0.469814 -0.354130
2.804700 -2.290563 -1.899279
2.967128 -2.420196 -1.897914
3.156162 -2.571009 -1.903922
3.375970 -2.745381 -1.915947
3.582777 -2.910614 -1.908205
3.849640 -3.123552 -1.917417
4.142400 -3.356108 -1.923503
4.463390 -3.612410 -1.924726
4.873378 -3.939559 -1.941344
5.363295 -4.328986 -1.963698
5.970697 -4.813476 -1.996456
6.276269 -5.057371 -1.899927
6.498944 -5.237528 -1.765576
6.598300 -5.319993 -1.589660
8.314493 -6.626192 -1.740999
7.085737 -5.660580 -1.269996
8.365811 -6.673338 -1.246344
0.003399 -0.082400 -0.002386
31.735497 -25.117958 -2.831359
0.003399 -0.082400 -0.002386
0.003399 -0.082400 -0.002386
0.003399 -0.082400 -0.002386
0.003399 -0.082400 -0.002386
0.003399 -0.082400 -0.002386
50.660835 -40.186516 4.511541
50.554726 -40.130127 6.010370
0.003399 -0.082400 -0.002386
48.749039 -38.739048 8.737144
0.003399 -0.082400 -0.002386
41.168144 -32.772198 9.898142
0.468861 -0.453110 -0.355400
0.491412 -0.471352 -0.353142
2.790585 -2.305354 -1.898323
2.959216 -2.441475 -1.901487
3.141814 -2.588920 -1.903905
3.359189 -2.763414 -1.915115
3.566468 -2.930975 -1.908185
3.830635 -3.144277 -1.916668
4.126448 -3.382027 -1.924849
4.441522 -3.636631 -1.924061
4.852585 -3.968507 -1.941913
5.344789 -4.364370 -1.965876
5.946424 -4.849959 -1.997440
6.300662 -5.135811 -1.916038
6.464614 -5.270943 -1.764296
6.571143 -5.360117 -1.590369
6.603513 -5.340639 -1.389350
6.509906 -5.267772 -1.172220
8.310699 -6.707524 -1.243752
0.003390 -0.082207 -0.002380
31.910585 -25.555056 -2.859845
44.953659 -35.992599 -2.688873
0.003390 -0.082207 -0.002380
44.172523 -35.404549 -0.005778
50.618126 -40.587017 1.498818
0.003390 -0.082207 -0.002380
43.521896 -34.943714 3.893405
0.003390 -0.082207 -0.002380
0.003390 -0.082207 -0.002380
44.985355 -36.177578 8.099653
0.003390 -0.082207 -0.002380
0.003390 -0.082207 -0.002380
0.466702 -0.455589 -0.355392
0.487803 -0.472865 -0.352154
2.783241 -2.325595 -1.902062
2.941431 -2.454883 -1.898777
3.130151 -2.609013 -1.905597
3.343691 -2.782478 -1.915094
3.551440 -2.952388 -1.908935
3.817292 -3.169564 -1.918829
4.117614 -3.413776 -1.929615
4.431317 -3.670264 -1.928520
4.830162 -3.996148 -1.941888
5.333492 -4.405729 -1.970810
5.917397 -4.882659 -1.996903
6.484507 -5.344736 -1.981039
6.521181 -5.378148 -1.787971
6.537604 -5.395133 -1.589594
6.565490 -5.372139 -1.387696
6.469172 -5.296219 -1.170237
6.762096 -5.536180 -1.016981
0.003381 -0.082014 -0.002374
32.117401 -26.023834 -2.891542
45.464130 -36.830612 -2.731775
0.003381 -0.082014 -0.002374
44.015232 -35.695580 -0.005591
50.553646 -41.014446 1.504083
43.561825 -35.377132 2.608911
0.003381 -0.082014 -0.002374
0.003381 -0.082014 -0.002374
46.924911 -38.166992 7.061317
44.575531 -36.271984 8.063398
38.047955 -30.993166 8.048396
40.045074 -32.638119 9.717840
0.461878 -0.455882 -0.353344
0.482853 -0.473251 -0.350188
2.767537 -2.339119 -1.900166
2.929126 -2.472687 -1.899657
3.122564 -2.632491 -1.909858
3.330933 -2.803770 -1.916702
3.542018 -2.978407 -1.912770
3.800901 -3.192440 -1.919535
4.099846 -3.438393 -1.930277
4.410592 -3.695483 -1.928495
4.809051 -4.024871 -1.942459
5.318938 -4.444670 -1.974642
5.894163 -4.920089 -1.998392
6.491718 -5.412625 -1.992537
6.495160 -5.419096 -1.789187
6.748253 -5.630983 -1.648456
6.538002 -5.412103 -1.388312
6.436014 -5.330635 -1.169649
6.776760 -5.612463 -1.023908
0.003372 -0.081821 -0.002369
32.295124 -26.475615 -2.921002
0.003372 -0.081821 -0.002369
0.003372 -0.081821 -0.002369
50.405033 -41.347904 -0.005858
43.507477 -35.724976 1.300375
0.003372 -0.081821 -0.002369
0.003372 -0.081821 -0.002369
42.779778 -35.188366 5.157451
42.036694 -34.602150 6.355410
38.554340 -31.752625 7.006826
38.003651 -31.321585 8.077085
38.248199 -31.544130 9.325600
0.459700 -0.458319 -0.353336
0.475193 -0.471367 -0.346260
2.755863 -2.355915 -1.901087
2.913933 -2.488144 -1.898741
3.103647 -2.646739 -1.907271
3.313820 -2.821514 -1.915870
3.529572 -3.002059 -1.915063
3.782941 -3.214044 -1.919513
4.083349 -3.464106 -1.931622
4.391205 -3.721796 -1.929112
4.790680 -4.055914 -1.944220
5.287841 -4.470072 -1.972409
5.879617 -4.964832 -2.002921
6.453448 -5.443444 -1.990198
6.512472 -5.496192 -1.802463
7.033434 -5.933550 -1.726206
6.770541 -5.666735 -1.444389
8.111682 -6.775796 -1.480643
6.749420 -5.654939 -1.024570
26.803524 -22.237923 -3.248292
32.520996 -26.973522 -2.955206
0.003363 -0.081629 -0.002363
44.979527 -37.327560 -1.361098
78.022423 -64.712471 -0.007464
0.003363 -0.081629 -0.002363
42.957600 -35.713524 2.597465
42.794033 -35.589504 3.883090
41.768177 -34.761944 5.059596
0.003363 -0.081629 -0.002363
38.336460 -31.944530 7.000594
37.902184 -31.605076 8.094106
39.645145 -33.077339 9.712633
0.448239 -0.453108 -0.346188
0.478219 -0.478432 -0.350172
2.745062 -2.374264 -1.902949
2.902359 -2.507454 -1.900517
3.087007 -2.663714 -1.906397
3.298906 -2.842059 -1.916662
3.500870 -3.013222 -1.908874
3.767180 -3.238592 -1.920947
4.058918 -3.484411 -1.929547
4.373892 -3.751197 -1.931008
4.762659 -4.080341 -1.942406
5.267637 -4.506071 -1.974586
5.856493 -5.004361 -2.004916
6.429021 -5.487652 -1.992471
6.722700 -5.738587 -1.869807
7.209065 -6.152206 -1.778026
7.134161 -6.038038 -1.529331
7.257246 -6.142847 -1.331357
7.037825 -5.963500 -1.073498
26.632017 -22.362946 -3.243337
32.757301 -27.497248 -2.991220
0.003356 -0.081432 -0.002357
0.003356 -0.081432 -0.002357
78.533028 -65.923965 -0.007177
49.919781 -41.961994 1.507377
0.003356 -0.081432 -0.002357
45.158672 -38.005634 4.118343
44.735840 -37.676147 5.446390
41.153263 -34.688805 6.282862
40.877956 -34.468525 7.502179
41.401562 -34.932755 8.885850
39.369186 -33.244373 9.693189
0.456579 -0.464345 -0.354341
0.471926 -0.477586 -0.347225
0.481888 -0.486145 -0.335703
2.889729 -2.525055 -1.901398
3.069805 -2.678351 -1.904667
3.281595 -2.859605 -1.915830
3.493814 -3.041464 -1.914251
3.749521 -3.259349 -1.920927
4.040700 -3.508706 -1.930208
4.357694 -3.779006 -1.932906
4.744645 -4.110343 -1.944169
5.234770 -4.529861 -1.971802
5.836318 -5.043009 -2.007420
6.525236 -5.632810 -2.032100
6.899543 -5.953342 -1.928000
7.420426 -6.401161 -1.838734
0.003347 -0.081240 -0.002351
0.003347 -0.081240 -0.002351
7.548313 -6.464279 -1.156767
26.418295 -22.443506 -3.232811
33.133465 -28.137575 -3.040077
0.003347 -0.081240 -0.002351
0.003347 -0.081240 -0.002351
44.634354 -37.941048 -0.004917
0.003347 -0.081240 -0.002351
48.071297 -40.897686 2.935622
0.003347 -0.081240 -0.002351
44.390385 -37.810078 5.430050
0.003347 -0.081240 -0.002351
40.668880 -34.693882 7.500409
40.494217 -34.556469 8.732374
39.629395 -33.843071 9.803680
0.453121 -0.465559 -0.353314
0.464424 -0.475477 -0.343299
0.484930 -0.493300 -0.339453
2.873317 -2.538596 -1.899584
3.060303 -2.700460 -1.908072
3.271110 -2.882984 -1.919066
3.469723 -3.055292 -1.910376
3.728347 -3.278229 -1.919451
4.025201 -3.535360 -1.932238
4.348627 -3.815671 -1.938644
4.727925 -4.144412 -1.947122
5.210553 -4.560943 -1.972325
5.821451 -5.089920 -2.012454
6.501075 -5.678801 -2.034834
7.140668 -6.233983 -2.005738
7.658198 -6.682274 -1.907217
0.003338 -0.081047 -0.002346
0.003338 -0.081047 -0.002346
16.790850 -14.444693 -2.583062
26.212994 -22.521666 -3.222848
38.513714 -33.075909 -3.550572
0.003338 -0.081047 -0.002346
49.932053 -42.901993 -1.532163
49.248196 -42.344212 -0.004983
0.003338 -0.081047 -0.002346
41.913273 -36.098129 2.572424
47.108276 -40.575897 4.338895
41.524120 -35.799622 5.105265
0.003338 -0.081047 -0.002346
39.949821 -34.492012 7.405422
0.003338 -0.081047 -0.002346
44.144051 -38.143257 10.976735
0.450754 -0.468102 -0.353306
0.467261 -0.482651 -0.347210
0.489145 -0.501735 -0.344140
2.866387 -2.562901 -1.904952
3.044724 -2.718344 -1.908053
3.255814 -2.903306 -1.919859
3.463180 -3.085276 -1.916523
3.714942 -3.304942 -1.922338
4.006074 -3.560179 -1.932899
4.325629 -3.839169 -1.937979
4.705892 -4.172577 -1.947691
5.178084 -4.586481 -1.970091
5.786721 -5.118036 -2.010399
6.471692 -5.718449 -2.035724
7.320055 -6.459919 -2.066008
0.003329 -0.080854 -0.002340
7.927611 -6.938282 -1.724462
0.003329 -0.080854 -0.002340
16.678881 -14.525852 -2.579270
25.998854 -22.614450 -3.213247
38.537548 -33.494209 -3.570779
0.003329 -0.080854 -0.002340
0.003329 -0.080854 -0.002340
0.003329 -0.080854 -0.002340
44.079872 -38.390400 1.351324
41.605877 -36.251896 2.566463
41.823521 -36.465805 3.871843
41.073124 -35.824574 5.075173
41.177536 -35.939762 6.380699
38.467121 -33.601963 7.166280
41.917049 -36.620453 9.131132
0.003329 -0.080854 -0.002340
0.452468 -0.473799 -0.356359
0.457147 -0.478152 -0.341325
0.497391 -0.513551 -0.351643
2.845770 -2.572749 -1.900447
3.033566 -2.739178 -1.910601
3.236777 -2.919367 -1.918213
3.446350 -3.104333 -1.916502
3.700531 -3.329737 -1.924500
3.983163 -3.580471 -1.931508
4.308224 -3.867542 -1.939878
4.692317 -4.208204 -1.951837
5.154991 -4.618528 -1.971167
5.757646 -5.151031 -2.010369
6.442096 -5.757954 -2.036614
7.292381 -6.512037 -2.068882
8.474881 -7.560450 -2.131955
0.003320 -0.080661 -0.002334
12.299736 -10.849418 -2.300100
16.566675 -14.590961 -2.574324
25.794889 -22.690645 -3.203471
38.530689 -33.878269 -3.587920
49.390720 -43.419193 -3.068772
0.003320 -0.080661 -0.002334
48.193863 -42.426281 -0.004529
0.003320 -0.080661 -0.002334
41.359596 -36.457420 2.564315
0.003320 -0.080661 -0.002334
0.003320 -0.080661 -0.002334
43.467098 -38.375454 6.769871
38.492001 -34.014988 7.207355
39.145405 -34.614433 8.571791
0.003320 -0.080661 -0.002334
0.451425 -0.477407 -0.357373
0.461301 -0.486425 -0.346216
0.489551 -0.511599 -0.347881
2.833621 -2.591733 -1.902224
3.015058 -2.754504 -1.908872
3.219037 -2.936522 -1.917380
3.421470 -3.118366 -1.912627
3.674248 -3.345212 -1.920840
3.968585 -3.608115 -1.934223
4.289936 -3.896573 -1.941773
4.662063 -4.230650 -1.949428
5.133098 -4.651733 -1.972794
5.717392 -5.175844 -2.006793
6.431115 -5.814140 -2.043499
7.259637 -6.557579 -2.070093
8.431715 -7.608866 -2.131914
9.980058 -8.916779 -2.192356
12.244998 -10.926348 -2.301435
16.458103 -14.668918 -2.570767
25.585960 -22.776842 -3.194062
38.519192 -34.262032 -3.604921
49.990421 -44.472412 -3.122066
0.003311 -0.080469 -0.002329
49.592209 -44.162922 -0.004388
42.845917 -38.191536 1.327180
41.661083 -37.162636 2.596807
0.003311 -0.080469 -0.002329
0.003311 -0.080469 -0.002329
0.003311 -0.080469 -0.002329
38.356754 -34.289680 7.218930
41.933506 -37.505245 9.229727
38.473698 -34.440399 9.714402
0.443994 -0.475192 -0.353284
0.457634 -0.487692 -0.345227
0.494921 -0.521266 -0.353506
2.820458 -2.608974 -1.903104
2.998748 -2.769860 -1.907998
3.202529 -2.954774 -1.917360
3.410804 -3.143956 -1.916462
3.660132 -3.369183 -1.923002
3.946813 -3.629411 -1.933515
4.271403 -3.922770 -1.943031
4.640261 -4.257657 -1.949999
5.101005 -4.675824 -1.970561
5.700356 -5.217808 -2.010815
6.416809 -5.867779 -2.049462
7.223394 -6.597758 -2.070058
8.383771 -7.650304 -2.130393
9.934935 -8.979094 -2.193605
12.185371 -10.999041 -2.301935
16.357645 -14.748549 -2.568141
25.370525 -22.847622 -3.183357
44.111820 -39.681000 -4.149075
48.484413 -43.636150 -3.043451
48.033680 -43.245239 -1.503416
47.699032 -42.973476 -0.004113
42.701771 -38.505363 1.329731
41.631771 -37.554611 2.608155
29.475714 -26.629559 2.770386
42.981293 -38.808201 5.393489
40.719238 -36.794640 6.407475
42.039745 -38.010963 7.953512
41.719677 -37.734364 9.228931
0.003302 -0.080276 -0.002323
0.437967 -0.473990 -0.350217
0.454060 -0.488857 -0.344240
0.501619 -0.532119 -0.360072
2.807642 -2.625663 -1.903985
2.987231 -2.790501 -1.910546
3.187303 -2.974172 -1.918155
3.389553 -3.158998 -1.914129
3.643898 -3.392480 -1.924436
3.929128 -3.654384 -1.934862
4.253433 -3.950896 -1.944929
4.620391 -4.287931 -1.951762
5.078739 -4.708769 -1.972188
5.663560 -5.243781 -2.008252
6.374772 -5.896509 -2.046662
7.199090 -6.653442 -2.074180
8.344543 -7.704950 -2.131832
9.886612 -9.035489 -2.193884
12.116496 -11.063424 -2.300765
16.260866 -14.826006 -2.565748
25.159100 -22.912287 -3.172655
38.597511 -35.133076 -3.649387
0.003293 -0.080083 -0.002317
0.003293 -0.080083 -0.002317
47.381966 -43.183670 -0.003904
42.809155 -39.036110 1.340019
41.567638 -37.931805 2.617928
0.003293 -0.080083 -0.002317
42.811317 -39.117058 5.401296
43.288452 -39.564953 6.847773
38.874813 -35.562759 7.393201
38.147202 -34.922066 8.484119
38.176163 -34.959812 9.738798
0.436881 -0.477526 -0.351229
0.455472 -0.494862 -0.347172
0.497615 -0.533674 -0.359125
2.791193 -2.640841 -1.903070
2.964469 -2.801835 -1.906250
3.169269 -2.991014 -1.917323
3.369886 -3.177575 -1.913338
3.625586 -3.415075 -1.925143
3.902964 -3.671623 -1.932103
4.226236 -3.971974 -1.942984
4.610818 -4.329273 -1.958290
5.056281 -4.741612 -1.973816
5.628615 -5.273120 -2.006704
6.334069 -5.926272 -2.044324
7.171235 -6.703835 -2.077056
8.297652 -7.749944 -2.131050
9.826077 -9.087047 -2.192214
12.058952 -11.138083 -2.301822
16.179037 -14.927283 -2.566600
24.945587 -22.989388 -3.162691
38.653805 -35.591881 -3.673781
0.003284 -0.079890 -0.002312
0.003284 -0.079890 -0.002312
0.003284 -0.079890 -0.002312
41.005253 -37.840958 1.290632
40.910629 -37.779232 2.590735
28.942408 -26.758215 2.749165
37.858356 -35.001171 4.801534
41.570652 -38.451626 6.611990
39.317554 -36.383488 7.517215
0.003284 -0.079890 -0.002312
36.515587 -33.841549 9.366113
0.432057 -0.477482 -0.349181
0.446680 -0.491333 -0.342265
0.492415 -0.533918 -0.357240
2.777712 -2.657861 -1.903949
2.950072 -2.819861 -1.907087
3.159144 -3.015204 -1.921371
3.357414 -3.201727 -1.916402
3.604976 -3.434396 -1.924394
3.891854 -3.702770 -1.936869
4.206537 -3.998591 -1.944240
4.586282 -4.355510 -1.958265
5.030782 -4.771718 -1.974340
5.592988 -5.299917 -2.004648
6.306004 -5.967710 -2.046135
7.143000 -6.754114 -2.079930
8.254848 -7.798688 -2.131381
9.778458 -9.147242 -2.193141
12.003844 -11.215140 -2.303436
16.042398 -14.972583 -2.558406
24.740473 -23.064522 -3.153290
38.707550 -36.053844 -3.698313
0.003276 -0.079698 -0.002306
0.003276 -0.079698 -0.002306
53.986774 -50.339272 -0.003676
41.088711 -38.356754 1.300366
40.041355 -37.406128 2.549377
28.737375 -26.876411 2.744411
41.669239 -38.962551 5.313622
0.003276 -0.079698 -0.002306
40.484425 -37.894554 7.782061
36.864323 -34.536083 8.286685
38.165165 -35.776081 9.842072
0.429737 -0.479744 -0.349172
0.441753 -0.491298 -0.340299
0.498796 -0.544995 -0.363805
2.761518 -2.672358 -1.903034
2.936886 -2.839049 -1.908780
3.136362 -3.028658 -1.918097
3.338063 -3.219517 -1.915612
3.591033 -3.459974 -1.927283
3.867598 -3.722991 -1.935480
4.182547 -4.021214 -1.943576
4.565781 -4.385547 -1.960027
5.011252 -4.809160 -1.977619
5.562861 -5.331794 -2.004619
6.265358 -5.999432 -2.044259
7.107575 -6.800156 -2.081141
8.208938 -7.847261 -2.131338
9.720367 -9.197725 -2.191796
11.950650 -11.298084 -2.305884
15.934748 -15.044005 -2.554853
24.584623 -23.184422 -3.150206
38.750916 -36.524368 -3.722839
0.003267 -0.079505 -0.002300
0.003267 -0.079505 -0.002300
53.182808 -50.182240 -0.003425
40.576839 -38.317993 1.291266
39.798355 -37.609577 2.547781
28.525824 -26.996756 2.739520
41.406193 -39.178535 5.309722
40.762535 -38.583130 6.553817
0.003267 -0.079505 -0.002300
0.003267 -0.079505 -0.002300
38.754356 -36.747238 10.048481
0.426107 -0.480891 -0.348145
0.445645 -0.499712 -0.345191
0.493451 -0.545298 -0.361919
2.748691 -2.690932 -1.904811
2.921811 -2.857451 -1.909618
3.124132 -3.052029 -1.921333
3.324733 -3.244124 -1.918675
3.570951 -3.480994 -1.927263
3.850004 -3.749529 -1.937509
4.156384 -4.043113 -1.942273
4.542950 -4.414959 -1.961194
4.985931 -4.841228 -1.978695
5.527442 -5.360452 -2.003070
6.231563 -6.037593 -2.044687
7.077506 -6.851423 -2.084015
8.165596 -7.898289 -2.132038
9.670462 -9.259046 -2.192722
11.891124 -11.375328 -2.307218
15.847232 -15.139348 -2.555011
24.382322 -23.267756 -3.141732
41.462128 -39.539970 -4.005369
0.003259 -0.079309 -0.002295
0.003259 -0.079309 -0.002295
0.003259 -0.079309 -0.002295
0.003259 -0.079309 -0.002295
40.177883 -38.419743 2.586801
0.003259 -0.079309 -0.002295
41.146355 -39.396889 5.306379
40.513485 -38.804607 6.550749
41.361412 -39.641796 8.040708
39.947556 -38.315018 9.081677
38.510761 -36.951584 10.041991
0.426332 -0.485428 -0.350178
0.439499 -0.498344 -0.342243
0.488296 -0.545380 -0.360034
2.735374 -2.707254 -1.905692
2.903650 -2.870981 -1.907889
3.104863 -3.066660 -1.919687
3.303048 -3.258568 -1.916343
3.550581 -3.499353 -1.926515
3.825407 -3.766815 -1.935435
4.141007 -4.072596 -1.945451
4.524165 -4.445320 -1.963551
4.963430 -4.872756 -1.980322
5.503462 -5.396366 -2.005068
6.212227 -6.085578 -2.049267
7.039645 -6.890583 -2.083982
8.121871 -7.943502 -2.131999
9.617671 -9.311257 -2.192351
11.823653 -11.437148 -2.306329
15.771570 -15.235547 -2.556332
24.159334 -23.313452 -3.129550
41.616577 -40.131508 -4.041612
0.003251 -0.079112 -0.002289
0.003251 -0.079112 -0.002289
0.003251 -0.079112 -0.002289
39.873745 -38.530609 1.283219
39.605457 -38.297577 2.563776
39.699821 -38.414436 3.856153
41.006603 -39.703045 5.316954
0.003251 -0.079112 -0.002289
39.421890 -38.209614 7.704940
37.554131 -36.427299 8.583512
38.109623 -36.976910 9.991053
0.420232 -0.484146 -0.347111
0.444503 -0.508024 -0.348114
0.477912 -0.540663 -0.354392
2.719766 -2.723214 -1.905675
2.893522 -2.894236 -1.912149
3.088928 -3.085533 -1.920482
3.286792 -3.280459 -1.917865
3.532897 -3.522724 -1.927948
3.804139 -3.788551 -1.935414
4.117280 -4.096864 -1.945428
4.503686 -4.477189 -1.965910
4.933015 -4.898331 -1.979193
5.480152 -5.436800 -2.008077
6.188685 -6.131889 -2.052924
6.989151 -6.919804 -2.080619
8.076485 -7.989877 -2.131959
9.558547 -9.363765 -2.191332
11.743912 -11.490957 -2.303489
15.681458 -15.328546 -2.556257
24.004070 -23.439352 -3.127209
41.298309 -40.285126 -4.032920
52.722496 -51.442627 -3.435217
0.003242 -0.078920 -0.002283
42.943371 -41.956661 -0.002657
42.721691 -41.768501 1.383180
0.003242 -0.078920 -0.002283
39.791203 -38.947281 3.886877
0.003242 -0.078920 -0.002283
39.102455 -38.325871 6.393609
38.317158 -37.569801 7.531151
41.282810 -40.498920 9.489255
37.916885 -37.228031 9.998261
0.427702 -0.495994 -0.355265
0.437061 -0.505477 -0.344189
0.475261 -0.543201 -0.354385
2.707035 -2.741107 -1.907452
2.876006 -2.909362 -1.911276
3.073662 -3.106145 -1.922090
3.265689 -3.296510 -1.916304
3.511717 -3.541476 -1.927201
3.784756 -3.813465 -1.936760
4.096783 -4.122931 -1.946685
4.479671 -4.504157 -1.966481
4.912577 -4.935390 -1.982474
5.446494 -5.465303 -2.007036
6.158249 -6.173736 -2.054737
6.948490 -6.960901 -2.080583
8.032240 -8.040165 -2.132658
0.003233 -0.078727 -0.002278
11.676064 -11.560146 -2.303432
15.570842 -15.395998 -2.552475
23.804028 -23.512566 -3.118556
40.964077 -40.435162 -4.023387
0.003233 -0.078727 -0.002278
0.003233 -0.078727 -0.002278
0.003233 -0.078727 -0.002278
40.268559 -39.829033 1.311189
39.501743 -39.098263 2.586765
38.779724 -38.410770 3.810327
39.623596 -39.271328 5.196933
0.003233 -0.078727 -0.002278
40.396645 -40.075825 7.986692
0.003233 -0.078727 -0.002278
38.015224 -37.755222 10.081375
0.420331 -0.493456 -0.351177
0.436986 -0.510307 -0.346140
0.471221 -0.544544 -0.353437
2.698814 -2.764469 -1.912820
2.858396 -2.924374 -1.910403
3.053604 -3.120985 -1.920444
3.247867 -3.316904 -1.917055
3.494356 -3.564039 -1.928635
3.763205 -3.834963 -1.936738
4.073457 -4.146224 -1.946662
4.454141 -4.529641 -1.966457
4.894052 -4.972873 -1.986306
5.409945 -5.490857 -2.004981
6.118961 -6.204718 -2.053322
6.909976 -6.999337 -2.080548
7.989105 -8.086026 -2.132990
0.003224 -0.078534 -0.002272
0.003224 -0.078534 -0.002272
0.003224 -0.078534 -0.002272
0.003224 -0.078534 -0.002272
0.003224 -0.078534 -0.002272
0.003224 -0.078534 -0.002272
0.003224 -0.078534 -0.002272
48.405991 -48.399475 -0.002279
40.053471 -40.087978 1.312067
39.682209 -39.729923 2.613677
38.370941 -38.445362 3.791942
40.113949 -40.201302 5.290736
0.003224 -0.078534 -0.002272
0.003224 -0.078534 -0.002272
37.628036 -37.777466 8.748395
38.212826 -38.389137 10.192264
0.420422 -0.498019 -0.353209
0.429628 -0.507577 -0.342213
0.471094 -0.549464 -0.355308
2.679996 -2.775461 -1.910110
2.839417 -2.937990 -1.908673
3.036059 -3.138294 -1.920426
3.233659 -3.338695 -1.919349
3.478191 -3.587847 -1.930797
3.742862 -3.857675 -1.937401
4.052670 -4.172079 -1.947921
4.427100 -4.553618 -1.965836
4.855022 -4.989795 -1.981870
5.377358 -5.520301 -2.004446
6.052161 -6.207740 -2.042683
6.877082 -7.048316 -2.083008
7.933237 -8.124632 -2.130729
8.347753 -8.471437 -1.946719
0.003215 -0.078341 -0.002266
0.003215 -0.078341 -0.002266
0.003215 -0.078341 -0.002266
0.003215 -0.078341 -0.002266
8.395520 -8.541996 -0.558071
0.003215 -0.078341 -0.002266
48.260925 -48.811909 -0.002068
0.003215 -0.078341 -0.002266
39.744293 -40.251312 2.633137
38.573174 -39.093716 3.834246
40.183319 -40.749783 5.331790
38.655720 -39.216167 6.430593
0.003215 -0.078341 -0.002266
37.517540 -38.114811 8.775154
37.914505 -38.529713 10.171694
0.411894 -0.494158 -0.348101
0.423427 -0.506177 -0.339268
0.457154 -0.540693 -0.346849
2.666485 -2.793645 -1.911888
2.826210 -2.958432 -1.911222
3.019686 -3.156806 -1.921221
3.211673 -3.354949 -1.917786
3.458614 -3.609519 -1.931503
3.724986 -3.882960 -1.939430
4.028331 -4.195814 -1.947897
4.403172 -4.582302 -1.967003
4.840127 -5.031191 -1.987357
5.340956 -5.547714 -2.002897
6.022255 -6.247822 -2.044497
6.834160 -7.084755 -2.082142
7.886823 -8.169924 -2.130689
9.326902 -9.567936 -2.187905
8.273136 -8.498122 -1.660867
8.236775 -8.466738 -1.374676
8.244285 -8.480034 -1.100181
8.215260 -8.453147 -0.822395
0.003207 -0.078149 -0.002261
0.003207 -0.078149 -0.002261
46.372265 -47.446342 -0.001871
0.003207 -0.078149 -0.002261
39.710770 -40.695946 2.647015
38.487553 -39.457428 3.848367
0.003207 -0.078149 -0.002261
41.626675 -42.726887 6.967182
38.393360 -39.426651 7.724169
40.988998 -42.115364 9.643998
37.761341 -38.830944 10.192233
0.407083 -0.493840 -0.346053
0.425806 -0.513397 -0.343179
0.458166 -0.546903 -0.349658
0.482224 -0.572016 -0.347746
2.809606 -2.974433 -1.911205
3.001913 -3.173912 -1.921202
3.195356 -3.375819 -1.919310
3.436961 -3.627808 -1.930756
3.706971 -3.908175 -1.941462
3.999305 -4.213258 -1.945313
4.378519 -4.608721 -1.967574
4.806204 -5.053207 -1.985125
5.305360 -5.573956 -2.001348
5.990716 -6.286354 -2.045849
6.799176 -7.129375 -2.083771
7.834671 -8.209278 -2.129168
9.285908 -9.635376 -2.191102
11.415722 -11.832011 -2.304606
8.238188 -8.565096 -1.382986
8.204128 -8.535686 -1.101254
8.255795 -8.591729 -0.831281
0.003198 -0.077956 -0.002255
0.003198 -0.077956 -0.002255
0.003198 -0.077956 -0.002255
45.388096 -47.009029 1.514092
0.003198 -0.077956 -0.002255
40.450623 -41.945068 4.068995
38.780476 -40.243332 5.206912
44.082577 -45.765961 7.422480
38.226822 -39.709343 7.736588
38.712669 -40.240089 9.162650
37.787289 -39.306347 10.260168
0.410637 -0.502172 -0.351147
0.424483 -0.516882 -0.344150
0.455453 -0.549320 -0.349651
0.481820 -0.577144 -0.349532
2.790399 -2.987731 -1.909476
2.982248 -3.190120 -1.920370
3.172493 -3.389934 -1.916978
