# This PCD file was generated using the MATLAB® pcwrite function
# from Computer Vision Toolbox®.
# .PCD v.7 - Point Cloud Data file format
VERSION .7
FIELDS x y z
SIZE 4 4 4
TYPE F F F
COUNT 1 1 1
WIDTH 1627
HEIGHT 1
VIEWPOINT 0 0 0 1 0 0 0
POINTS 1627
DATA ascii
0.469500 -0.448894 -0.352846
0.500379 -0.473389 -0.356558
2.802779 -2.279972 -1.894876
2.969586 -2.412555 -1.896472
3.157894 -2.561328 -1.901776
3.380408 -2.738052 -1.915632
3.586048 -2.901760 -1.907235
3.853799 -3.113505 -1.916629
4.124294 -3.328732 -1.912636
4.462534 -3.596392 -1.921768
4.906085 -3.948640 -1.951919
5.361517 -4.310761 -1.961042
5.932606 -4.763048 -1.981652
6.067995 -4.873385 -1.835427
6.232415 -5.005076 -1.691807
6.256677 -5.027852 -1.506362
6.251163 -4.982928 -1.308810
6.224163 -4.963565 -1.115536
7.334976 -5.839152 -1.093190
7.303904 -5.818944 -0.870971
7.323021 -5.836110 -0.655822
0.003817 -0.083936 -0.001701
45.780186 -36.099258 -1.373752
0.003817 -0.083936 -0.001701
40.109234 -31.683636 1.166405
45.939365 -36.290714 2.706014
0.003817 -0.083936 -0.001701
47.588459 -37.631824 5.632622
41.671452 -32.986858 6.188768
43.859055 -34.739559 7.834532
0.003817 -0.083936 -0.001701
40.126091 -31.824574 9.619204
0.463274 -0.448242 -0.349778
0.491224 -0.470708 -0.351652
2.795256 -2.300717 -1.898637
2.959918 -2.433220 -1.899168
3.146940 -2.583688 -1.904345
3.361761 -2.755537 -1.914007
3.569278 -2.922731 -1.907238
3.833787 -3.135569 -1.915905
4.112346 -3.358747 -1.916065
4.438060 -3.620958 -1.920491
4.867516 -3.966364 -1.945963
5.345378 -4.349426 -1.964361
5.971964 -4.853273 -2.004483
6.100283 -4.957625 -1.853906
6.269500 -5.096545 -1.710144
6.335326 -5.152905 -1.532711
6.280784 -5.066283 -1.321168
6.302179 -5.085117 -1.134799
7.162321 -5.772285 -1.072498
0.003812 -0.083740 -0.001695
0.003812 -0.083740 -0.001695
0.003812 -0.083740 -0.001695
0.003812 -0.083740 -0.001695
39.706917 -31.726398 -0.019009
47.177643 -37.707809 1.378635
44.390469 -35.510624 2.627290
43.986092 -35.200859 3.914622
0.003812 -0.083740 -0.001695
49.963142 -40.031223 7.456573
40.114159 -32.167839 7.199121
43.175629 -34.641811 9.064330
0.003812 -0.083740 -0.001695
0.469194 -0.457140 -0.355897
0.490338 -0.474402 -0.352627
2.782452 -2.316537 -1.898638
2.944956 -2.448863 -1.898271
3.133924 -2.602662 -1.905204
3.350581 -2.778038 -1.916451
3.552906 -2.942996 -1.907242
3.817606 -3.158512 -1.916636
4.089051 -3.378582 -1.914015
4.419107 -3.647388 -1.921137
4.843612 -3.992869 -1.945372
5.322251 -4.381079 -1.964920
6.000091 -4.932321 -2.023257
6.123600 -5.034019 -1.869617
6.296812 -5.177832 -1.725563
6.324392 -5.203876 -1.537172
6.322781 -5.158937 -1.336123
6.293364 -5.137174 -1.138435
7.092322 -5.783281 -1.066925
7.130929 -5.818485 -0.858315
31.257341 -25.241381 -2.821044
0.003804 -0.083551 -0.001690
0.003804 -0.083551 -0.001690
0.003804 -0.083551 -0.001690
0.003804 -0.083551 -0.001690
0.003804 -0.083551 -0.001690
39.627289 -32.095192 3.542737
43.536694 -35.279106 5.201668
41.686440 -33.807682 6.249721
39.939823 -32.406452 7.200972
43.922516 -35.655704 9.263869
41.162743 -33.444614 9.961663
0.459038 -0.453119 -0.349769
0.486735 -0.475905 -0.351643
2.770915 -2.333392 -1.899577
2.932694 -2.466675 -1.899171
3.120771 -2.621563 -1.906062
3.334567 -2.797629 -1.916454
3.543547 -2.968993 -1.911102
3.801290 -3.181371 -1.917367
4.078185 -3.409661 -1.918127
4.402941 -3.676117 -1.923065
4.818070 -4.018014 -1.944184
5.296697 -4.412321 -1.964928
5.897239 -4.905269 -1.997908
6.145333 -5.111903 -1.885326
6.311885 -5.252014 -1.738067
6.374487 -5.307079 -1.556845
6.347089 -5.238554 -1.347505
6.332438 -5.230380 -1.151001
7.087162 -5.846314 -1.071124
7.094756 -5.856663 -0.857954
31.443373 -25.699348 -2.851540
44.737328 -36.544258 -2.712887
0.003797 -0.083358 -0.001684
0.003797 -0.083358 -0.001684
0.003797 -0.083358 -0.001684
0.003797 -0.083358 -0.001684
0.003797 -0.083358 -0.001684
50.332027 -41.268215 6.042829
0.003797 -0.083358 -0.001684
0.003797 -0.083358 -0.001684
42.677715 -35.067944 9.044716
40.816769 -33.554626 9.924236
0.460799 -0.458887 -0.352826
0.472283 -0.468602 -0.342816
2.761607 -2.352917 -1.902397
2.919890 -2.484923 -1.900070
3.104270 -2.638642 -1.905207
3.316058 -2.814212 -1.914827
3.523520 -2.987367 -1.909562
3.787178 -3.207179 -1.919556
4.066204 -3.438815 -1.921553
4.383022 -3.703126 -1.923710
4.796153 -4.047493 -1.944788
5.274659 -4.444932 -1.966038
5.865578 -4.937436 -1.996902
6.165765 -5.187905 -1.900575
6.340795 -5.336698 -1.754320
6.404842 -5.393622 -1.571694
6.391102 -5.337276 -1.363436
6.370027 -5.321863 -1.163288
7.036044 -5.874096 -1.068578
0.003790 -0.083165 -0.001678
31.612684 -26.140917 -2.880493
0.003790 -0.083165 -0.001678
0.003790 -0.083165 -0.001678
43.707981 -36.177376 -0.021332
50.018215 -41.418686 1.482244
50.635921 -41.959431 3.039598
0.003790 -0.083165 -0.001678
0.003790 -0.083165 -0.001678
48.251545 -40.059719 7.303592
44.556927 -37.012016 8.110674
38.418427 -31.946974 8.180399
0.003790 -0.083165 -0.001678
0.457312 -0.460221 -0.351801
0.474062 -0.474441 -0.345752
2.753942 -2.373063 -1.906157
2.907382 -2.502598 -1.900969
3.090907 -2.657390 -1.906066
3.298911 -2.831855 -1.914017
3.509597 -3.009730 -1.911108
3.764865 -3.225109 -1.917376
4.055491 -3.469156 -1.925666
4.362127 -3.728053 -1.923716
4.770319 -4.072330 -1.943600
5.248005 -4.473737 -1.965493
5.836081 -4.969622 -1.996404
6.188510 -5.266806 -1.916747
6.364430 -5.418108 -1.769325
6.563842 -5.589341 -1.618448
6.421448 -5.424213 -1.376443
6.412835 -5.419003 -1.176691
8.281492 -6.979779 -1.263546
0.003783 -0.082976 -0.001672
31.814720 -26.615936 -2.912814
45.018753 -37.656273 -2.756556
0.003783 -0.082976 -0.001672
49.723103 -41.628044 -0.024263
0.003783 -0.082976 -0.001672
43.091923 -36.139019 2.598768
50.836121 -42.634914 4.610658
0.003783 -0.082976 -0.001672
44.539268 -37.417549 6.773789
0.003783 -0.082976 -0.001672
37.617779 -31.649464 8.048301
40.190010 -33.832451 9.866753
0.459082 -0.465957 -0.354859
0.465128 -0.471331 -0.340846
2.743396 -2.390912 -1.908035
2.892040 -2.517907 -1.900072
3.077436 -2.676071 -1.906924
3.288624 -2.855275 -1.917276
3.487039 -3.024877 -1.908024
3.750994 -3.250093 -1.919564
4.040236 -3.495841 -1.927724
4.343978 -3.755306 -1.925002
4.750208 -4.101946 -1.944799
5.241739 -4.519779 -1.972676
5.803447 -4.999125 -1.994891
6.201625 -5.338585 -1.930149
6.426097 -5.532866 -1.795157
6.526073 -5.621682 -1.616974
0.003776 -0.082783 -0.001666
8.278419 -7.052996 -1.526060
8.267535 -7.048834 -1.267517
26.793512 -22.681833 -3.283926
31.981817 -27.068396 -2.942331
0.003776 -0.082783 -0.001666
0.003776 -0.082783 -0.001666
49.901905 -42.266811 -0.024573
43.158909 -36.592518 1.290897
43.066868 -36.540863 2.609763
48.032829 -40.759991 4.377331
42.449745 -36.057369 5.169614
42.757351 -36.344147 6.534207
38.215153 -32.503517 7.023183
37.482315 -31.904610 8.058243
37.988171 -32.357319 9.371377
0.451605 -0.463908 -0.350770
0.468173 -0.478304 -0.344761
0.491520 -0.498342 -0.342722
2.877990 -2.534283 -1.900074
3.059692 -2.691154 -1.905212
3.271214 -2.872729 -1.916463
3.482688 -3.055450 -1.914970
3.732695 -3.271390 -1.919566
4.031960 -3.528571 -1.933206
4.331398 -3.787390 -1.928852
4.719764 -4.122767 -1.941823
5.214668 -4.548377 -1.972131
5.776542 -5.033456 -1.995407
6.228880 -5.423349 -1.948168
6.474794 -5.638316 -1.817659
6.491146 -5.656344 -1.616244
6.523336 -5.636765 -1.411881
6.512328 -5.629415 -1.206570
0.003768 -0.082594 -0.001660
26.544996 -22.734461 -3.269442
32.208508 -27.578062 -2.977741
0.003768 -0.082594 -0.001660
44.532528 -38.154594 -1.382508
77.464920 -66.335861 -0.037590
49.627460 -42.556705 1.491812
42.462036 -36.449741 2.585621
42.306030 -36.329323 3.874034
41.283775 -35.478786 5.052171
0.003768 -0.082594 -0.001660
37.858299 -32.576706 6.991720
37.514339 -32.304558 8.104745
39.141983 -33.726871 9.703567
0.452009 -0.468532 -0.352807
0.467215 -0.481917 -0.345738
0.487771 -0.499793 -0.341778
2.869236 -2.555239 -1.903666
3.044628 -2.708488 -1.905214
3.256479 -2.892470 -1.917279
3.462739 -3.072798 -1.913431
3.718514 -3.296239 -1.921754
4.006410 -3.546567 -1.930473
4.314323 -3.815744 -1.930780
4.697900 -4.150874 -1.942426
5.194715 -4.583107 -1.974347
5.742131 -5.061304 -1.993387
6.478751 -5.702489 -2.036383
6.450121 -5.681652 -1.819753
6.472306 -5.704951 -1.619592
6.491285 -5.673964 -1.411892
6.457820 -5.647152 -1.202395
6.634771 -5.803819 -1.027444
26.346470 -22.827919 -3.261110
32.437889 -28.097725 -3.013851
0.003761 -0.082401 -0.001654
0.003761 -0.082401 -0.001654
0.003761 -0.082401 -0.001654
0.003761 -0.082401 -0.001654
53.121635 -46.111973 3.251128
0.003761 -0.082401 -0.001654
44.306263 -38.514458 5.449065
40.717453 -35.426506 6.283878
40.450878 -35.207870 7.507769
40.933578 -35.652523 8.887624
0.003761 -0.082401 -0.001654
0.452374 -0.473176 -0.354844
0.463572 -0.483233 -0.344752
0.492012 -0.508184 -0.346471
2.853616 -2.570307 -1.902770
3.036290 -2.731687 -1.909498
3.241153 -2.912701 -1.918096
3.448263 -3.094874 -1.914977
3.699981 -3.317355 -1.921759
3.988614 -3.572496 -1.931845
4.294193 -3.841518 -1.931426
4.674406 -4.177597 -1.942431
5.172282 -4.617390 -1.976010
5.726460 -5.105498 -1.997959
6.464351 -5.757255 -2.042399
6.419766 -5.722129 -1.820597
6.801884 -6.062303 -1.710871
6.470904 -5.721349 -1.414501
6.479929 -5.733267 -1.212729
6.606247 -5.845572 -1.028153
26.146271 -22.918543 -3.252593
32.786552 -28.739550 -3.062026
0.003753 -0.082212 -0.001649
0.003753 -0.082212 -0.001649
44.144527 -38.737488 -0.022558
0.003753 -0.082212 -0.001649
47.483898 -41.706738 2.920381
0.003753 -0.082212 -0.001649
0.003753 -0.082212 -0.001649
0.003753 -0.082212 -0.001649
40.274837 -35.475441 7.513778
40.092300 -35.340214 8.750021
0.003753 -0.082212 -0.001649
0.447439 -0.473351 -0.352797
0.457262 -0.482300 -0.341806
0.501375 -0.521389 -0.354922
2.841491 -2.589319 -1.904568
3.017806 -2.747010 -1.907787
3.224797 -2.931070 -1.918098
3.431710 -3.116255 -1.915751
3.683510 -3.341466 -1.923218
3.968478 -3.595161 -1.931850
4.276088 -3.870448 -1.933354
4.652924 -4.207540 -1.943631
5.138905 -4.640452 -1.973257
5.690812 -5.133980 -1.995939
6.393782 -5.760501 -2.030402
6.510013 -5.867924 -1.855595
7.009620 -6.316668 -1.772099
7.002617 -6.258163 -1.538642
7.038236 -6.291855 -1.323804
6.802721 -6.088236 -1.064227
25.932932 -23.004229 -3.242957
38.143421 -33.810917 -3.580243
0.003747 -0.082019 -0.001643
49.364819 -43.796978 -1.556108
0.003747 -0.082019 -0.001643
0.003747 -0.082019 -0.001643
41.390102 -36.800159 2.558597
0.003747 -0.082019 -0.001643
0.003747 -0.082019 -0.001643
42.548664 -37.895683 6.634076
38.667480 -34.458572 7.250482
0.003747 -0.082019 -0.001643
37.316856 -33.305126 9.392821
0.437490 -0.468842 -0.346668
0.454961 -0.484713 -0.341803
0.486987 -0.513469 -0.346462
2.825698 -2.604212 -1.903672
3.006475 -2.767723 -1.910358
3.212445 -2.953007 -1.920543
3.405939 -3.128328 -1.911124
3.661933 -3.359892 -1.921766
3.946812 -3.616452 -1.931170
4.265517 -3.904876 -1.938487
4.627686 -4.232729 -1.943040
5.114035 -4.670991 -1.973816
5.678924 -5.181917 -2.002034
6.372599 -5.807364 -2.034107
6.703493 -6.109137 -1.920585
7.249690 -6.605172 -1.842232
0.003711 -0.081818 -0.001635
0.003711 -0.081818 -0.001635
7.533805 -6.811366 -1.184528
25.714617 -23.075741 -3.232200
38.146629 -34.206364 -3.598987
0.003711 -0.081818 -0.001635
0.003711 -0.081818 -0.001635
47.952202 -43.055733 -0.024828
43.584000 -39.168591 1.336404
41.188725 -37.046642 2.559143
41.310837 -37.169670 3.860165
0.003711 -0.081818 -0.001635
0.003711 -0.081818 -0.001635
38.102520 -34.350300 7.181260
0.003711 -0.081818 -0.001635
0.003711 -0.081818 -0.001635
0.436515 -0.472286 -0.347684
0.453921 -0.488278 -0.342778
0.498884 -0.529063 -0.356792
2.808491 -2.617807 -1.901877
2.989614 -2.783530 -1.909503
3.193160 -2.968761 -1.918917
3.392473 -3.151370 -1.913442
3.648518 -3.385679 -1.924681
3.931959 -3.643913 -1.933912
4.247665 -3.932945 -1.940415
4.607979 -4.262907 -1.944836
5.077589 -4.691056 -1.969959
5.652378 -5.216877 -2.003058
6.368352 -5.869875 -2.043354
6.953709 -6.406738 -2.002652
7.538983 -6.944273 -1.925724
0.003703 -0.081629 -0.001630
0.003703 -0.081629 -0.001630
16.306501 -14.820703 -2.575928
25.475672 -23.126799 -3.218833
38.170185 -34.624378 -3.619974
0.003703 -0.081629 -0.001630
49.989239 -45.385784 -1.592320
47.627293 -43.260647 -0.024909
0.003703 -0.081629 -0.001630
40.812832 -37.134903 2.548874
0.003703 -0.081629 -0.001630
0.003703 -0.081629 -0.001630
42.936951 -39.133236 6.764019
38.066025 -34.715214 7.211706
40.826656 -37.253632 9.048670
38.330048 -35.005154 9.748189
0.441887 -0.481533 -0.353804
0.451564 -0.490662 -0.342773
0.498892 -0.534089 -0.358666
2.792509 -2.632478 -1.900979
2.974032 -2.800461 -1.909505
3.176503 -2.986855 -1.918920
3.377464 -3.173091 -1.914987
3.626724 -3.403869 -1.923229
3.911412 -3.666242 -1.933917
4.226814 -3.958356 -1.941059
4.586647 -4.291689 -1.946034
5.059507 -4.727766 -1.973280
5.634128 -5.259542 -2.007124
6.320633 -5.893000 -2.038746
7.163311 -6.672955 -2.073893
8.313130 -7.736992 -2.134622
7.847847 -7.247884 -1.751201
0.003697 -0.081432 -0.001624
16.212692 -14.905947 -2.574569
25.304531 -23.237701 -3.214043
38.131351 -34.989880 -3.635354
49.386398 -45.326828 -3.149419
0.003697 -0.081432 -0.001624
48.779938 -44.819164 -0.025719
0.003697 -0.081432 -0.001624
41.211208 -37.930920 2.587228
41.645649 -38.343761 3.932131
0.003697 -0.081432 -0.001624
0.003697 -0.081432 -0.001624
0.003697 -0.081432 -0.001624
41.483303 -38.289829 9.242682
0.003697 -0.081432 -0.001624
0.440835 -0.485022 -0.354821
0.447895 -0.491851 -0.341787
0.491106 -0.531946 -0.354904
2.777799 -2.648282 -1.900981
2.960999 -2.819759 -1.911220
3.161085 -3.006100 -1.919737
3.360974 -3.193501 -1.915762
3.604813 -3.421914 -1.921776
3.894848 -3.692291 -1.935975
4.203063 -3.981092 -1.940424
4.565151 -4.320376 -1.947233
5.028467 -4.752633 -1.971631
5.600015 -5.287683 -2.005612
6.284247 -5.926376 -2.037833
7.129573 -6.717817 -2.075155
8.267552 -7.783113 -2.134268
9.781857 -9.118303 -2.194140
12.004927 -11.176899 -2.304784
16.115511 -14.987905 -2.572743
25.073069 -23.291948 -3.201607
43.597488 -40.457508 -4.178466
47.906349 -44.479900 -3.071418
47.449333 -44.087574 -1.527734
0.003690 -0.081243 -0.001618
41.967083 -39.044464 1.306887
41.146591 -38.309811 2.596832
29.169849 -27.191214 2.768200
42.488167 -39.598667 5.390130
39.597279 -36.935867 6.303901
39.843941 -37.178852 7.628782
41.218174 -38.485779 9.232551
37.619774 -35.157631 9.669280
0.432204 -0.481464 -0.349711
0.442982 -0.491828 -0.339822
0.496236 -0.541786 -0.360537
2.764296 -2.665219 -1.901881
2.939916 -2.831578 -1.907797
3.141008 -3.022054 -1.918110
3.344351 -3.213819 -1.916536
3.589590 -3.446190 -1.923963
3.867902 -3.709941 -1.933241
4.186089 -4.010170 -1.942993
4.547656 -4.352879 -1.950222
5.009100 -4.790030 -1.974951
5.577017 -5.326210 -2.008157
6.250908 -5.964615 -2.038305
7.091547 -6.761064 -2.075584
8.223188 -7.833084 -2.134655
9.738388 -9.182269 -2.196110
11.940440 -11.248966 -2.305091
16.017937 -15.069242 -2.570919
24.892681 -23.391937 -3.195698
38.181221 -35.863300 -3.679861
0.003683 -0.081050 -0.001612
0.003683 -0.081050 -0.001612
0.003683 -0.081050 -0.001612
0.003683 -0.081050 -0.001612
41.138676 -38.745308 2.610224
0.003683 -0.081050 -0.001612
37.733410 -35.594986 4.813219
42.708324 -40.292229 6.835950
38.471741 -36.328743 7.406865
0.003683 -0.081050 -0.001612
0.003683 -0.081050 -0.001612
0.428548 -0.482617 -0.348685
0.445580 -0.499019 -0.343738
0.493494 -0.544506 -0.360533
2.751505 -2.683788 -1.903678
2.923537 -2.848724 -1.907797
3.121384 -3.037338 -1.916484
3.325737 -3.233365 -1.916540
3.572294 -3.469748 -1.925424
3.851047 -3.735785 -1.935299
4.164098 -4.035988 -1.943640
4.522243 -4.379521 -1.950228
4.979141 -4.815882 -1.973854
5.541619 -5.354931 -2.006643
6.228246 -6.010983 -2.042011
7.057279 -6.805563 -2.076848
8.165678 -7.867812 -2.131331
9.678553 -9.234157 -2.194830
11.877443 -11.318569 -2.305394
15.911549 -15.147261 -2.568164
24.689127 -23.477139 -3.187367
38.241245 -36.334583 -3.705762
0.003675 -0.080861 -0.001606
0.003675 -0.080861 -0.001606
0.003675 -0.080861 -0.001606
40.584743 -38.652409 1.277533
40.377621 -38.482784 2.576200
0.003675 -0.080861 -0.001606
37.393040 -35.682045 4.795731
0.003675 -0.080861 -0.001606
0.003675 -0.080861 -0.001606
36.835438 -35.213577 8.341720
36.013489 -34.453938 9.358647
0.431195 -0.489614 -0.352763
0.441925 -0.500160 -0.342754
0.492060 -0.548338 -0.361466
2.739062 -2.701824 -1.905476
2.906283 -2.864030 -1.906945
3.108275 -3.058814 -1.918929
3.310215 -3.254776 -1.918086
3.552735 -3.490017 -1.925427
3.831299 -3.758951 -1.935988
4.141282 -4.059649 -1.943645
4.507071 -4.414505 -1.954409
4.947653 -4.840212 -1.972204
5.508407 -5.383810 -2.005638
6.213641 -6.065382 -2.048487
7.019895 -6.847169 -2.077277
8.115096 -7.908956 -2.129863
9.625739 -9.289433 -2.194849
11.822645 -11.396045 -2.307374
15.828951 -15.242398 -2.568899
24.449242 -23.517878 -3.173809
38.307163 -36.817390 -3.732645
0.003668 -0.080668 -0.001600
0.003668 -0.080668 -0.001600
0.003668 -0.080668 -0.001600
40.676521 -39.187004 1.287388
39.532799 -38.114292 2.536078
28.418571 -27.430386 2.741480
43.885891 -42.347866 5.659788
40.648399 -39.257305 6.578701
41.002388 -39.612728 7.981047
36.408447 -35.208042 8.290514
37.718487 -36.497936 9.856002
0.426380 -0.489489 -0.350718
0.443254 -0.506121 -0.345691
0.484289 -0.546033 -0.357704
2.718816 -2.712344 -1.901886
2.892807 -2.882994 -1.908658
3.092391 -3.077692 -1.919745
3.293224 -3.274827 -1.918861
3.531723 -3.508872 -1.924702
3.810092 -3.780708 -1.935993
4.121030 -4.085818 -1.944931
4.487549 -4.445459 -1.956802
4.918813 -4.867025 -1.971659
5.473646 -5.411124 -2.004124
6.177730 -6.099437 -2.048036
6.986455 -6.892667 -2.078956
8.071342 -7.956636 -2.130249
9.574057 -9.345783 -2.195195
11.768775 -11.474642 -2.309633
15.704404 -15.296990 -2.562884
0.003662 -0.080475 -0.001594
38.360218 -37.293819 -3.758690
0.003662 -0.080475 -0.001594
0.003662 -0.080475 -0.001594
41.290127 -40.207684 -0.023111
40.061146 -39.040813 1.274862
39.379333 -38.404839 2.540230
28.217960 -27.551350 2.737248
40.905041 -39.932381 5.304586
40.270298 -39.341759 6.553821
0.003662 -0.080475 -0.001594
37.849892 -37.021252 8.666980
38.276218 -37.463875 10.057693
0.425218 -0.492919 -0.351733
0.442028 -0.509667 -0.346666
0.474029 -0.541184 -0.352061
2.706167 -2.730215 -1.903682
2.880490 -2.903159 -1.911229
3.076405 -3.096487 -1.920562
3.266872 -3.285731 -1.914233
3.518579 -3.535435 -1.928347
3.788733 -3.802336 -1.935997
4.101973 -4.113219 -1.946859
0.003654 -0.080286 -0.001589
4.895319 -4.899063 -1.973323
5.449794 -5.449084 -2.006670
6.140240 -6.131907 -2.047123
6.961074 -6.946244 -2.083134
8.013326 -7.990270 -2.126925
9.520592 -9.400455 -2.195213
11.708709 -11.547441 -2.310775
15.565585 -15.336755 -2.554543
24.033117 -23.654785 -3.154902
41.299541 -40.608860 -4.069467
0.003654 -0.080286 -0.001589
0.003654 -0.080286 -0.001589
0.003654 -0.080286 -0.001589
42.514606 -41.905197 1.360575
39.619591 -39.084534 2.570073
0.003654 -0.080286 -0.001589
40.726311 -40.217014 5.311143
0.003654 -0.080286 -0.001589
0.003654 -0.080286 -0.001589
39.514629 -39.092049 9.099401
0.003654 -0.080286 -0.001589
0.421602 -0.493933 -0.350707
0.432096 -0.504620 -0.340778
0.473858 -0.546169 -0.353935
2.698502 -2.753073 -1.909073
2.860372 -2.915647 -1.908663
3.055890 -3.111875 -1.918937
3.260172 -3.315955 -1.921181
3.498665 -3.555397 -1.928351
3.767934 -3.825825 -1.936686
4.076012 -4.133847 -1.945582
4.450551 -4.509813 -1.962778
4.872134 -4.933191 -1.975539
5.420207 -5.481484 -2.007187
6.100133 -6.163834 -2.045748
6.927186 -6.994055 -2.085230
7.974667 -8.045723 -2.129169
9.462635 -9.450658 -2.194258
11.640570 -11.616388 -2.310802
15.480438 -15.428578 -2.555046
23.851946 -23.747469 -3.148992
38.454041 -38.265827 -3.811487
0.003647 -0.080093 -0.001583
0.003647 -0.080093 -0.001583
41.875183 -41.737381 -0.023886
0.003647 -0.080093 -0.001583
39.074776 -38.992844 2.549087
39.175274 -39.120598 3.844682
0.003647 -0.080093 -0.001583
39.156651 -39.143738 6.445019
37.975151 -37.991791 7.518812
37.150867 -37.195091 8.605321
37.631172 -37.688511 10.000956
0.419149 -0.496213 -0.350703
0.425879 -0.503261 -0.337833
0.466117 -0.543762 -0.350174
2.681341 -2.767527 -1.908176
2.848608 -2.937449 -1.912090
3.042260 -3.133062 -1.921381
3.231809 -3.325834 -1.915782
3.478001 -3.575851 -1.928355
3.746327 -3.847213 -1.936690
4.054596 -4.160401 -1.946870
4.421550 -4.533181 -1.961593
4.850898 -4.967732 -1.978306
5.390820 -5.516029 -2.008210
6.070539 -6.204127 -2.047607
6.885939 -7.032166 -2.084827
7.945313 -8.107992 -2.133637
9.401384 -9.500751 -2.192980
11.572616 -11.681503 -2.310547
15.411665 -15.542315 -2.558806
23.659327 -23.835928 -3.142151
40.713821 -40.977463 -4.058740
0.003639 -0.079904 -0.001577
0.003639 -0.079904 -0.001577
52.378326 -52.789215 -0.029779
41.468414 -41.839172 1.342363
39.561230 -39.946693 2.596113
0.003639 -0.079904 -0.001577
39.716682 -40.146133 5.239883
38.610008 -39.057232 6.392818
0.003639 -0.079904 -0.001577
0.003639 -0.079904 -0.001577
37.681362 -38.187313 10.074029
0.411898 -0.493504 -0.346614
0.429553 -0.511698 -0.342730
0.464654 -0.547473 -0.351108
2.664571 -2.781413 -1.907279
2.832118 -2.953563 -1.912092
3.023357 -3.148983 -1.920569
3.222136 -3.353357 -1.921186
3.464343 -3.602211 -1.931998
3.724596 -3.868478 -1.936695
4.028405 -4.180727 -1.945594
4.401182 -4.563758 -1.963983
4.825387 -4.998069 -1.979417
5.354045 -5.541189 -2.006190
6.031131 -6.234542 -2.046232
6.837636 -7.063040 -2.082340
7.900372 -8.154727 -2.134023
9.345650 -9.553020 -2.192673
11.500146 -11.741989 -2.309456
15.316922 -15.624789 -2.557911
23.452490 -23.900391 -3.132882
40.384258 -41.115379 -4.049448
0.003633 -0.079712 -0.001571
0.003633 -0.079712 -0.001571
48.298710 -49.245502 -0.027861
39.762547 -40.584129 1.294497
38.994217 -39.829552 2.573740
38.237671 -39.072292 3.796196
39.098221 -39.978176 5.188343
38.482586 -39.377724 6.408926
39.908623 -40.848770 7.993851
36.767189 -37.665958 8.615808
0.003633 -0.079712 -0.001571
0.408310 -0.494422 -0.345589
0.425843 -0.512699 -0.341745
0.458266 -0.546134 -0.348285
2.663930 -2.811835 -1.918057
2.816787 -2.970877 -1.912949
3.004390 -3.164799 -1.919759
3.203263 -3.371618 -1.921190
3.437550 -3.615182 -1.928362
3.705346 -3.892308 -1.938068
4.010029 -4.209046 -1.948163
4.377984 -4.591518 -1.965183
4.801036 -5.029661 -1.981081
5.322536 -5.571664 -2.006198
6.003756 -6.277289 -2.049014
6.800078 -7.104833 -2.083186
7.853805 -8.199801 -2.134039
9.296536 -9.612039 -2.193994
11.424623 -11.799199 -2.307808
15.195409 -15.679651 -2.552595
23.323467 -24.043179 -3.134060
40.046104 -41.242275 -4.039313
0.003625 -0.079522 -0.001565
0.003625 -0.079522 -0.001565
47.697571 -49.195019 -0.027814
39.417625 -40.697063 1.290741
39.182278 -40.483158 2.601359
37.989265 -39.266930 3.793736
41.787529 -43.215935 5.578079
0.003625 -0.079522 -0.001565
37.873451 -39.216965 7.630943
36.641060 -37.970161 8.637060
37.739239 -39.133591 10.208720
0.416655 -0.507694 -0.354772
0.420911 -0.512416 -0.339780
0.456779 -0.549819 -0.349219
0.486929 -0.581464 -0.351810
2.797613 -2.984211 -1.911239
2.991637 -3.187071 -1.923017
3.177872 -3.383111 -1.917335
3.421020 -3.638703 -1.930550
3.685963 -3.916047 -1.939442
3.982260 -4.227713 -1.946244
4.350629 -4.615018 -1.964592
4.776467 -5.061128 -1.982744
5.290856 -5.601962 -2.006207
5.976065 -6.319923 -2.051795
6.762260 -7.146422 -2.084032
7.804276 -8.241769 -2.133314
0.003618 -0.079330 -0.001560
0.003618 -0.079330 -0.001560
15.106815 -15.767965 -2.552863
23.110752 -24.099173 -3.124045
0.003618 -0.079330 -0.001560
0.003618 -0.079330 -0.001560
0.003618 -0.079330 -0.001560
46.099987 -48.098991 -0.027208
0.003618 -0.079330 -0.001560
39.234119 -41.004646 2.620291
38.097378 -39.833084 3.827215
0.003618 -0.079330 -0.001560
38.081745 -39.873173 6.417756
38.009277 -39.811722 7.704125
38.732819 -40.596867 9.184939
37.459766 -39.292854 10.193840
0.409434 -0.504886 -0.350684
0.422011 -0.518397 -0.342716
0.455292 -0.553503 -0.350155
0.477854 -0.577561 -0.347315
2.780830 -3.000021 -1.911240
2.971910 -3.203195 -1.922205
3.162637 -3.405127 -1.919653
3.400478 -3.658091 -1.930553
3.663161 -3.937597 -1.939447
3.968775 -4.261323 -1.951378
4.325785 -4.641126 -1.965195
4.758753 -5.101683 -1.987720
5.259008 -5.632071 -2.006216
5.952355 -6.369132 -2.056425
6.722948 -7.188979 -2.084878
7.757100 -8.289062 -2.133700
8.268842 -8.754852 -1.974980
0.003612 -0.079133 -0.001554
0.003612 -0.079133 -0.001554
0.003612 -0.079133 -0.001554
0.003612 -0.079133 -0.001554
0.003612 -0.079133 -0.001554
0.003612 -0.079133 -0.001554
45.802334 -48.357948 -0.027326
45.221775 -47.763100 1.498685
39.205708 -41.448299 2.634137
38.058788 -40.266472 3.847089
0.003612 -0.079133 -0.001554
37.767700 -40.001759 6.403300
37.956913 -40.230267 7.741496
40.388180 -42.832630 9.637378
37.347099 -39.627407 10.224782
0.412771 -0.513344 -0.355783
0.419397 -0.520678 -0.342711
0.445181 -0.548258 -0.344511
0.493254 -0.599699 -0.360782
2.765228 -3.017068 -1.912099
2.955126 -3.221342 -1.923021
3.144126 -3.424933 -1.920427
3.382369 -3.680081 -1.932012
3.643460 -3.961119 -1.940820
3.940740 -4.279701 -1.949459
4.305991 -4.672670 -1.968183
4.728469 -5.127338 -1.987175
5.236239 -5.671891 -2.009776
5.916079 -6.403039 -2.056436
6.680520 -7.223275 -2.084057
7.711203 -8.331964 -2.133715
9.115490 -9.757536 -2.190804
8.182463 -8.769609 -1.683502
0.003575 -0.078935 -0.001546
0.003575 -0.078935 -0.001546
0.003575 -0.078935 -0.001546
0.003575 -0.078935 -0.001546
0.003575 -0.078935 -0.001546
54.952892 -58.674881 -0.032815
44.830490 -47.914677 1.494956
39.939705 -42.710941 2.699814
37.919807 -40.583447 3.856423
38.951450 -41.700489 5.294129
0.003575 -0.078935 -0.001546
37.653793 -40.370930 7.726683
38.163334 -40.930943 9.160475
36.999744 -39.713387 10.191793
0.404489 -0.509141 -0.350674
0.414541 -0.520246 -0.340746
0.446175 -0.554403 -0.347327
0.493974 -0.606154 -0.363471
2.747055 -3.031379 -1.911244
2.935060 -3.234878 -1.921395
3.122895 -3.439489 -1.918887
3.357803 -3.695160 -1.929832
3.620494 -3.979784 -1.940141
3.919098 -4.304860 -1.950747
4.276915 -4.694341 -1.966997
4.702871 -5.156234 -1.988287
5.196108 -5.693170 -2.006741
5.863543 -6.417132 -2.050442
6.640660 -7.262792 -2.084487
7.648960 -8.360069 -2.129650
9.070803 -9.818101 -2.193099
11.143954 -12.049248 -2.306236
0.003569 -0.078743 -0.001540
8.103060 -8.794146 -1.116250
8.061263 -8.752281 -0.834039
0.003569 -0.078743 -0.001540
0.003569 -0.078743 -0.001540
0.003569 -0.078743 -0.001540
0.003569 -0.078743 -0.001540
0.003569 -0.078743 -0.001540
37.692066 -40.792542 3.856185
0.003569 -0.078743 -0.001540
41.516071 -44.987282 7.125918
0.003569 -0.078743 -0.001540
37.998810 -41.226322 9.177517
36.888573 -40.052364 10.224215
0.399666 -0.508716 -0.348628
0.409612 -0.519841 -0.338779
0.443417 -0.556745 -0.347321
0.490913 -0.608769 -0.363466
2.728787 -3.045580 -1.910389
2.916300 -3.251994 -1.921397
3.107255 -3.461255 -1.921204
3.340713 -3.718310 -1.932020
3.599843 -4.003719 -1.941515
3.897296 -4.329908 -1.952035
4.249006 -4.717233 -1.966407
4.671395 -5.182370 -1.987743
5.159809 -5.718452 -2.005228
5.816689 -6.441484 -2.047220
6.603259 -7.307570 -2.086168
7.587827 -8.391950 -2.126326
9.013285 -9.868418 -2.192792
11.058084 -12.098801 -2.303192
8.088676 -8.873153 -1.401203
8.056866 -8.844781 -1.116828
8.089332 -8.886381 -0.842334
0.003561 -0.078553 -0.001535
45.762287 -49.977005 -1.600026
45.765469 -50.015957 -0.028162
44.231911 -48.359871 1.492891
0.003561 -0.078553 -0.001535
39.142975 -42.865398 4.030464
41.672825 -45.663418 5.735887
40.722527 -44.639881 7.033429
38.475502 -42.210773 7.994058
37.695889 -41.386349 9.163179
36.411766 -39.993473 10.155383
0.395933 -0.509588 -0.347602
0.410494 -0.525913 -0.341715
0.440575 -0.559153 -0.347317
0.492566 -0.616747 -0.367054
2.712365 -3.062815 -1.911248
2.901676 -3.272555 -1.923842
3.082177 -3.473918 -1.918121
3.316600 -3.735066 -1.930568
3.578455 -4.025527 -1.942203
3.866944 -4.347086 -1.949476
4.227848 -4.749190 -1.969396
4.636788 -5.203222 -1.985541
5.128896 -5.751578 -2.006252
5.783910 -6.478936 -2.048616
6.564189 -7.348106 -2.087014
7.534637 -8.429391 -2.124858
8.953811 -9.919971 -2.192488
10.994095 -12.167825 -2.304333
8.075167 -8.963340 -1.407971
8.051622 -8.943739 -1.123375
8.135074 -9.038904 -0.852453
8.062465 -8.965207 -0.565734
0.003554 -0.078361 -0.001529
50.406734 -55.719410 -0.031186
0.003554 -0.078361 -0.001529
40.188030 -44.501976 2.768221
41.479008 -45.945694 4.298097
39.933418 -44.267864 5.531167
39.098553 -43.374744 6.796937
0.003554 -0.078361 -0.001529
36.598534 -40.649570 8.952827
0.003554 -0.078361 -0.001529
0.399207 -0.518044 -0.352702
0.404423 -0.524168 -0.338770
0.441317 -0.565400 -0.350131
0.487076 -0.616704 -0.365254
2.692726 -3.075455 -1.909536
2.885700 -3.291695 -1.925474
3.068756 -3.498238 -1.921982
3.301724 -3.760801 -1.934213
3.559448 -4.050022 -1.944262
3.844842 -4.371855 -1.950763
4.189442 -4.760390 -1.964033
4.607251 -5.229586 -1.985549
5.102607 -5.787966 -2.008796
5.745727 -6.510426 -2.048166
6.519667 -7.382593 -2.086194
7.479931 -8.465017 -2.123017
0.003546 -0.078171 -0.001523
0.003546 -0.078171 -0.001523
8.026586 -9.012359 -1.408453
0.003546 -0.078171 -0.001523
0.003546 -0.078171 -0.001523
0.003546 -0.078171 -0.001523
0.003546 -0.078171 -0.001523
46.059422 -51.511391 -0.028928
0.003546 -0.078171 -0.001523
0.003546 -0.078171 -0.001523
0.003546 -0.078171 -0.001523
42.979332 -48.191730 5.991319
0.003546 -0.078171 -0.001523
37.825012 -42.466724 7.959431
36.739006 -41.278950 9.044915
0.003546 -0.078171 -0.001523
0.387502 -0.509829 -0.344529
0.403014 -0.527580 -0.339747
0.434985 -0.563759 -0.347307
0.485143 -0.620615 -0.366147
2.680254 -3.096086 -1.912965
2.858126 -3.298949 -1.919777
3.042902 -3.508704 -1.918126
3.279225 -3.778105 -1.933487
3.534610 -4.069420 -1.943582
3.821346 -4.395099 -1.951410
4.170036 -4.792774 -1.967619
4.574079 -5.253688 -1.984452
5.062021 -5.808300 -2.005762
5.708797 -6.545595 -2.048639
6.478839 -7.423801 -2.087039
7.421013 -8.498645 -2.120436
7.908010 -8.973031 -1.961433
0.003540 -0.077979 -0.001517
8.001456 -9.087860 -1.413125
0.003540 -0.077979 -0.001517
7.861835 -8.943218 -0.834669
0.003540 -0.077979 -0.001517
0.003540 -0.077979 -0.001517
0.003540 -0.077979 -0.001517
43.606583 -49.374107 1.500193
44.214195 -50.096718 3.084922
0.003540 -0.077979 -0.001517
42.777882 -48.540829 6.003040
39.761276 -45.139359 7.001611
37.125271 -42.181744 7.864403
36.442135 -41.436420 9.031875
40.533199 -46.096527 11.526743
0.386071 -0.513199 -0.345546
0.401460 -0.531050 -0.340721
0.430917 -0.564782 -0.346362
0.488979 -0.631330 -0.371531
2.661632 -3.109868 -1.912109
2.846754 -3.323357 -1.924664
3.023726 -3.527846 -1.918901
3.256665 -3.795287 -1.932763
3.512816 -4.090874 -1.944271
3.795202 -4.415357 -1.950774
4.144111 -4.817895 -1.968222
4.541709 -5.276791 -1.983355
5.034050 -5.842922 -2.007799
5.674058 -6.581028 -2.049573
6.437773 -7.459591 -2.087051
7.368797 -8.533748 -2.118968
7.851247 -9.015054 -1.960475
7.895826 -9.069066 -1.687793
0.003532 -0.077790 -0.001511
21.593723 -24.709543 -3.070593
0.003532 -0.077790 -0.001511
0.003532 -0.077790 -0.001511
0.003532 -0.077790 -0.001511
0.003532 -0.077790 -0.001511
43.421696 -49.754807 1.503811
43.342251 -49.681877 3.043789
46.424980 -53.248241 4.905733
44.984558 -51.617054 6.352914
41.063202 -47.157612 7.278381
37.814331 -43.463394 8.063028
39.780170 -45.735600 9.922232
40.182800 -46.230755 11.502242
0.390380 -0.522920 -0.351665
0.394357 -0.527806 -0.336795
0.428203 -0.566970 -0.346359
0.475333 -0.621680 -0.363443
2.644151 -3.124911 -1.912112
2.830444 -3.342225 -1.926296
3.012899 -3.554202 -1.924305
3.235221 -3.813733 -1.932766
3.489667 -4.110787 -1.944275
3.768944 -4.435458 -1.950138
4.124249 -4.850097 -1.971807
4.510469 -5.301147 -1.982810
5.003341 -5.874485 -2.008823
5.635274 -6.611851 -2.049121
6.395211 -7.498869 -2.087482
7.319843 -8.578526 -2.119355
8.713414 -10.108992 -2.189641
10.700619 -12.406492 -2.302204
14.045711 -16.267756 -2.512690
21.407812 -24.773653 -3.063746
0.003525 -0.077597 -0.001505
0.003525 -0.077597 -0.001505
0.003525 -0.077597 -0.001505
0.003525 -0.077597 -0.001505
43.013336 -49.844608 1.499130
43.274422 -50.182549 3.059092
0.003525 -0.077597 -0.001505
44.480774 -51.653179 6.324669
40.685513 -47.269337 7.259283
41.470848 -48.214783 8.901670
0.003525 -0.077597 -0.001505
39.791161 -46.314804 11.465919
0.384370 -0.521098 -0.348598
0.396222 -0.535219 -0.340713
0.426437 -0.570628 -0.347294
0.462789 -0.613419 -0.356254
2.631916 -3.147170 -1.916395
2.808026 -3.354058 -1.923854
2.991023 -3.570369 -1.923536
3.216668 -3.836874 -1.934956
3.467654 -4.132009 -1.944965
3.749180 -4.464690 -1.953347
4.094650 -4.872777 -1.971216
4.486580 -5.334092 -1.985578
4.970149 -5.905278 -2.009339
5.597622 -6.643933 -2.049133
6.351167 -7.533814 -2.087079
7.265720 -8.614264 -2.117885
8.657703 -10.164719 -2.190637
10.624382 -12.461582 -2.301113
13.943064 -16.342915 -2.511561
21.253340 -24.890741 -3.062684
34.413002 -40.271832 -3.722925
0.003518 -0.077404 -0.001500
0.003518 -0.077404 -0.001500
0.003518 -0.077404 -0.001500
0.003518 -0.077404 -0.001500
0.003518 -0.077404 -0.001500
0.003518 -0.077404 -0.001500
44.102139 -51.812378 6.312890
40.903770 -48.094574 7.348756
41.063725 -48.299892 8.873523
39.777870 -46.823250 10.056883
0.003518 -0.077404 -0.001500
0.384043 -0.525717 -0.350636
0.387917 -0.530620 -0.335805
0.421299 -0.570164 -0.345410
0.459683 -0.615857 -0.356249
2.615370 -3.163415 -1.917253
2.789150 -3.369943 -1.923858
2.972082 -3.588709 -1.924311
3.192581 -3.852242 -1.933503
3.444264 -4.151659 -1.944969
3.726331 -4.488857 -1.954634
4.070693 -4.900403 -1.973012
4.453799 -5.356648 -1.984481
4.957745 -5.958701 -2.017972
5.561005 -6.677282 -2.049604
6.314454 -7.577470 -2.089174
7.215243 -8.654179 -2.117530
8.586763 -10.199059 -2.187405
10.547869 -12.516204 -2.300022
13.836473 -16.407440 -2.509269
21.069147 -24.963675 -3.056770
0.003510 -0.077215 -0.001494
25.794266 -30.578794 -1.880509
0.003510 -0.077215 -0.001494
25.855530 -30.684343 -0.017784
0.003510 -0.077215 -0.001494
0.003510 -0.077215 -0.001494
0.003510 -0.077215 -0.001494
45.977566 -54.644756 6.626112
0.003510 -0.077215 -0.001494
0.003510 -0.077215 -0.001494
0.003510 -0.077215 -0.001494
0.003510 -0.077215 -0.001494
0.380338 -0.526383 -0.349610
0.388654 -0.536641 -0.338741
0.418453 -0.572369 -0.345405
0.449688 -0.610059 -0.350856
2.597584 -3.178193 -1.917256
2.774846 -3.391317 -1.927117
2.945903 -3.598440 -1.920455
3.170800 -3.870318 -1.933506
3.421976 -4.172626 -1.945659
3.700909 -4.510001 -1.954640
4.041654 -4.922047 -1.972421
4.419663 -5.377522 -1.982832
4.939928 -6.006223 -2.024576
5.524194 -6.710423 -2.050077
6.271230 -7.613444 -2.089187
7.164567 -8.693800 -2.117175
8.522089 -10.240485 -2.185800
10.471079 -12.570355 -2.298931
13.723214 -16.463659 -2.505813
20.891193 -25.042942 -3.051788
0.003504 -0.077022 -0.001488
0.003504 -0.077022 -0.001488
0.003504 -0.077022 -0.001488
0.003504 -0.077022 -0.001488
0.003504 -0.077022 -0.001488
0.003504 -0.077022 -0.001488
0.003504 -0.077022 -0.001488
46.193214 -55.544598 6.702928
45.810333 -55.124424 8.343468
0.003504 -0.077022 -0.001488
0.003504 -0.077022 -0.001488
0.003504 -0.077022 -0.001488
0.375476 -0.525768 -0.347564
0.385911 -0.538717 -0.338736
0.412114 -0.570535 -0.342581
0.448793 -0.615249 -0.352647
2.587770 -3.202611 -1.923253
2.755157 -3.407476 -1.927120
2.932029 -3.624150 -1.925088
3.148928 -3.888268 -1.933509
3.400012 -4.195502 -1.947031
3.675343 -4.530984 -1.954645
4.004024 -4.933199 -1.967656
4.390640 -5.406368 -1.983945
0.003497 -0.076829 -0.001482
5.487266 -6.745823 -2.051012
6.233994 -7.656711 -2.091284
7.114883 -8.734629 -2.117190
8.468026 -10.298174 -2.187446
10.390540 -12.624311 -2.297560
13.599297 -16.512304 -2.500961
20.712490 -25.129206 -3.047369
0.003497 -0.076829 -0.001482
0.003497 -0.076829 -0.001482
0.003497 -0.076829 -0.001482
0.003497 -0.076829 -0.001482
47.097202 -57.212734 1.687156
0.003497 -0.076829 -0.001482
48.245224 -58.669197 5.274422
0.003497 -0.076829 -0.001482
45.311413 -55.165737 8.310000
0.003497 -0.076829 -0.001482
0.003497 -0.076829 -0.001482
0.003497 -0.076829 -0.001482
0.375141 -0.530305 -0.349601
0.381119 -0.537954 -0.336771
0.412715 -0.576720 -0.345396
0.449168 -0.621683 -0.355337
0.487225 -0.668644 -0.363736
2.737090 -3.424462 -1.927936
2.906372 -3.633083 -1.921233
3.125774 -3.904655 -1.932785
3.377475 -4.216232 -1.947722
3.647252 -4.548886 -1.953367
3.979628 -4.960366 -1.969451
4.356273 -5.426836 -1.982296
4.865303 -6.054699 -2.022058
5.453720 -6.783084 -2.052870
6.192656 -7.697844 -2.092546
7.060986 -8.773356 -2.116464
8.410877 -10.345004 -2.187464
10.314460 -12.679030 -2.296748
13.491108 -16.567657 -2.497970
20.535933 -25.199354 -3.042011
0.003490 -0.076636 -0.001476
0.003490 -0.076636 -0.001476
0.003490 -0.076636 -0.001476
0.003490 -0.076636 -0.001476
0.003490 -0.076636 -0.001476
47.290131 -58.144646 3.459804
0.003490 -0.076636 -0.001476
46.388184 -57.119442 6.827139
45.718193 -56.316124 8.443666
0.003490 -0.076636 -0.001476
0.003490 -0.076636 -0.001476
0.003490 -0.076636 -0.001476
0.369187 -0.528293 -0.346534
0.379461 -0.541346 -0.337746
0.411945 -0.581684 -0.347270
0.440304 -0.617170 -0.350842
0.487095 -0.675523 -0.366300
2.716636 -3.438507 -1.927124
2.888716 -3.654335 -1.923551
3.108869 -3.930139 -1.936429
3.352413 -4.233898 -1.947040
3.625439 -4.576105 -1.955937
3.948244 -4.980674 -1.968266
0.003482 -0.076447 -0.001470
4.835836 -6.090736 -2.024602
5.412638 -6.811084 -2.051957
6.147500 -7.731583 -2.092142
7.010839 -8.813592 -2.116479
8.361065 -10.408246 -2.190410
10.234346 -12.728669 -2.295098
13.369454 -16.617722 -2.493583
20.375490 -25.306408 -3.040390
27.046061 -33.579945 -3.030132
0.003482 -0.076447 -0.001470
0.003482 -0.076447 -0.001470
51.564007 -64.071686 -0.035521
0.003482 -0.076447 -0.001470
46.584641 -57.975250 3.433071
0.003482 -0.076447 -0.001470
0.003482 -0.076447 -0.001470
45.082008 -56.209377 8.387280
0.003482 -0.076447 -0.001470
0.003482 -0.076447 -0.001470
0.003482 -0.076447 -0.001470
0.363332 -0.526163 -0.343465
0.381135 -0.548758 -0.341664
0.404614 -0.578315 -0.343507
0.442762 -0.626466 -0.355328
0.487015 -0.682338 -0.368865
2.693838 -3.449573 -1.924684
2.868084 -3.670670 -1.923554
3.080850 -3.940454 -1.932792
3.328450 -4.252895 -1.947045
3.600673 -4.598144 -1.956583
3.923517 -5.007556 -1.970061
4.298025 -5.480659 -1.983967
4.801158 -6.118227 -2.024611
5.381056 -6.851018 -2.054739
6.103382 -7.766590 -2.092155
6.965378 -8.859709 -2.117980
8.297816 -10.451306 -2.189454
10.150311 -12.773170 -2.292612
13.260463 -16.677021 -2.491056
20.206472 -25.393351 -3.036900
0.003476 -0.076254 -0.001465
0.003476 -0.076254 -0.001465
0.003476 -0.076254 -0.001465
0.003476 -0.076254 -0.001465
0.003476 -0.076254 -0.001465
0.003476 -0.076254 -0.001465
47.243649 -59.512253 5.275806
0.003476 -0.076254 -0.001465
45.962635 -57.984577 8.612836
0.003476 -0.076254 -0.001465
0.003476 -0.076254 -0.001465
0.003476 -0.076254 -0.001465
0.365007 -0.533431 -0.347544
0.370833 -0.541150 -0.334796
0.405000 -0.584580 -0.346321
0.438466 -0.627385 -0.354425
0.491369 -0.694860 -0.374857
2.677767 -3.469094 -1.927128
2.846206 -3.685432 -1.922785
3.060862 -3.960814 -1.934251
3.305522 -4.273223 -1.947734
3.576938 -4.621533 -1.957870
3.888004 -5.020811 -1.966487
4.270438 -5.509604 -1.985631
4.763954 -6.142478 -2.023606
5.338416 -6.877041 -2.053364
6.062687 -7.805964 -2.093419
6.915968 -8.900944 -2.118367
8.244143 -10.506373 -2.191100
10.064842 -12.815557 -2.289845
13.135253 -16.715347 -2.485504
20.021116 -25.458858 -3.030985
0.003469 -0.076062 -0.001459
0.003469 -0.076062 -0.001459
0.003469 -0.076062 -0.001459
0.003469 -0.076062 -0.001459
0.003469 -0.076062 -0.001459
46.399677 -59.122456 3.468992
45.720509 -58.279549 5.142812
0.003469 -0.076062 -0.001459
0.003469 -0.076062 -0.001459
0.003469 -0.076062 -0.001459
0.003469 -0.076062 -0.001459
0.003469 -0.076062 -0.001459
0.367649 -0.542086 -0.352644
0.368137 -0.543061 -0.334790
0.398795 -0.582512 -0.343497
0.435304 -0.629692 -0.354422
0.486678 -0.696033 -0.373996
2.653731 -3.478463 -1.923874
2.820875 -3.695706 -1.919702
3.035053 -3.973730 -1.932071
3.281321 -4.291944 -1.947738
3.549571 -4.640314 -1.957234
3.860687 -5.044382 -1.967091
4.235567 -5.529295 -1.983981
4.732550 -6.174141 -2.025137
5.305182 -6.915102 -2.055685
6.020499 -7.843562 -2.094264
6.872310 -8.949668 -2.120608
8.184011 -10.553380 -2.191118
9.990204 -12.871438 -2.289591
13.022260 -16.768450 -2.482280
19.842995 -25.532490 -3.026188
28.286142 -36.379501 -3.238922
0.003432 -0.075864 -0.001451
0.003432 -0.075864 -0.001451
0.003432 -0.075864 -0.001451
0.003432 -0.075864 -0.001451
0.003432 -0.075864 -0.001451
0.003432 -0.075864 -0.001451
47.993500 -61.946789 7.270472
0.003432 -0.075864 -0.001451
0.003432 -0.075864 -0.001451
0.003432 -0.075864 -0.001451
0.003432 -0.075864 -0.001451
0.361811 -0.539898 -0.349577
0.364377 -0.543582 -0.333806
0.392636 -0.580389 -0.340674
0.428808 -0.627719 -0.351722
0.484178 -0.700037 -0.374847
2.641300 -3.504038 -1.929576
2.798887 -3.710191 -1.918934
3.014848 -3.993854 -1.933531
3.259704 -4.315563 -1.949797
3.518653 -4.654426 -1.954676
3.835517 -5.070823 -1.968886
4.210179 -5.563225 -1.987300
4.703260 -6.208708 -2.027681
5.261011 -6.941561 -2.054310
5.974378 -7.878882 -2.094278
6.833924 -9.008741 -2.125077
8.133279 -10.612552 -2.193739
9.925101 -12.944300 -2.292129
12.893338 -16.800358 -2.476030
19.679312 -25.623861 -3.023633
0.003425 -0.075671 -0.001445
0.003425 -0.075671 -0.001445
0.003425 -0.075671 -0.001445
49.895584 -65.024750 -0.036010
0.003425 -0.075671 -0.001445
0.003425 -0.075671 -0.001445
0.003425 -0.075671 -0.001445
47.514732 -62.084370 7.253311
0.003425 -0.075671 -0.001445
0.003425 -0.075671 -0.001445
0.003425 -0.075671 -0.001445
0.003425 -0.075671 -0.001445
0.354870 -0.536349 -0.345488
0.364773 -0.549682 -0.336743
0.388566 -0.581093 -0.339730
0.422273 -0.625771 -0.349023
0.490331 -0.715637 -0.382551
2.619324 -3.516049 -1.927950
2.787328 -3.739712 -1.925881
2.993818 -4.014399 -1.934991
3.236406 -4.335524 -1.950487
3.492606 -4.676489 -1.955323
3.797767 -5.082590 -1.964716
4.190177 -5.602456 -1.992830
4.664499 -6.233165 -2.026676
5.222590 -6.973026 -2.054781
5.934134 -7.919132 -2.095958
6.788377 -9.055513 -2.126950
0.003417 -0.075482 -0.001440
9.858150 -13.010389 -2.293830
12.778373 -16.855680 -2.473039
19.470930 -25.665287 -3.014917
0.003417 -0.075482 -0.001440
0.003417 -0.075482 -0.001440
0.003417 -0.075482 -0.001440
0.003417 -0.075482 -0.001440
0.003417 -0.075482 -0.001440
0.003417 -0.075482 -0.001440
0.003417 -0.075482 -0.001440
0.003417 -0.075482 -0.001440
0.003417 -0.075482 -0.001440
0.003417 -0.075482 -0.001440
0.003417 -0.075482 -0.001440
0.003417 -0.075482 -0.001440
0.354271 -0.540916 -0.347525
0.360962 -0.550160 -0.335757
0.386680 -0.584509 -0.340663
0.423401 -0.633694 -0.352611
0.486609 -0.718223 -0.382546
2.598886 -3.531291 -1.927953
2.763999 -3.752516 -1.924341
2.972242 -4.032827 -1.935724
3.211106 -4.354409 -1.950491
3.477442 -4.711441 -1.961738
3.762065 -5.094970 -1.961144
4.157331 -5.626966 -1.992836
4.625542 -6.255024 -2.025163
5.186299 -7.009869 -2.056641
5.887530 -7.953928 -2.095969
6.740926 -9.103231 -2.128821
7.145449 -9.558747 -1.957120
9.768235 -13.050941 -2.290785
12.662571 -16.903255 -2.469348
19.275618 -25.712929 -3.007508
0.003411 -0.075289 -0.001434
0.003411 -0.075289 -0.001434
0.003411 -0.075289 -0.001434
0.003411 -0.075289 -0.001434
0.003411 -0.075289 -0.001434
0.003411 -0.075289 -0.001434
47.733696 -63.852345 5.534822
0.003411 -0.075289 -0.001434
50.681255 -67.866112 9.859932
0.003411 -0.075289 -0.001434
0.003411 -0.075289 -0.001434
0.003411 -0.075289 -0.001434
0.348421 -0.538660 -0.344458
0.363348 -0.559077 -0.340655
0.386825 -0.590835 -0.343479
0.421142 -0.637414 -0.353505
0.485059 -0.723707 -0.384255
2.582214 -3.550362 -1.930397
2.743244 -3.770092 -1.925115
2.950513 -4.051126 -1.936454
3.188679 -4.375606 -1.951865
3.445085 -4.723533 -1.958538
3.744478 -5.131646 -1.967115
4.133329 -5.661382 -1.996708
4.593362 -6.285966 -2.026694
5.147489 -7.040926 -2.057113
5.845853 -7.989569 -2.096817
6.700958 -9.154685 -2.132175
7.080888 -9.589616 -1.954862
0.003403 -0.075100 -0.001428
12.534216 -16.939493 -2.463796
19.100836 -25.796074 -3.004018
0.003403 -0.075100 -0.001428
0.003403 -0.075100 -0.001428
0.003403 -0.075100 -0.001428
53.238888 -71.934036 -0.039684
0.003403 -0.075100 -0.001428
0.003403 -0.075100 -0.001428
0.003403 -0.075100 -0.001428
0.003403 -0.075100 -0.001428
0.003403 -0.075100 -0.001428
0.003403 -0.075100 -0.001428
0.003403 -0.075100 -0.001428
0.003403 -0.075100 -0.001428
0.342752 -0.536223 -0.341389
0.356507 -0.555265 -0.336728
0.383931 -0.592770 -0.343474
0.412697 -0.632341 -0.349009
0.475958 -0.718983 -0.379968
2.560031 -3.561994 -1.928771
2.719314 -3.780651 -1.922803
2.925393 -4.064806 -1.935001
3.161664 -4.390620 -1.950500
3.412696 -4.735404 -1.955338
3.709680 -5.145169 -1.964137
0.003396 -0.074907 -0.001422
4.559839 -6.315182 -2.027717
5.105048 -7.067047 -2.056200
5.797692 -8.022264 -2.096412
6.649369 -9.197191 -2.132934
7.902110 -10.817987 -2.198044
7.184140 -9.848716 -1.711223
0.003396 -0.074907 -0.001422
0.003396 -0.074907 -0.001422
0.003396 -0.074907 -0.001422
0.003396 -0.074907 -0.001422
0.003396 -0.074907 -0.001422
0.003396 -0.074907 -0.001422
0.003396 -0.074907 -0.001422
0.003396 -0.074907 -0.001422
0.003396 -0.074907 -0.001422
0.003396 -0.074907 -0.001422
0.003396 -0.074907 -0.001422
0.003396 -0.074907 -0.001422
0.003396 -0.074907 -0.001422
0.003396 -0.074907 -0.001422
0.342047 -0.540823 -0.343428
0.349553 -0.551516 -0.332802
0.378765 -0.591965 -0.341589
0.409370 -0.634559 -0.349004
0.463644 -0.709872 -0.373112
2.537156 -3.573923 -1.927145
2.696223 -3.794986 -1.922034
2.901685 -4.081850 -1.935004
3.138228 -4.412109 -1.951874
3.383886 -4.753784 -1.954701
0.003390 -0.074714 -0.001416
4.070082 -5.711945 -1.997828
4.523918 -6.343442 -2.028233
5.065782 -7.100104 -2.057134
5.757364 -8.065782 -2.098926
6.603223 -9.247371 -2.135548
7.844110 -10.872377 -2.199689
7.124930 -9.889279 -1.710960
0.003390 -0.074714 -0.001416
0.003390 -0.074714 -0.001416
6.776805 -9.426950 -0.813899
0.003390 -0.074714 -0.001416
0.003390 -0.074714 -0.001416
0.003390 -0.074714 -0.001416
0.003390 -0.074714 -0.001416
0.003390 -0.074714 -0.001416
0.003390 -0.074714 -0.001416
48.810936 -67.766853 7.748004
0.003390 -0.074714 -0.001416
0.003390 -0.074714 -0.001416
0.003390 -0.074714 -0.001416
0.003390 -0.074714 -0.001416
0.338342 -0.541166 -0.342401
0.346798 -0.553302 -0.332797
0.375770 -0.593918 -0.341584
0.408232 -0.639598 -0.350797
0.449571 -0.697541 -0.364543
2.526120 -3.599685 -1.933662
2.680147 -3.817716 -1.925895
2.879300 -4.097752 -1.935008
3.110713 -4.424732 -1.949823
3.354444 -4.767736 -1.952783
3.654452 -5.191724 -1.965940
4.038561 -5.734328 -1.997834
4.486651 -6.365198 -2.027228
5.029916 -7.132774 -2.058530
5.714112 -8.096538 -2.098938
6.559295 -9.290689 -2.137419
7.777282 -10.910665 -2.198408
6.727323 -9.450654 -1.628054
6.692246 -9.408721 -1.347315
6.728524 -9.466352 -1.084148
6.751282 -9.501685 -0.817144
0.003383 -0.074522 -0.001410
0.003383 -0.074522 -0.001410
0.003383 -0.074522 -0.001410
0.003383 -0.074522 -0.001410
0.003383 -0.074522 -0.001410
0.003383 -0.074522 -0.001410
48.287483 -67.808693 7.722707
0.003383 -0.074522 -0.001410
0.003383 -0.074522 -0.001410
0.003383 -0.074522 -0.001410
0.003383 -0.074522 -0.001410
0.339696 -0.548443 -0.346480
0.344098 -0.555012 -0.332792
0.369720 -0.591538 -0.338761
0.402983 -0.638735 -0.348995
0.443886 -0.696954 -0.362826
0.496909 -0.772410 -0.382483
2.655372 -3.828330 -1.923583
2.859322 -4.118587 -1.937196
3.086703 -4.443863 -1.950511
3.325482 -4.785765 -1.952147
3.621864 -5.209951 -1.964753
4.010359 -5.763524 -2.000049
4.448180 -6.389870 -2.026729
4.990261 -7.165422 -2.059466
5.663922 -8.129416 -2.098533
6.513612 -9.342039 -2.140404
0.003376 -0.074329 -0.001405
6.675583 -9.492192 -1.628628
6.658483 -9.471617 -1.351057
6.684115 -9.514884 -1.085470
6.732668 -9.590633 -0.821512
6.770747 -9.651669 -0.553398
0.003376 -0.074329 -0.001405
0.003376 -0.074329 -0.001405
0.003376 -0.074329 -0.001405
0.003376 -0.074329 -0.001405
0.003376 -0.074329 -0.001405
