# This PCD file was generated using the MATLAB® pcwrite function
# from Computer Vision Toolbox®.
# .PCD v.7 - Point Cloud Data file format
VERSION .7
FIELDS x y z
SIZE 4 4 4
TYPE F F F
COUNT 1 1 1
WIDTH 1649
HEIGHT 1
VIEWPOINT 0 0 0 1 0 0 0
POINTS 1649
DATA ascii
-3.560526 1.118674 -1.387099
-3.795707 1.206082 -1.372645
-4.051683 1.302063 -1.353045
-4.344547 1.411873 -1.333179
-4.537178 1.483948 -1.271155
-4.652565 1.528450 -1.180058
-4.654252 1.530933 -1.059429
-4.660600 1.535142 -0.940800
-4.668859 1.515038 -0.820878
-4.608526 1.494795 -0.693699
-4.642634 1.508214 -0.581091
-6.762203 2.287680 -0.674657
0.007529 -0.195976 -0.004793
-4.534362 1.473043 -0.228523
-10.594903 3.704336 -0.262594
-11.264408 3.955106 -0.000030
-17.464924 6.242033 0.434914
-28.272598 10.235538 1.412860
-30.801968 11.180783 2.304891
-30.771149 11.181645 3.069749
-17.596231 6.314923 2.197665
-9.380683 3.280068 1.406217
-10.232574 3.599563 1.793888
0.007529 -0.195976 -0.004793
-0.421398 -0.036056 -0.275975
-2.633264 0.788693 -1.586831
-2.706516 0.816545 -1.543507
-2.826225 0.862325 -1.521973
-2.917338 0.897512 -1.481280
-3.011798 0.933424 -1.438477
-3.157552 0.989200 -1.414869
-3.352908 1.063681 -1.404489
-3.558196 1.141338 -1.389145
-3.792664 1.230779 -1.374561
-4.048103 1.328289 -1.354827
-4.329830 1.435027 -1.331525
-4.510861 1.504900 -1.266600
-4.648029 1.557462 -1.181437
-4.657086 1.562736 -1.062331
-4.656117 1.564235 -0.941904
-4.667906 1.546352 -0.822492
-4.602449 1.522887 -0.694251
-4.625015 1.533145 -0.580163
-6.935790 2.398328 -0.693340
-9.585415 3.390182 -0.716852
-4.531894 1.502918 -0.228890
-10.712018 3.819875 -0.266018
-11.341501 4.057954 0.000013
-17.463928 6.359685 0.435856
-28.262667 10.422771 1.415482
-30.900391 11.419714 2.317228
-17.366352 6.340431 1.734440
-17.211599 6.289093 2.154307
-9.499544 3.386566 1.427152
0.007502 -0.195777 -0.004787
-3.022425 0.948350 0.606756
-0.430142 -0.029739 -0.282087
-2.621065 0.801583 -1.582911
-2.692387 0.829183 -1.538813
-2.813399 0.876243 -1.518384
-2.909506 0.913346 -1.480422
-3.000143 0.949009 -1.436035
-3.154152 1.008888 -1.416405
-3.356293 1.086573 -1.408846
-3.552231 1.162685 -1.389825
-3.784652 1.252133 -1.374558
-4.044911 1.353115 -1.356609
-4.320390 1.460130 -1.331522
-4.486843 1.524716 -1.262552
-4.657882 1.592056 -1.186498
-4.643542 1.587499 -1.061499
-4.651724 1.592507 -0.943012
-4.659641 1.574091 -0.822814
-4.611024 1.556583 -0.697024
-4.596433 1.552890 -0.577849
-6.926348 2.440523 -0.693893
0.007503 -0.195588 -0.004782
-4.525775 1.530600 -0.229073
-10.758609 3.906115 -0.267706
0.007503 -0.195588 -0.004782
-17.457710 6.472362 0.436655
-27.799902 10.426441 1.395178
-31.038059 11.675829 2.332650
-30.978809 11.659406 3.103686
-17.134367 6.369567 2.149176
-10.092711 3.676741 1.519823
-10.091272 3.678226 1.776661
-2.988504 0.954858 0.601194
-0.432417 -0.025877 -0.284122
-2.610587 0.814528 -1.579970
-2.691595 0.846321 -1.541623
-2.802386 0.890213 -1.515690
-2.908153 0.932250 -1.482983
-2.998628 0.968450 -1.438470
-3.147403 1.026687 -1.416401
-3.334985 1.100697 -1.403028
-3.542596 1.182631 -1.389139
-3.774493 1.273412 -1.373916
-4.037711 1.377267 -1.357202
-4.298267 1.480298 -1.327666
-4.469666 1.547910 -1.260527
-4.651167 1.620462 -1.187415
-4.638383 1.617352 -1.062741
-4.648381 1.623132 -0.944487
-4.644197 1.598153 -0.821840
-4.628581 1.593996 -0.701185
-4.556950 1.567267 -0.574149
-6.922697 2.483645 -0.695001
0.007503 -0.195402 -0.004778
-4.519805 1.557481 -0.229255
-10.634178 3.929127 -0.265243
0.007503 -0.195402 -0.004778
-17.455681 6.583578 0.437549
-27.559618 10.516903 1.386151
0.007503 -0.195402 -0.004778
-31.056498 11.900794 3.118602
0.007503 -0.195402 -0.004778
-10.201284 3.786043 1.539641
-9.985436 3.705894 1.762035
-3.012960 0.984414 0.607506
-0.444221 -0.018059 -0.292274
-2.599694 0.828298 -1.577030
-2.691951 0.865065 -1.545373
-2.797582 0.907684 -1.516583
-2.904791 0.951017 -1.484690
-2.991871 0.985899 -1.438468
-3.145251 1.047574 -1.418709
-3.330719 1.122034 -1.404479
-3.527626 1.200453 -1.386403
-3.762227 1.294598 -1.372633
-4.023021 1.399295 -1.355413
-4.284982 1.503801 -1.326562
-4.462865 1.576021 -1.261536
-4.644269 1.648840 -1.188334
-4.633345 1.646390 -1.063984
-4.643342 1.652242 -0.945593
-4.642691 1.629477 -0.823455
-4.625597 1.623709 -0.702293
0.007504 -0.195213 -0.004773
0.007504 -0.195213 -0.004773
0.007504 -0.195213 -0.004773
-4.514920 1.586662 -0.229530
-10.799285 4.067122 -0.269898
-6.574542 2.402167 -0.001981
0.007504 -0.195213 -0.004773
0.007504 -0.195213 -0.004773
-31.185194 12.145504 2.354236
-31.184513 12.157869 3.138553
0.007504 -0.195213 -0.004773
-9.068168 3.404578 1.371327
-9.874803 3.728530 1.746434
-2.974859 0.990135 0.601200
-0.449597 -0.012726 -0.296348
-2.600243 0.846044 -1.580943
-2.689112 0.882071 -1.547245
-2.796188 0.925978 -1.519270
-2.909909 0.972637 -1.490671
-2.984845 1.003845 -1.438464
-3.139785 1.066563 -1.419475
-3.335178 1.146245 -1.409564
-3.522788 1.222959 -1.387767
-3.762390 1.319968 -1.375828
-4.015535 1.423337 -1.356007
-4.269518 1.527245 -1.324907
-4.452610 1.601887 -1.261533
-4.631464 1.675828 -1.187871
-4.629608 1.676969 -1.065643
-4.635959 1.681428 -0.946330
-4.633948 1.657102 -0.823776
-4.620266 1.653523 -0.703123
0.007476 -0.195013 -0.004767
-6.698687 2.487828 -0.675758
0.007476 -0.195013 -0.004767
-4.510176 1.615060 -0.229804
0.007476 -0.195013 -0.004767
-6.431005 2.389903 -0.002033
-28.355360 11.197867 0.716927
-28.353914 11.208820 1.432828
-31.287371 12.401069 2.367553
-31.262234 12.403679 3.153840
-9.303576 3.558351 1.173239
-9.088921 3.475524 1.377747
-2.868920 0.966829 0.506161
-2.909689 0.983895 0.589328
-0.459697 -0.005293 -0.303478
-2.585948 0.858380 -1.576045
-2.684314 0.898879 -1.548181
-2.792796 0.944100 -1.521061
-2.901268 0.989406 -1.489813
-2.971149 1.018465 -1.435209
-3.127131 1.083281 -1.417162
-3.330637 1.167625 -1.411014
-3.519830 1.245567 -1.389813
-3.746322 1.339590 -1.373269
-3.998832 1.444448 -1.353623
-4.259523 1.551990 -1.324906
-4.463380 1.637271 -1.267600
-4.626040 1.704880 -1.189250
-4.618793 1.703800 -1.065639
-4.636003 1.712766 -0.948545
-4.630207 1.687726 -0.825068
-4.622428 1.685517 -0.705063
-4.539959 1.653878 -0.575991
-4.544852 1.657727 -0.461342
-4.523545 1.649982 -0.344923
-4.503086 1.643495 -0.229986
-6.311153 2.382970 -0.160513
-6.356771 2.402886 -0.002057
0.007477 -0.194824 -0.004763
-28.446714 11.442644 1.440990
-31.375053 12.646742 2.379746
-31.364330 12.655184 3.171552
-9.272011 3.609884 1.172075
0.007477 -0.194824 -0.004763
-9.674988 3.781060 1.719131
-2.888127 0.995376 0.586363
-0.511093 0.019228 -0.337118
-2.587939 0.876799 -1.580935
-2.682885 0.916548 -1.550992
-2.791167 0.962421 -1.523748
-2.894650 1.005801 -1.489809
-2.964123 1.035757 -1.435207
-3.126561 1.104302 -1.420239
-3.314385 1.182834 -1.407378
-3.513217 1.266730 -1.390494
-3.742992 1.362875 -1.375183
-3.991400 1.467680 -1.354216
-4.229911 1.568569 -1.318847
-4.462052 1.666085 -1.270125
-4.620426 1.733922 -1.190629
-4.620761 1.735020 -1.068543
-4.627124 1.739577 -0.948912
-4.628435 1.718320 -0.826683
-4.617038 1.714567 -0.705893
-4.536606 1.683224 -0.576913
0.007478 -0.194635 -0.004759
-4.516540 1.677720 -0.345199
0.007478 -0.194635 -0.004759
0.007478 -0.194635 -0.004759
-6.334334 2.436559 -0.002060
-11.191730 4.456472 0.281556
0.007478 -0.194635 -0.004759
-31.484919 12.903805 2.393764
0.007478 -0.194635 -0.004759
-9.296480 3.680847 1.177900
-9.066236 3.588668 1.380817
0.007478 -0.194635 -0.004759
-2.992077 1.057889 0.609002
-0.536879 0.033609 -0.354445
-2.585135 0.892785 -1.582891
-2.676658 0.931722 -1.550989
-2.778104 0.975434 -1.520156
-2.871040 1.015652 -1.481256
-2.963726 1.055842 -1.438455
-3.115874 1.120513 -1.418696
-3.292685 1.196317 -1.401561
-3.499573 1.284948 -1.388441
0.007478 -0.194449 -0.004754
-3.983543 1.491580 -1.354808
-4.186048 1.578861 -1.308385
-4.478016 1.703255 -1.277709
-4.618221 1.764484 -1.192929
-4.614660 1.764884 -1.069786
-4.624647 1.771035 -0.950757
-4.623182 1.746624 -0.827650
-4.609635 1.742844 -0.706447
-4.529756 1.710266 -0.577372
0.007478 -0.194449 -0.004754
-4.520432 1.710086 -0.346305
0.007478 -0.194449 -0.004754
-6.287075 2.457070 -0.160648
-6.319123 2.473183 -0.002057
0.007478 -0.194449 -0.004754
0.007478 -0.194449 -0.004754
-31.559763 13.148566 2.405256
0.007478 -0.194449 -0.004754
-9.389301 3.783264 1.192585
-9.011499 3.627065 1.375792
-9.448763 3.816250 1.686953
-2.910660 1.043835 0.593791
-0.541858 0.039717 -0.358519
-2.578654 0.908315 -1.582887
-2.669956 0.947797 -1.550985
-2.782637 0.997019 -1.526430
-2.857160 1.030026 -1.477834
-2.953138 1.071659 -1.436827
-3.106344 1.138460 -1.417922
-3.292976 1.219708 -1.405190
-3.497907 1.308235 -1.391172
-3.721059 1.405430 -1.373900
-3.978757 1.517646 -1.356590
-4.212898 1.619076 -1.319943
-4.475571 1.733800 -1.280236
-4.610476 1.792783 -1.193847
-4.612327 1.795498 -1.071858
-4.620487 1.800937 -0.952233
-4.620691 1.778083 -0.829265
-4.607529 1.773434 -0.707833
-7.518563 3.017725 -0.956961
-4.506746 1.734204 -0.460780
-4.514903 1.738628 -0.346720
0.007451 -0.194250 -0.004748
-6.276786 2.496876 -0.160783
-6.305519 2.510493 -0.002056
0.007451 -0.194250 -0.004748
0.007451 -0.194250 -0.004748
0.007451 -0.194250 -0.004748
-16.994947 7.114999 1.729183
0.007451 -0.194250 -0.004748
-8.911175 3.645387 1.363790
-9.367561 3.845768 1.676552
-3.516829 1.325950 0.719960
-0.551556 0.047842 -0.365651
-2.570683 0.922663 -1.581905
-2.668204 0.965467 -1.553797
-2.770813 1.011090 -1.523738
-2.855065 1.048830 -1.480395
-2.948954 1.090826 -1.438449
-3.090169 1.152850 -1.414069
-3.279651 1.236610 -1.403009
-3.487250 1.328424 -1.390485
-3.711826 1.427040 -1.373896
-3.965336 1.539194 -1.355399
-4.223232 1.653474 -1.326547
-4.459117 1.757419 -1.278716
-4.607525 1.824189 -1.196148
-4.604043 1.824590 -1.072687
-4.613996 1.830879 -0.953340
-4.612886 1.806415 -0.829911
-4.601243 1.803296 -0.708663
-7.496344 3.059562 -0.956497
0.007452 -0.194060 -0.004744
-9.416817 3.900123 -0.719212
-9.393956 3.892159 -0.478769
-6.275873 2.539537 -0.161148
-6.302220 2.553627 -0.002050
0.007452 -0.194060 -0.004744
-10.170536 4.244548 0.517425
-16.823538 7.152933 1.286664
0.007452 -0.194060 -0.004744
-9.890064 4.132568 1.262740
-9.086040 3.784890 1.394214
-2.835953 1.051289 0.506502
0.007452 -0.194060 -0.004744
-0.539090 0.046489 -0.358510
-2.575189 0.943020 -1.588755
-2.661295 0.981487 -1.553794
-2.763629 1.027717 -1.523735
-2.842691 1.063762 -1.477827
-2.934605 1.105555 -1.435195
-3.093968 1.176592 -1.419457
-3.271132 1.256255 -1.403005
0.007453 -0.193871 -0.004740
-3.700420 1.448464 -1.373255
-3.956762 1.563670 -1.355991
-4.206931 1.676349 -1.324894
-4.458081 1.788744 -1.281749
-4.597296 1.852486 -1.196605
-4.602722 1.856834 -1.075176
-4.609097 1.861607 -0.954816
-4.608178 1.837123 -0.831203
-4.598415 1.834754 -0.710048
-7.480564 3.105751 -0.956960
0.007453 -0.193871 -0.004740
-9.438041 3.976228 -0.722681
-9.376915 3.951215 -0.479138
-6.274196 2.583374 -0.161512
-6.291321 2.593584 -0.002046
0.007453 -0.193871 -0.004740
0.007453 -0.193871 -0.004740
0.007453 -0.193871 -0.004740
0.007453 -0.193871 -0.004740
-10.014949 4.258265 1.282085
-9.004385 3.813136 1.385280
0.007453 -0.193871 -0.004740
-3.554516 1.392162 0.731469
-0.539335 0.050435 -0.359524
-2.573612 0.959738 -1.591688
-2.664387 1.000867 -1.559420
-2.755150 1.042611 -1.522835
-2.825747 1.075395 -1.472694
-2.925646 1.121382 -1.434379
-3.084579 1.193292 -1.418685
-3.261306 1.273942 -1.402275
-3.466085 1.367348 -1.389113
-3.691225 1.469311 -1.373251
-3.950386 1.587503 -1.357179
-4.201725 1.702389 -1.326542
-4.434623 1.808242 -1.278206
-4.598238 1.883922 -1.199825
-4.598369 1.885923 -1.076833
-4.604748 1.890749 -0.956292
-4.605798 1.867046 -0.832819
-4.588843 1.861404 -0.710324
-7.463873 3.148458 -0.957191
0.007455 -0.193678 -0.004735
0.007455 -0.193678 -0.004735
-9.382829 4.016745 -0.480617
-6.302424 2.638205 -0.162605
-6.324964 2.650991 -0.002023
-10.015717 4.311081 0.254689
-10.011338 4.313336 0.511880
-9.979749 4.303334 0.765468
-9.982800 4.308919 1.021913
-9.944702 4.293860 1.276257
-8.620893 3.700581 1.329456
-9.786743 4.230901 1.765278
-3.522328 1.401668 0.726647
-0.534739 0.052434 -0.357482
-2.557188 0.970864 -1.585812
-2.655649 1.016128 -1.558479
-2.764070 1.066548 -1.531798
-2.813227 1.090095 -1.470127
-2.921384 1.139932 -1.436001
-3.069610 1.208720 -1.415600
-3.261046 1.297340 -1.405906
-3.460490 1.389048 -1.390477
-3.688201 1.494528 -1.375807
-3.934552 1.608726 -1.355392
-4.183755 1.723547 -1.324338
-4.413892 1.830684 -1.275676
-4.596834 1.915420 -1.202586
-4.595223 1.916638 -1.078907
-4.603408 1.922346 -0.958507
-4.597108 1.896162 -0.833464
-4.582357 1.890442 -0.711155
-7.443963 3.192859 -0.957190
0.007428 -0.193479 -0.004729
0.007428 -0.193479 -0.004729
-9.319549 4.055107 -0.478678
-10.095143 4.412682 -0.258179
0.007428 -0.193479 -0.004729
-10.021606 4.385532 0.255538
-9.989920 4.375302 0.512160
-9.944663 4.356739 0.764766
-9.819115 4.303503 1.007732
-10.029901 4.404222 1.290705
-8.735187 3.813027 1.350668
-9.736028 4.275822 1.760727
-2.651951 1.027500 0.547793
-0.538006 0.057896 -0.360536
-2.547302 0.984321 -1.583850
-2.659901 1.036794 -1.565043
-2.755171 1.081907 -1.530898
-2.809097 1.108000 -1.471834
-2.913679 1.156943 -1.435998
-3.063168 1.227351 -1.416368
-3.245658 1.313166 -1.402997
-3.444500 1.405986 -1.387742
-3.685325 1.519131 -1.378362
-3.905097 1.622716 -1.348843
-4.176149 1.749420 -1.325438
-4.382877 1.847289 -1.270111
-4.593468 1.946158 -1.204885
-4.584801 1.944085 -1.079320
-4.591163 1.949008 -0.958506
-4.590410 1.925276 -0.834432
-4.581107 1.921969 -0.712818
-7.411723 3.230003 -0.955573
0.007428 -0.193293 -0.004725
0.007428 -0.193293 -0.004725
0.007428 -0.193293 -0.004725
0.007428 -0.193293 -0.004725
0.007428 -0.193293 -0.004725
-10.051342 4.469384 0.256999
0.007428 -0.193293 -0.004725
-10.095668 4.496399 0.778512
0.007428 -0.193293 -0.004725
-9.839417 4.385846 1.269495
-8.895177 3.948645 1.379138
-8.599231 3.814630 1.558895
-2.614619 1.028854 0.541489
-0.536562 0.061223 -0.360531
-2.534183 0.996225 -1.579931
-2.649572 1.050797 -1.563164
-2.749401 1.098712 -1.531793
-2.811413 1.128973 -1.476960
-2.905623 1.174410 -1.435996
-3.051625 1.243605 -1.414825
-3.226832 1.327278 -1.398633
-3.445185 1.431404 -1.391839
-3.649689 1.528416 -1.368768
-3.910130 1.652692 -1.354197
-4.159368 1.771906 -1.323783
-4.364074 1.869387 -1.268086
-4.617662 1.991016 -1.214552
-4.580916 1.975630 -1.081393
-4.587278 1.980608 -0.960352
-4.581724 1.953537 -0.835077
-4.573884 1.951829 -0.713649
0.007429 -0.193104 -0.004721
-4.473254 1.907595 -0.464469
-4.475553 1.910591 -0.349066
0.007429 -0.193104 -0.004721
0.007429 -0.193104 -0.004721
0.007429 -0.193104 -0.004721
-10.889148 4.934258 0.279558
0.007429 -0.193104 -0.004721
0.007429 -0.193104 -0.004721
0.007429 -0.193104 -0.004721
-9.401587 4.248408 1.216120
-3.806601 1.608942 0.589797
0.007429 -0.193104 -0.004721
-2.612892 1.046630 0.542606
-0.533507 0.063894 -0.359507
-2.533403 1.014447 -1.583843
-2.640580 1.065949 -1.562222
-2.746568 1.117520 -1.534479
-2.811921 1.149231 -1.481232
-2.896073 1.190541 -1.435180
-3.058062 1.269046 -1.421753
-3.226434 1.350047 -1.402265
-3.435792 1.451419 -1.391836
-3.663684 1.561045 -1.377718
-3.904624 1.677846 -1.355980
-4.153192 1.798506 -1.325434
-4.380068 1.908049 -1.276177
-4.633112 2.031220 -1.221916
-4.577578 2.005596 -1.083467
-4.582173 2.009782 -0.961829
-4.576070 1.984268 -0.836369
-4.566845 1.980876 -0.714480
0.007430 -0.192914 -0.004716
-4.466153 1.936870 -0.465022
-4.472400 1.940816 -0.349758
-4.450644 1.932368 -0.233106
-9.839156 4.503351 -0.253756
-10.989784 5.056871 0.000015
-10.800861 4.971341 0.278046
-29.660824 13.989146 1.541574
-32.410416 15.317477 2.522280
0.007430 -0.192914 -0.004716
-3.763451 1.613715 0.485902
-3.619387 1.546258 0.562166
0.007430 -0.192914 -0.004716
-2.607491 1.062718 0.542979
-0.528978 0.065605 -0.357463
-2.531347 1.031055 -1.586777
-2.620793 1.074745 -1.554713
-2.745659 1.136150 -1.538063
-2.828589 1.177408 -1.494053
-2.889953 1.207689 -1.435990
-3.041544 1.282279 -1.417901
-3.222550 1.371240 -1.404443
-3.428259 1.471597 -1.392517
-3.660365 1.585619 -1.380274
-3.880080 1.693835 -1.351217
-4.121293 1.811793 -1.318825
-4.362715 1.930900 -1.274657
-4.657411 2.075122 -1.231582
-4.571895 2.035536 -1.085126
-4.581812 2.042352 -0.964414
-4.574548 2.015130 -0.838307
-4.561809 2.009979 -0.715588
-4.488861 1.976763 -0.585678
-8.377858 3.856851 -0.869825
0.007402 -0.192715 -0.004710
-4.444101 1.959984 -0.233383
-9.878592 4.592318 -0.255447
-10.690346 4.987554 -0.000103
0.007402 -0.192715 -0.004710
-20.187067 9.603731 1.050718
0.007402 -0.192715 -0.004710
0.007402 -0.192715 -0.004710
-3.788733 1.652929 0.490565
-8.955989 4.167152 1.400068
0.007402 -0.192715 -0.004710
-2.586087 1.071032 0.540013
-0.525944 0.068122 -0.356439
-2.524260 1.045814 -1.586775
-2.624577 1.095459 -1.561278
-2.741196 1.153723 -1.539853
-2.832039 1.199455 -1.500035
-2.881620 1.225020 -1.435987
-3.028068 1.297540 -1.415586
-3.211837 1.389157 -1.403713
-3.416676 1.491287 -1.391831
-3.646683 1.605198 -1.378993
-3.867461 1.715501 -1.350620
-4.109338 1.836403 -1.318823
-4.352170 1.957037 -1.275161
-4.544425 2.053816 -1.205339
-4.570896 2.068880 -1.088030
-4.566733 2.068823 -0.964043
-4.565323 2.043361 -0.838953
-4.555796 2.040685 -0.716697
-4.476326 2.002770 -0.585676
-8.354419 3.905185 -0.869828
-9.285914 4.365705 -0.724493
-4.438833 1.989259 -0.233750
-9.893971 4.670423 -0.256545
-10.470994 4.958385 -0.000188
-10.603539 5.025863 0.274407
0.007404 -0.192526 -0.004706
0.007404 -0.192526 -0.004706
0.007404 -0.192526 -0.004706
-3.770936 1.671406 0.489635
-3.556563 1.567201 0.555473
-2.550806 1.071724 0.465250
-2.606995 1.100062 0.545954
-0.533644 0.076055 -0.362552
-2.510663 1.057887 -1.582855
-2.616916 1.111222 -1.561275
-2.729962 1.168576 -1.538057
-2.833687 1.220770 -1.505163
-2.871803 1.240989 -1.435171
-3.019193 1.315688 -1.415584
-3.194368 1.403677 -1.400077
-3.403574 1.509456 -1.390462
-3.639678 1.628059 -1.380270
-3.883750 1.751592 -1.360139
-4.111376 1.867114 -1.323225
-4.324162 1.974467 -1.270608
-4.616700 2.122833 -1.227896
-4.565216 2.098067 -1.089689
-4.561107 2.098010 -0.965518
-4.564370 2.076744 -0.841216
-4.549963 2.070594 -0.717807
-4.466807 2.031258 -0.586136
-8.330002 3.954843 -0.869829
0.007403 -0.192340 -0.004701
-4.434799 2.020214 -0.234209
-9.765631 4.677534 -0.253991
-11.042573 5.318667 0.000069
0.007403 -0.192340 -0.004701
-18.339386 8.969920 0.959579
-18.336172 8.976363 1.437273
0.007403 -0.192340 -0.004701
-9.279191 4.455514 1.213782
-3.557007 1.593180 0.557150
-3.591717 1.611361 0.658306
-3.976762 1.806075 0.836871
-0.533685 0.080030 -0.363567
-2.497414 1.068955 -1.578937
-2.593591 1.118525 -1.551890
-2.723937 1.184812 -1.538951
-2.819066 1.234015 -1.501740
-2.863520 1.257708 -1.435168
-3.007160 1.331582 -1.414042
-3.195110 1.427291 -1.404435
-3.328329 1.496128 -1.363811
-3.632232 1.651543 -1.381546
-3.853453 1.765305 -1.353591
-4.099464 1.890947 -1.323224
-4.314704 2.002031 -1.271618
-4.641101 2.169782 -1.238022
-4.558154 2.129653 -1.091347
-4.557975 2.130577 -0.967734
-4.558700 2.105935 -0.842509
-4.543962 2.100520 -0.718915
-4.465000 2.061729 -0.587521
-8.299656 3.997872 -0.869089
-9.316599 4.514918 -0.731018
-4.427339 2.048611 -0.234486
-9.639343 4.684234 -0.251482
-11.135643 5.445514 0.000121
0.007376 -0.192141 -0.004695
-17.327854 8.593665 0.909126
-17.290260 8.578449 1.358988
0.007376 -0.192141 -0.004695
0.007376 -0.192141 -0.004695
-8.943218 4.358017 1.410391
-2.655715 1.162277 0.487356
0.007376 -0.192141 -0.004695
-0.530489 0.082733 -0.362543
-2.491232 1.085190 -1.579913
-2.585801 1.134102 -1.551887
-2.709131 1.198375 -1.535362
-2.821843 1.256696 -1.507722
-2.858125 1.276543 -1.436792
-3.003021 1.352134 -1.416350
-3.188785 1.448128 -1.405886
-3.400209 1.558130 -1.397291
-3.619886 1.671760 -1.380905
-3.855726 1.794651 -1.358349
-4.087067 1.915436 -1.323222
-4.333004 2.042987 -1.280719
-4.641276 2.203790 -1.241704
-4.552085 2.158842 -1.093007
-4.551517 2.160578 -0.969212
-4.549900 2.136634 -0.843477
-4.539136 2.132145 -0.720301
-4.463555 2.095490 -0.589138
-8.265081 4.044112 -0.868166
-9.270800 4.561174 -0.729632
-4.426456 2.081424 -0.235130
-10.037253 4.960513 -0.262441
0.007377 -0.191951 -0.004691
-10.378474 5.144754 0.270906
-10.354750 5.134872 0.543143
-10.340548 5.132165 0.813567
0.007377 -0.191951 -0.004691
-17.046865 8.594016 2.246259
-3.576425 1.655934 0.563574
-2.600550 1.153337 0.478584
0.007377 -0.191951 -0.004691
-0.535060 0.089083 -0.366617
-2.491839 1.103307 -1.584804
-2.575236 1.147102 -1.550007
-2.704524 1.215337 -1.537152
-2.794237 1.263137 -1.497459
-2.848280 1.291845 -1.435976
-2.997651 1.370788 -1.417887
-3.174361 1.464092 -1.403703
-3.387074 1.575556 -1.395921
-3.607437 1.691902 -1.380263
-3.835780 1.812605 -1.355372
-4.075255 1.938421 -1.323220
-4.272069 2.043020 -1.266556
-4.626125 2.228960 -1.241243
-4.550654 2.191564 -1.095910
-4.546637 2.191501 -0.971058
-4.545614 2.166736 -0.845093
-4.538424 2.164030 -0.722243
-4.452493 2.121485 -0.589368
-8.241330 4.090355 -0.868168
-9.268965 4.625901 -0.731576
-4.419031 2.109065 -0.235406
-10.204363 5.120809 -0.267511
0.007378 -0.191762 -0.004687
0.007378 -0.191762 -0.004687
0.007378 -0.191762 -0.004687
0.007378 -0.191762 -0.004687
0.007378 -0.191762 -0.004687
0.007378 -0.191762 -0.004687
-3.688931 1.740301 0.583114
0.007378 -0.191762 -0.004687
-3.485190 1.636930 0.739659
-0.525819 0.088385 -0.361516
-2.481268 1.116220 -1.582843
-2.573740 1.165405 -1.553758
-2.694805 1.230262 -1.536253
-2.793826 1.283621 -1.501731
-2.831642 1.304174 -1.431909
-2.980455 1.383923 -1.414034
-3.163148 1.481678 -1.402974
-3.375186 1.594350 -1.395237
-3.598230 1.713731 -1.380900
-3.817429 1.831283 -1.352991
-4.068043 1.964746 -1.324870
-4.262567 2.069591 -1.267566
-4.594953 2.246645 -1.236637
-4.543780 2.221583 -1.097569
-4.545034 2.224294 -0.973642
-4.542460 2.198574 -0.847032
-4.533560 2.194923 -0.723630
-4.444384 2.150052 -0.590061
-8.211296 4.135129 -0.867613
-9.235800 4.676559 -0.731163
-4.411022 2.137461 -0.235683
-10.161286 5.173110 -0.267194
0.007379 -0.191573 -0.004682
0.007379 -0.191573 -0.004682
0.007379 -0.191573 -0.004682
0.007379 -0.191573 -0.004682
-9.101885 4.630586 0.960890
0.007379 -0.191573 -0.004682
-8.773230 4.462543 1.395871
-3.435637 1.634927 0.637188
-3.823522 1.842421 0.814244
-0.519597 0.089303 -0.358453
-2.475002 1.131950 -1.583820
-2.567243 1.181700 -1.554693
-2.686353 1.246441 -1.536249
-2.791406 1.303786 -1.505149
-2.827561 1.323742 -1.434345
-2.980844 1.407014 -1.418652
-3.161387 1.505019 -1.406606
-3.364563 1.614556 -1.395234
-3.590228 1.737042 -1.382177
-3.807077 1.855008 -1.353583
-4.036567 1.979047 -1.318812
-4.238883 2.089547 -1.264530
-4.600999 2.285115 -1.242161
-4.536304 2.252408 -1.099228
-4.537571 2.255142 -0.975119
-4.535191 2.229394 -0.848325
-4.529850 2.227575 -0.725293
-4.440963 2.182192 -0.591446
-8.185524 4.183938 -0.867615
-9.236718 4.747413 -0.733524
-4.404205 2.167563 -0.236050
-10.196314 5.269301 -0.268932
0.007352 -0.191373 -0.004676
-10.149200 5.250984 0.267264
-10.144186 5.252883 0.536935
-10.131167 5.248208 0.804301
-10.104722 5.238593 1.070577
-10.074397 5.226871 1.338226
0.007352 -0.191373 -0.004676
-3.473443 1.681685 0.646292
0.007352 -0.191373 -0.004676
-0.528590 0.098250 -0.365584
-2.470443 1.148053 -1.585775
-2.557734 1.195825 -1.553753
-2.670176 1.257837 -1.531764
-2.790740 1.324355 -1.509421
-2.828450 1.345429 -1.439219
-2.965134 1.420844 -1.415568
-3.146692 1.520740 -1.404422
-3.357442 1.635900 -1.396598
-3.575734 1.756069 -1.380898
-3.801956 1.880740 -1.355962
-4.010532 1.995104 -1.314406
-4.220603 2.111341 -1.263011
-4.590108 2.313626 -1.243080
-4.534219 2.285242 -1.102132
-4.532054 2.286131 -0.976966
-4.528162 2.259422 -0.849617
-4.521092 2.256636 -0.726125
-4.432498 2.210760 -0.592138
-4.482715 2.239970 -0.479070
-9.357293 4.881452 -0.745320
-4.401116 2.198795 -0.236604
-10.152436 5.321396 -0.268617
-10.145324 5.319860 -0.000256
-10.122988 5.312342 0.267401
-10.107438 5.308494 0.536649
-10.096215 5.304704 0.804016
-10.078571 5.299698 1.071132
-9.891322 5.202263 1.317946
-8.685272 4.547119 1.390564
0.007353 -0.191184 -0.004672
-3.444199 1.693383 0.737810
-0.508802 0.091595 -0.353346
-2.459641 1.160789 -1.583814
-2.549721 1.210739 -1.553750
-2.653980 1.269101 -1.527277
-2.775636 1.337125 -1.505999
-2.835597 1.370702 -1.447344
-2.957438 1.438987 -1.416337
-3.138435 1.539935 -1.405147
-3.341934 1.652684 -1.394547
-3.561176 1.775001 -1.379616
-3.798356 1.907412 -1.358935
-3.999566 2.019287 -1.314956
-4.264897 2.167602 -1.280206
-4.538154 2.319507 -1.232951
-4.531891 2.318129 -1.105037
-4.522907 2.315241 -0.978074
-4.529555 2.294173 -0.852529
-4.519107 2.289489 -0.728068
-4.429070 2.242175 -0.593525
-4.425043 2.241990 -0.474442
0.007354 -0.190995 -0.004667
-4.392559 2.227182 -0.236880
-10.139870 5.390529 -0.269122
-10.138015 5.391842 -0.000249
-10.115715 5.384202 0.268058
-10.091410 5.375442 0.537491
-10.080189 5.371577 0.805275
-10.067770 5.369345 1.073367
-10.011418 5.342842 1.338218
-8.647491 4.591476 1.388887
-9.254137 4.930943 1.738274
0.007354 -0.190995 -0.004667
-0.513194 0.098089 -0.357420
-2.465547 1.182758 -1.592623
-2.537014 1.223042 -1.550932
-2.654894 1.289775 -1.532657
-2.779449 1.360323 -1.512836
-2.845738 1.397879 -1.457095
-2.946405 1.455299 -1.415565
-3.126791 1.557271 -1.404419
-3.336218 1.674851 -1.396595
-3.548152 1.794750 -1.378976
-3.774560 1.922927 -1.354769
-3.980089 2.038726 -1.312752
-4.202289 2.164910 -1.265538
-4.504977 2.335338 -1.227886
-4.520792 2.346289 -1.105868
-4.518692 2.347201 -0.980292
-4.520396 2.323294 -0.853498
-4.513434 2.320477 -0.729455
-4.423687 2.272660 -0.594680
0.007355 -0.190805 -0.004663
0.007355 -0.190805 -0.004663
-4.389062 2.258470 -0.237433
-10.126811 5.459681 -0.269629
-10.117965 5.457095 -0.000249
-10.099211 5.451288 0.268479
-10.080176 5.445307 0.538614
-10.068919 5.441360 0.806953
-10.051264 5.436129 1.075041
-8.918718 4.806683 1.195583
-8.588761 4.623941 1.383861
-3.333897 1.682195 0.626147
-3.261186 1.642946 0.702934
-0.516049 0.103808 -0.360473
-2.450019 1.192865 -1.587726
-2.527314 1.236971 -1.549991
-2.649480 1.307010 -1.534446
-2.772063 1.377399 -1.513689
0.007327 -0.190606 -0.004657
-2.935299 1.471540 -1.414792
-3.116707 1.575456 -1.404417
-3.323468 1.693891 -1.395910
-3.541643 1.818155 -1.380892
-3.773989 1.951419 -1.358932
-3.963484 2.060608 -1.311649
-4.232437 2.214082 -1.278688
-4.430688 2.328587 -1.211772
-4.515921 2.379070 -1.108356
-4.515556 2.380964 -0.982877
-4.514466 2.354316 -0.855115
-4.507125 2.352273 -0.730841
-7.123212 3.827514 -0.957201
-4.403701 2.297090 -0.475182
0.007327 -0.190606 -0.004657
-10.129761 5.533476 -0.543117
-10.111553 5.527888 -0.270091
-10.105219 5.528993 -0.000244
-10.089227 5.522301 0.269088
-10.068469 5.515230 0.539737
-10.056211 5.512959 0.808632
-10.040283 5.508595 1.077462
-8.767188 4.788523 1.179034
-8.510151 4.646619 1.375764
-3.327887 1.705076 0.627123
0.007327 -0.190606 -0.004657
-0.506809 0.102823 -0.355373
-2.452405 1.213646 -1.594575
-2.532625 1.260035 -1.558433
-2.646769 1.326457 -1.538031
-2.769276 1.397129 -1.517107
-2.834936 1.435996 -1.461155
-2.923787 1.488210 -1.414021
-3.103256 1.591722 -1.402962
-3.310950 1.712264 -1.395225
-3.528403 1.837780 -1.380251
-3.745058 1.963810 -1.352981
-3.935451 2.074962 -1.306695
-4.200087 2.228004 -1.273124
-4.389129 2.338722 -1.204406
-4.515073 2.412235 -1.111677
-4.514768 2.414176 -0.985834
-4.511305 2.388096 -0.857379
-4.501023 2.383286 -0.732229
-7.097574 3.868897 -0.956971
-4.401006 2.330297 -0.476476
-4.396760 2.328898 -0.357510
0.007327 -0.190420 -0.004653
-10.104546 5.601079 -0.270779
-10.094727 5.600173 -0.000239
-10.069088 5.590173 0.269461
-10.056265 5.585191 0.540858
-10.040562 5.580866 0.810031
-10.030787 5.577615 1.079883
0.007327 -0.190420 -0.004653
-3.310553 1.719183 0.534842
-3.332670 1.732699 0.630051
-3.684312 1.936897 0.799781
-0.506675 0.106742 -0.356387
-0.530164 0.120566 -0.353178
-2.526020 1.275243 -1.559369
-2.641361 1.343210 -1.539823
-2.755423 1.410542 -1.514540
-2.822384 1.450667 -1.459527
-2.917582 1.506566 -1.415559
-3.092962 1.609766 -1.402960
-3.298330 1.730557 -1.394540
-3.511769 1.855406 -1.378331
-3.724366 1.980742 -1.350004
-3.943980 2.110369 -1.313850
-4.227942 2.276704 -1.285766
-4.379574 2.367095 -1.205786
-4.506345 2.443122 -1.113337
-4.504371 2.444092 -0.986941
-4.507118 2.419369 -0.859319
-4.494721 2.414314 -0.733617
-7.081706 3.912617 -0.957898
-8.000471 4.448119 -0.864484
-9.363771 5.242181 -0.757965
-10.090923 5.666095 -0.544605
-10.090115 5.670365 -0.271286
-10.082036 5.670418 -0.000233
-10.062634 5.661530 0.270164
-10.048802 5.658223 0.542263
-10.029632 5.651792 0.811850
-10.017108 5.649216 1.082117
-9.998236 5.640596 1.354050
-3.304647 1.741411 0.535680
-3.319524 1.751653 0.629727
0.007329 -0.190231 -0.004648
-0.516786 0.116928 -0.364539
-0.522293 0.120404 -0.349258
-2.517303 1.290413 -1.559367
-2.636863 1.361779 -1.542511
-2.739671 1.423410 -1.511117
-2.828645 1.476351 -1.467654
-2.904316 1.522189 -1.414016
-3.082272 1.628298 -1.402957
-3.287257 1.749727 -1.394537
-3.491419 1.871595 -1.375133
-3.703218 1.998150 -1.347028
-3.943954 2.141062 -1.318253
-4.246579 2.321617 -1.295881
-4.361454 2.390488 -1.204865
-4.499549 2.474198 -1.115412
-4.499302 2.476184 -0.989158
-4.496694 2.449250 -0.860289
-4.491635 2.447358 -0.735560
-7.060717 3.956754 -0.958361
-7.978001 4.498695 -0.865042
-9.347876 5.305267 -0.759218
-10.076727 5.738164 -0.545718
-10.075884 5.742442 -0.271840
-10.072315 5.742735 -0.000227
-10.050173 5.734467 0.270772
-10.032906 5.729052 0.543291
-10.019938 5.723792 0.813809
-10.003929 5.719095 1.084350
-9.985751 5.713100 1.357074
-3.274744 1.749535 0.532612
-3.313392 1.773951 0.630703
0.007330 -0.190041 -0.004644
-0.507619 0.115734 -0.359437
-0.525011 0.126309 -0.352190
-2.504193 1.302386 -1.556550
-2.627916 1.377149 -1.542508
-2.733471 1.441220 -1.512824
-2.822190 1.494697 -1.469276
-2.897604 1.540983 -1.415554
-3.071760 1.646221 -1.402956
-3.280892 1.771714 -1.396586
-3.487654 1.896726 -1.378328
-3.708597 2.030409 -1.353573
-3.928837 2.162944 -1.317701
-4.190547 2.321384 -1.283236
-4.351550 2.418748 -1.206246
-4.495919 2.507296 -1.118317
-4.494027 2.508309 -0.991374
-4.493346 2.482356 -0.862552
-4.484929 2.478435 -0.736946
-4.480410 2.477885 -0.612248
-4.466407 2.471694 -0.488316
-4.467525 2.473431 -0.366805
0.007302 -0.189842 -0.004638
-4.442651 2.462864 -0.122966
-4.433053 2.458206 -0.002690
-10.036551 5.804694 0.271333
-10.022738 5.801227 0.544602
-10.006318 5.793826 0.815487
-9.992017 5.790047 1.086771
-9.972083 5.782896 1.359865
-3.260153 1.766537 0.532056
-3.308829 1.797267 0.632005
-8.964272 5.190438 1.970430
-0.494053 0.111787 -0.351277
-0.536638 0.137644 -0.360997
-2.506169 1.323370 -1.563116
-2.631113 1.399844 -1.549679
-2.728688 1.459940 -1.515388
-2.814019 1.512070 -1.470087
-2.890770 1.559754 -1.417092
-3.062757 1.665049 -1.403681
-3.269564 1.790780 -1.396585
-3.470741 1.914037 -1.376408
-3.689241 2.047971 -1.351191
-3.926744 2.192694 -1.321555
-4.164465 2.338655 -1.279695
-4.331493 2.440933 -1.204864
-4.493723 2.541455 -1.121637
-4.488517 2.540459 -0.993592
-4.488054 2.514485 -0.864493
-4.479694 2.510538 -0.738612
-4.480313 2.513062 -0.614328
0.007303 -0.189653 -0.004634
-4.385509 2.459130 -0.361393
-4.364839 2.448759 -0.240848
-4.358872 2.447253 -0.121138
-4.421176 2.485952 -0.002689
-10.027589 5.878060 0.272036
-10.008643 5.871412 0.545724
-9.992230 5.863900 0.817165
-9.981303 5.862084 1.089376
-9.964777 5.856860 1.363590
-3.270847 1.798830 0.535684
-3.347951 1.847215 0.641756
-10.349090 6.102359 2.283215
-0.499690 0.119339 -0.356369
-0.539214 0.143681 -0.363930
-2.498964 1.338910 -1.564050
-2.605162 1.404936 -1.539813
-2.717606 1.474885 -1.514531
-2.808855 1.531307 -1.472524
-2.885373 1.579458 -1.419402
-3.048864 1.680912 -1.402226
-3.254916 1.807810 -1.395217
-3.473137 1.943102 -1.382163
-3.695850 2.081355 -1.358331
-3.908093 2.212456 -1.319901
-4.191092 2.388100 -1.292338
-4.313001 2.463999 -1.203942
-4.484613 2.571580 -1.123297
-4.492827 2.578810 -0.998027
-4.480858 2.545613 -0.866110
-4.475949 2.543710 -0.740554
-4.469801 2.542120 -0.615021
0.007303 -0.189467 -0.004629
0.007303 -0.189467 -0.004629
0.007303 -0.189467 -0.004629
0.007303 -0.189467 -0.004629
-4.405736 2.511566 -0.002688
-10.012994 5.948387 0.272597
-9.995759 5.942666 0.546939
-9.982779 5.937141 0.819264
-9.970109 5.934200 1.091983
-9.950162 5.926775 1.366382
-3.276256 1.828218 0.538478
-3.300901 1.844963 0.634933
0.007303 -0.189467 -0.004629
-0.493523 0.119727 -0.353306
-0.526913 0.140595 -0.357073
-2.487109 1.351621 -1.562173
-2.598999 1.422000 -1.541604
-2.714170 1.494527 -1.517948
-2.811351 1.555354 -1.479025
-2.879875 1.599172 -1.421710
-3.036485 1.697661 -1.401497
-3.248194 1.829706 -1.397264
-3.464045 1.965267 -1.383440
-3.681131 2.101800 -1.357734
-3.890951 2.233086 -1.318800
-4.174561 2.411365 -1.291832
-4.300971 2.491037 -1.204863
-4.476984 2.602726 -1.125372
-4.481858 2.607950 -0.999135
-4.483522 2.582963 -0.869669
-4.465224 2.572754 -0.741386
-4.465836 2.575312 -0.616640
0.007276 -0.189268 -0.004623
0.007276 -0.189268 -0.004623
0.007276 -0.189268 -0.004623
0.007276 -0.189268 -0.004623
-4.379936 2.530768 -0.002692
-9.997933 6.018750 0.273158
-9.985800 6.016088 0.548343
-9.972811 6.010470 0.821363
-9.958407 6.006382 1.094589
-9.938438 5.998815 1.369639
-3.224249 1.822138 0.531781
-3.280792 1.858932 0.633310
-3.319854 1.884900 0.735598
-0.493143 0.123795 -0.354322
-0.523462 0.143016 -0.356090
-2.482447 1.369379 -1.564985
-2.607580 1.448991 -1.552363
-2.708746 1.513695 -1.520511
-2.794793 1.568335 -1.475771
-2.880174 1.623303 -1.427099
-3.033141 1.720810 -1.405129
-3.242530 1.853144 -1.399997
-3.441597 1.979932 -1.379602
-3.659410 2.118714 -1.354758
-3.874908 2.255309 -1.318248
-4.127974 2.416685 -1.282222
-4.293260 2.521898 -1.207164
-4.473603 2.637787 -1.128693
-4.470209 2.637843 -1.000243
-4.475412 2.614956 -0.871286
-4.465554 2.609897 -0.744164
-4.375306 2.555565 -0.606467
-4.361378 2.548980 -0.483689
-4.362379 2.550686 -0.363334
-4.346975 2.543164 -0.242419
-4.346163 2.544783 -0.122049
0.007278 -0.189075 -0.004619
-9.982987 6.091947 0.273765
-9.969150 6.088144 0.549464
-9.959547 6.084562 0.823321
-9.941755 6.078255 1.096822
-9.916736 6.067366 1.371731
-4.577499 2.702464 0.759237
-3.265248 1.876459 0.632661
0.007278 -0.189075 -0.004619
-0.486974 0.124094 -0.351259
-0.527451 0.149991 -0.360002
-2.474956 1.384809 -1.565920
-2.590581 1.459399 -1.547877
-2.701966 1.531408 -1.522219
-2.789282 1.587548 -1.478207
-2.872832 1.642048 -1.428638
-3.039405 1.749449 -1.413123
-3.222803 1.866935 -1.396579
-3.437074 2.005010 -1.382798
-3.663791 2.151240 -1.361303
-3.862400 2.278807 -1.318799
-4.109673 2.438529 -1.281210
-4.277622 2.546777 -1.207163
-4.470473 2.672123 -1.132013
-4.467116 2.672198 -1.003200
-4.460879 2.641929 -0.871609
-4.459435 2.642126 -0.745829
-4.376235 2.591552 -0.608778
-7.825844 4.783479 -0.866724
-9.306720 5.725840 -0.772011
-10.021989 6.185011 -0.554344
0.007279 -0.188885 -0.004614
0.007279 -0.188885 -0.004614
-9.983823 6.173114 0.274798
-9.975032 6.172449 0.551807
-9.962012 6.166633 0.826542
-9.955926 6.167686 1.102413
-11.583271 7.211677 1.608728
-4.899607 2.945383 0.815891
-3.258319 1.898630 0.633638
0.007279 -0.188885 -0.004614
-0.493861 0.132693 -0.357372
-0.526959 0.154189 -0.360977
-2.458431 1.394467 -1.561227
-2.584073 1.476432 -1.549669
-2.695063 1.549099 -1.523928
-2.782096 1.605763 -1.479831
-2.882433 1.671756 -1.438648
-3.034478 1.771163 -1.416028
-3.225173 1.894836 -1.402727
-3.418043 2.020862 -1.380238
-3.645492 2.169400 -1.359516
-3.854617 2.305378 -1.321000
-4.123767 2.481260 -1.290313
-4.268359 2.575784 -1.209004
-4.465466 2.705458 -1.134918
-4.462150 2.705548 -1.005787
-4.452830 2.673091 -0.873227
-4.453084 2.674370 -0.747495
-4.366861 2.621195 -0.609703
-7.798781 4.829697 -0.866914
-9.252443 5.766548 -0.770350
-10.573175 6.621217 -0.586698
-10.254897 6.421475 -0.283478
-10.486718 6.573429 0.000028
0.007280 -0.188696 -0.004610
0.007280 -0.188696 -0.004610
0.007280 -0.188696 -0.004610
-12.943162 8.178917 1.439642
0.007280 -0.188696 -0.004610
-4.585539 2.782279 0.766215
-3.247938 1.918644 0.633965
-2.832954 1.651418 0.634311
-0.492020 0.135765 -0.357367
-0.522071 0.155550 -0.359014
-2.458163 1.414580 -1.566855
-2.577473 1.493450 -1.551459
-2.677466 1.559867 -1.519651
-2.780607 1.628434 -1.484706
-2.863976 1.683493 -1.434795
-3.037215 1.797974 -1.422567
-3.231672 1.926474 -1.410925
-3.414800 2.046926 -1.384075
-3.647862 2.201001 -1.365465
-3.859081 2.341035 -1.327607
-4.090544 2.493502 -1.284749
-4.258423 2.605523 -1.210846
-4.458038 2.738522 -1.137410
-4.453142 2.737555 -1.007635
-4.451222 2.708566 -0.876138
-4.447682 2.708497 -0.749437
-6.908450 4.310448 -0.964853
-7.771474 4.875779 -0.867102
-9.210303 5.817136 -0.769801
-10.687810 6.782493 -0.595209
-10.171504 6.451068 -0.282251
-10.680948 6.788740 0.000126
-13.219673 8.449355 0.368027
-13.088659 8.370371 0.730782
-12.977680 8.304358 1.086137
-12.836720 8.218616 1.433291
-4.627495 2.846388 0.645336
-10.208047 6.505728 1.716480
0.007251 -0.188500 -0.004604
0.007251 -0.188500 -0.004604
-0.484340 0.135119 -0.353285
-0.517134 0.156959 -0.357051
-2.461925 1.438100 -1.575297
-2.579411 1.516791 -1.558631
-2.662533 1.572942 -1.517084
-2.773167 1.646636 -1.486330
-2.865173 1.708802 -1.440954
-3.019195 1.812062 -1.419658
-3.217885 1.944213 -1.410241
-3.401512 2.067355 -1.384073
-3.643179 2.229123 -1.369036
-3.844501 2.363422 -1.327605
-4.102003 2.536098 -1.293347
-4.250410 2.635577 -1.213147
-4.449312 2.769756 -1.139484
-4.446086 2.769874 -1.009852
-4.445510 2.742709 -0.878403
-4.440892 2.740795 -0.751102
-4.433314 2.738047 -0.623575
-4.419799 2.731377 -0.497381
-4.427646 2.737676 -0.374158
-4.397563 2.720056 -0.248795
-4.401768 2.725062 -0.125338
0.007253 -0.188311 -0.004600
-13.114906 8.492464 0.366508
-12.984408 8.412709 0.727767
-5.021070 3.141925 0.419378
0.007253 -0.188311 -0.004600
-4.594565 2.864114 0.643239
-10.105054 6.521855 1.705591
-9.705229 6.261467 1.915325
-2.806397 1.681579 0.633202
-0.485341 0.140042 -0.355320
-0.513685 0.159187 -0.356068
-2.461355 1.458338 -1.580924
-2.563598 1.527848 -1.555043
-2.649376 1.586449 -1.515371
-2.767144 1.665830 -1.488766
-2.849622 1.722399 -1.438642
-3.023142 1.839985 -1.426924
-3.210248 1.966041 -1.412291
-3.393202 2.090265 -1.385991
-3.627650 2.249202 -1.368439
-3.829758 2.385716 -1.327605
-4.108776 2.574974 -1.300427
-4.247014 2.668875 -1.216832
-4.448460 2.806432 -1.143636
-4.446939 2.807685 -1.013918
-4.436795 2.773927 -0.880021
-4.435511 2.774206 -0.753046
-4.365200 2.729544 -0.616407
-4.366525 2.732653 -0.493309
-4.341069 2.716770 -0.368329
-4.325954 2.708883 -0.245745
-4.396567 2.758337 -0.125659
-4.330726 2.715390 -0.002670
-10.619489 6.930028 0.297081
0.007254 -0.188122 -0.004595
-5.036619 3.194304 0.422321
0.007254 -0.188122 -0.004595
-10.249454 6.700497 1.444875
-10.066285 6.580078 1.705584
-2.965092 1.810448 0.585223
-2.838001 1.726448 0.642851
-0.486303 0.144983 -0.357355
-0.505911 0.158466 -0.352147
-2.457690 1.476644 -1.584676
-2.561119 1.547802 -1.559524
-2.649620 1.608975 -1.521355
-2.750374 1.677837 -1.485514
-2.843164 1.742082 -1.440951
-3.026858 1.868014 -1.434191
-3.186945 1.977321 -1.407505
-3.367515 2.101462 -1.380874
-3.629377 2.280976 -1.374389
-3.814915 2.407927 -1.327604
-4.084799 2.593338 -1.297899
-4.243402 2.702235 -1.220514
-4.444117 2.841002 -1.146957
-4.439403 2.840080 -1.016135
-4.442598 2.815078 -0.884550
-4.434836 2.810981 -0.755822
0.007255 -0.187932 -0.004591
0.007255 -0.187932 -0.004591
0.007255 -0.187932 -0.004591
0.007255 -0.187932 -0.004591
-4.394462 2.793893 -0.126070
0.007255 -0.187932 -0.004591
0.007255 -0.187932 -0.004591
0.007255 -0.187932 -0.004591
0.007255 -0.187932 -0.004591
0.007255 -0.187932 -0.004591
-10.162043 6.727165 1.438111
-4.387750 2.801796 0.744446
-2.968229 1.837690 0.588149
-2.973121 1.842553 0.676244
-0.481540 0.146064 -0.355312
-0.496703 0.156678 -0.347249
-2.433507 1.481008 -1.575291
-2.554058 1.564749 -1.561315
-2.639257 1.624415 -1.521352
-2.745652 1.697989 -1.488763
-2.836609 1.761764 -1.443259
-3.011898 1.883503 -1.432737
-3.174448 1.995844 -1.407504
-3.365226 2.128524 -1.385350
-3.608822 2.297706 -1.372008
-3.817360 2.442035 -1.333659
-4.079902 2.624689 -1.301440
-4.236341 2.733443 -1.223276
-4.437919 2.874508 -1.149862
-4.434856 2.874710 -1.019093
-4.430158 2.844147 -0.885521
-4.424067 2.841135 -0.756932
0.007226 -0.187737 -0.004585
0.007226 -0.187737 -0.004585
0.007226 -0.187737 -0.004585
0.007226 -0.187737 -0.004585
-4.377264 2.819354 -0.126069
0.007226 -0.187737 -0.004585
-10.373741 6.940105 0.292398
-10.352794 6.931087 0.586232
-10.353901 6.934544 0.879239
0.007226 -0.187737 -0.004585
-10.316797 6.919755 1.465834
-4.363973 2.822722 0.743330
-2.971166 1.865040 0.591075
-2.804465 1.751608 0.640256
-0.475388 0.146126 -0.352249
-0.494729 0.159761 -0.347244
-2.438397 1.505257 -1.584672
-2.539518 1.576578 -1.558624
-2.628789 1.639785 -1.521351
-2.734776 1.713977 -1.488761
-2.834440 1.784581 -1.447880
-3.001491 1.902086 -1.433461
-3.158758 2.012146 -1.406136
-3.359645 2.153481 -1.388546
-3.592918 2.317558 -1.371412
-3.794290 2.458681 -1.330906
-4.077971 2.658292 -1.305991
-4.230665 2.765776 -1.226499
-4.433064 2.909155 -1.153184
-4.426855 2.907141 -1.021310
-4.424016 2.877664 -0.887786
-4.419605 2.875768 -0.759154
-4.337091 2.820934 -0.619645
-4.320404 2.811632 -0.493865
-4.318213 2.811247 -0.370688
-4.298345 2.799720 -0.247039
-10.275805 6.952328 -0.290644
0.007227 -0.187547 -0.004580
-10.340821 7.005588 0.292628
-10.331395 7.004432 0.587353
-10.325871 7.003315 0.880353
-10.269385 6.969378 1.168397
-4.554125 2.991491 0.647666
-4.351466 2.851398 0.744167
-9.347177 6.339378 1.873705
-3.323410 2.138110 0.762324
-0.470656 0.147117 -0.350205
-0.491303 0.161831 -0.346261
-2.435868 1.524550 -1.589362
-2.524948 1.588303 -1.555932
-2.616772 1.654067 -1.520494
-2.735425 1.738780 -1.495262
-2.823064 1.801078 -1.447878
-2.984853 1.916321 -1.431280
-3.159513 2.040786 -1.412285
-3.341487 2.169718 -1.386626
-3.583136 2.341705 -1.373197
-3.778547 2.481343 -1.330906
-3.999863 2.638429 -1.286266
-4.359375 2.894261 -1.268858
-4.427438 2.944628 -1.156505
-4.422901 2.943764 -1.024636
-4.416038 2.910077 -0.889726
-4.412745 2.910091 -0.761097
-6.798772 4.583992 -0.972039
-7.620600 5.164142 -0.870456
-8.985177 6.126212 -0.768860
0.007228 -0.187358 -0.004576
-10.690969 7.332321 -0.303399
-11.540112 7.935251 0.000578
-10.377772 7.120391 0.294884
-10.319258 7.084655 0.589035
-10.245575 7.038166 0.877120
-12.360169 8.534918 1.412904
0.007228 -0.187358 -0.004576
-3.228418 2.097191 0.553562
-3.312851 2.158558 0.664843
-3.398265 2.219810 0.782732
-0.475689 0.155106 -0.355298
-0.487821 0.163967 -0.345277
-2.424242 1.538159 -1.588422
-2.517305 1.605532 -1.557724
-2.606124 1.669306 -1.520494
-2.725804 1.755767 -1.496073
-2.830788 1.831913 -1.457889
-2.963621 1.927204 -1.426917
-3.151233 2.062416 -1.414335
-3.323246 2.185821 -1.384707
-3.580996 2.371373 -1.377956
-3.786625 2.520010 -1.339164
-4.054426 2.712202 -1.309026
-4.363761 2.935344 -1.275304
-4.419480 2.976326 -1.158995
-4.414960 2.975461 -1.026855
-4.413721 2.947840 -0.892962
-4.406175 2.943667 -0.763041
-6.781746 4.632480 -0.973659
-7.598532 5.216361 -0.871569
-8.955218 6.182625 -0.769422
-10.140481 7.030396 -0.580746
-10.647573 7.393909 -0.303406
-11.621933 8.093357 0.000627
0.007201 -0.187159 -0.004570
-12.466933 8.704991 0.715410
0.007201 -0.187159 -0.004570
-10.249620 7.132585 1.175656
-4.366946 2.936762 0.625993
-3.271626 2.156255 0.563330
-3.306170 2.181826 0.666146
-9.488249 6.606935 2.199655
-0.470969 0.155972 -0.353256
-0.492928 0.171988 -0.350169
-0.527934 0.197260 -0.354553
-2.504386 1.617685 -1.555928
-2.598675 1.686146 -1.522202
-2.716398 1.772223 -1.496885
-2.826974 1.853280 -1.461739
-2.945744 1.939570 -1.424008
-3.129496 2.073586 -1.410233
-3.325356 2.215632 -1.391101
-3.562035 2.388176 -1.376170
-3.776136 2.544682 -1.340816
-4.027237 2.727066 -1.305485
-4.395189 2.995201 -1.289577
-4.414464 3.010318 -1.162316
-4.413201 3.011786 -1.030550
-4.402580 2.977229 -0.894257
-4.403137 2.978812 -0.765540
-6.770892 4.682032 -0.975976
-4.379630 2.966621 -0.506634
-8.930903 6.240839 -0.770399
-4.319180 2.926641 -0.251198
-10.523995 7.394974 -0.301129
0.007202 -0.186969 -0.004566
-12.508486 8.837090 0.359273
-12.499784 8.834197 0.720188
0.007202 -0.186969 -0.004566
0.007202 -0.186969 -0.004566
-4.363949 2.971763 0.628090
-3.330740 2.226920 0.575890
-9.726830 6.855004 1.973773
0.007202 -0.186969 -0.004566
-0.470340 0.160010 -0.354270
-0.487970 0.173086 -0.348207
-0.527080 0.201656 -0.355487
-2.503782 1.640092 -1.562203
-2.598907 1.710714 -1.529040
-2.713619 1.794976 -1.501760
-2.832744 1.883277 -1.470979
-2.946275 1.967614 -1.430548
-3.157059 2.122239 -1.428683
-3.332063 2.251746 -1.400055
-3.549336 2.412336 -1.377361
-3.759908 2.567249 -1.340815
-3.978153 2.728956 -1.295370
-4.396705 3.036371 -1.295562
-4.405933 3.045515 -1.165223
-4.399961 3.043530 -1.032029
-4.399742 3.015098 -0.897492
-4.395531 3.013232 -0.767483
-6.745161 4.724640 -0.976441
-4.328671 2.969309 -0.502934
0.007203 -0.186780 -0.004561
-4.276436 2.934762 -0.249812
0.007203 -0.186780 -0.004561
0.007203 -0.186780 -0.004561
-12.482265 8.931319 0.360064
-12.557465 8.993011 0.726750
-12.533924 8.979226 1.087312
0.007203 -0.186780 -0.004561
-9.158061 6.521800 1.327850
-3.313166 2.244502 0.575331
0.007203 -0.186780 -0.004561
-9.455837 6.752589 2.210773
-0.461413 0.157845 -0.349168
-0.480293 0.171991 -0.344286
-0.531977 0.210155 -0.360173
-2.497555 1.657864 -1.564892
-2.583597 1.722640 -1.526473
-2.715443 1.820540 -1.509073
-2.826760 1.904148 -1.474058
-2.936841 1.986965 -1.432001
-3.143748 2.140589 -1.428681
-3.328647 2.278978 -1.404531
-3.538955 2.436344 -1.379145
-3.750187 2.593625 -1.343018
-4.031299 2.803832 -1.318131
-4.374983 3.059515 -1.294641
-4.402976 3.082668 -1.169376
-4.398683 3.081890 -1.036095
-4.397147 3.052264 -0.900729
-4.388219 3.046898 -0.769428
-6.732806 4.775352 -0.978757
-4.283189 2.974297 -0.499789
-4.279497 2.972745 -0.374992
-4.266444 2.965455 -0.250276
-10.513880 7.578992 -0.303430
-11.572309 8.363393 0.000643
-11.955243 8.652650 0.346146
-12.620137 9.150828 0.733500
-12.596485 9.136806 1.097397
-12.580453 9.131806 1.462288
0.007204 -0.186591 -0.004557
0.007204 -0.186591 -0.004557
0.007204 -0.186591 -0.004557
-9.417353 6.808250 2.211136
-0.467695 0.166881 -0.355283
-0.481013 0.177057 -0.346241
-0.532516 0.215545 -0.362047
-2.475451 1.663880 -1.557716
-2.581285 1.744179 -1.531601
-2.716685 1.846661 -1.516387
-2.817638 1.922801 -1.475598
-2.925793 2.005161 -1.432727
-3.141935 2.168401 -1.434148
-3.317484 2.300586 -1.405808
-3.519243 2.453451 -1.377359
-3.735202 2.617180 -1.343568
-3.967618 2.792389 -1.302956
-4.361909 3.090281 -1.296484
-4.419525 3.135941 -1.178924
-4.390247 3.116386 -1.038684
-4.384795 3.082440 -0.902023
-4.381695 3.082535 -0.771650
-4.373590 3.077709 -0.640458
-7.528122 5.432274 -0.878065
0.007176 -0.186391 -0.004551
-4.262679 3.000928 -0.251108
-4.338690 3.060056 -0.128539
-11.574328 8.471564 0.000657
-12.682399 9.303441 0.369046
-12.687796 9.314451 0.740624
-12.651205 9.294026 1.107062
-12.642932 9.294787 1.476078
0.007176 -0.186391 -0.004551
0.007176 -0.186391 -0.004551
0.007176 -0.186391 -0.004551
-3.221958 2.239180 0.757877
-0.465620 0.169884 -0.355277
-0.478877 0.180140 -0.346235
-0.530146 0.218931 -0.362042
-2.468725 1.681975 -1.560405
-2.572706 1.761854 -1.533309
-2.719540 1.873493 -1.524514
-2.803651 1.938584 -1.474825
-2.921681 2.029433 -1.437086
-3.134356 2.191204 -1.436880
-3.310239 2.326145 -1.409006
-3.509623 2.479097 -1.379739
-3.725150 2.643485 -1.345771
-3.973023 2.833617 -1.310543
-4.336795 3.110833 -1.294643
0.007178 -0.186202 -0.004547
-4.386849 3.153705 -1.042379
-4.379543 3.119284 -0.904936
-4.370757 3.113877 -0.773038
-4.339921 3.093035 -0.638377
-7.510611 5.489014 -0.879920
0.007178 -0.186202 -0.004547
-10.201692 7.529015 -0.596683
-4.284292 3.059400 -0.127535
-11.398347 8.442876 0.000590
-12.748724 9.471596 0.372666
