# This PCD file was generated using the MATLAB® pcwrite function
# from Computer Vision Toolbox®.
# .PCD v.7 - Point Cloud Data file format
VERSION .7
FIELDS x y z
SIZE 4 4 4
TYPE F F F
COUNT 1 1 1
WIDTH 1594
HEIGHT 1
VIEWPOINT 0 0 0 1 0 0 0
POINTS 1594
DATA ascii
-21.447443 -6.379093 1.043763
-21.414930 -6.361308 1.562375
-21.368961 -6.339570 2.079680
-21.344225 -6.328218 2.603554
-21.290325 -6.304186 3.120646
-17.274740 -5.110397 2.959616
-17.115919 -5.060267 3.362626
-2.587818 -0.769046 -1.599810
-2.671787 -0.792687 -1.564703
-2.775541 -0.822580 -1.538143
-2.888490 -0.854581 -1.511356
-3.041263 -0.898699 -1.500121
-3.207460 -0.946087 -1.487983
-3.342808 -0.984365 -1.454724
-3.533930 -1.039424 -1.437628
-3.776493 -1.108701 -1.431821
-4.056801 -1.189548 -1.427839
-4.286195 -1.254648 -1.392972
-4.584246 -1.339506 -1.368916
-4.886905 -1.426412 -1.332196
-5.142165 -1.498491 -1.268623
-5.150537 -1.499939 -1.139857
-5.159967 -1.500724 -1.012126
-5.158191 -1.522677 -0.883318
-8.137783 -2.395286 -1.191878
-5.065126 -1.492499 -0.616392
0.000355 -0.009274 -0.000234
0.000355 -0.009274 -0.000234
-14.734236 -4.309799 -0.715611
-19.551470 -5.712097 -0.472522
-21.471212 -6.263934 0.000383
-21.433044 -6.244706 0.518634
-21.372473 -6.223067 1.038352
-21.353415 -6.209440 1.555253
-21.304497 -6.191222 2.070012
-21.271490 -6.173612 2.590307
-21.210140 -6.147828 3.103658
0.000355 -0.009274 -0.000234
-17.246662 -4.990978 3.382622
-2.585428 -0.752501 -1.595725
-2.661044 -0.773248 -1.555882
-2.778361 -0.806399 -1.537199
-2.888007 -0.836789 -1.508661
-3.044585 -0.880504 -1.499263
-3.200495 -0.923918 -1.482287
-3.341130 -0.963476 -1.451636
-3.541593 -1.019397 -1.438352
-3.766484 -1.082136 -1.425662
-4.065372 -1.166513 -1.428475
-4.258391 -1.219863 -1.381651
-4.582562 -1.310307 -1.366158
-4.976891 -1.421321 -1.354476
-5.150654 -1.468695 -1.268620
-5.140447 -1.463875 -1.135698
-5.155481 -1.466182 -1.009532
-5.151378 -1.489332 -0.880722
-5.033091 -1.453439 -0.736034
-5.103896 -1.472790 -0.620099
0.000328 -0.009081 -0.000228
-5.040747 -1.450881 -0.366726
-14.696539 -4.209781 -0.712633
-19.522430 -5.581778 -0.471042
-21.389532 -6.106670 0.000376
-21.365572 -6.095830 0.516165
-21.309879 -6.071937 1.033594
-21.277414 -6.054685 1.547153
-21.221987 -6.030948 2.058484
-21.205322 -6.022226 2.577987
-21.142221 -5.996373 3.088621
0.000328 -0.009081 -0.000228
-21.074717 -5.965359 4.126668
-2.571557 -0.731859 -1.584501
-2.677284 -0.760570 -1.562736
-2.784742 -0.790205 -1.538135
-2.898032 -0.820914 -1.511350
-3.044478 -0.860792 -1.496693
-3.198689 -0.903329 -1.479029
-3.375157 -0.951412 -1.463967
-3.556500 -1.000701 -1.441986
-3.767174 -1.058748 -1.423607
-4.072167 -1.142207 -1.428472
-4.261809 -1.193391 -1.380458
-4.551085 -1.272926 -1.354579
-4.996347 -1.394719 -1.357514
-5.145836 -1.435215 -1.265391
-5.141199 -1.431998 -1.134032
-5.144856 -1.431067 -1.005826
-5.144889 -1.454303 -0.878125
-5.035601 -1.422665 -0.735197
-9.102480 -2.560973 -1.103844
-5.023832 -1.415577 -0.486837
0.000331 -0.008895 -0.000224
-14.692310 -4.114344 -0.711238
-19.487722 -5.446961 -0.469422
-21.327936 -5.956469 0.000369
-21.281879 -5.935629 0.513280
-21.239605 -5.915884 1.028463
-21.208061 -5.903134 1.539613
-21.160351 -5.881939 2.049189
-21.137222 -5.867590 2.565436
-21.075171 -5.846434 3.073861
-21.029377 -5.825866 3.585170
-21.016819 -5.814510 4.108516
-2.588952 -0.720510 -1.592658
-2.683272 -0.745423 -1.563711
-2.796010 -0.775851 -1.541887
-2.894042 -0.801676 -1.506860
-3.026539 -0.837395 -1.485566
-3.200255 -0.883762 -1.477399
-3.385880 -0.933246 -1.466275
-3.549387 -0.977231 -1.436892
-3.751403 -1.030935 -1.415395
-4.060153 -1.114305 -1.422068
-4.283091 -1.173420 -1.385221
-4.550864 -1.244517 -1.352372
-4.962944 -1.355482 -1.346368
-5.137074 -1.400813 -1.261238
-5.130202 -1.397987 -1.129870
-5.137524 -1.398055 -1.002863
-5.135997 -1.419788 -0.875205
-5.034117 -1.390861 -0.733802
0.000306 -0.008699 -0.000218
-5.020306 -1.383311 -0.485721
0.000306 -0.008699 -0.000218
-5.062401 -1.391996 -0.244831
-19.446388 -5.318499 -0.467711
-21.257597 -5.805079 0.000361
-21.223011 -5.787698 0.511044
-21.177757 -5.771420 1.023890
-21.143410 -5.754168 1.532488
-21.090940 -5.735963 2.039335
-21.071819 -5.722878 2.553581
-21.007078 -5.697472 3.059101
-20.968159 -5.683018 3.569275
-20.940742 -5.667763 4.087401
-2.589565 -0.704976 -1.590614
-2.687336 -0.730256 -1.563708
-2.791831 -0.757286 -1.537190
-2.889807 -0.783013 -1.502368
-3.024252 -0.817920 -1.482141
-3.203479 -0.864672 -1.476582
-3.392934 -0.914037 -1.467043
-3.540497 -0.952768 -1.431069
-3.740869 -1.004803 -1.409238
-4.004382 -1.073472 -1.400298
-4.251191 -1.137523 -1.372707
-4.595059 -1.227994 -1.363394
-5.017592 -1.338243 -1.359027
-5.130173 -1.366172 -1.257548
-5.123457 -1.362469 -1.126542
-5.132389 -1.363873 -1.000268
-5.138053 -1.389397 -0.874231
-5.022867 -1.356553 -0.731016
-9.040648 -2.433109 -1.092943
-5.012528 -1.350971 -0.484232
-12.132670 -3.253248 -0.878123
-5.064482 -1.361114 -0.244549
-19.389698 -5.183144 -0.465628
-21.192039 -5.656235 0.000353
-21.153503 -5.638071 0.508576
-21.097624 -5.615333 1.018385
-21.077797 -5.606126 1.525367
-21.018667 -5.582582 2.029109
-21.005449 -5.571251 2.541493
-20.940872 -5.546339 3.044620
-20.907932 -5.533737 3.553379
-20.875097 -5.517277 4.068137
-2.590463 -0.688089 -1.588569
-2.690002 -0.713218 -1.562726
-2.799661 -0.741421 -1.539063
-2.897954 -0.766076 -1.504159
-3.029016 -0.799784 -1.482137
-3.190816 -0.840872 -1.468445
-3.403608 -0.895117 -1.469352
-3.533434 -0.928284 -1.425973
-3.732157 -0.978641 -1.403763
-4.001281 -1.047847 -1.397094
-4.287178 -1.120534 -1.382236
-4.624557 -1.206328 -1.370006
-5.042035 -1.313528 -1.363582
-5.122833 -1.332551 -1.253857
-5.117661 -1.330261 -1.123630
-5.121058 -1.329233 -0.996564
-5.133034 -1.354324 -0.871959
-5.021192 -1.324055 -0.729623
-9.028376 -2.370669 -1.089696
-5.005206 -1.316146 -0.482745
-12.134328 -3.176547 -0.876868
-5.058902 -1.327348 -0.243894
-19.346487 -5.048787 -0.463871
-21.120621 -5.503146 0.000345
-21.076191 -5.483747 0.505921
-21.030918 -5.468075 1.013626
-21.006327 -5.453866 1.517826
-20.961700 -5.438419 2.020555
-20.939032 -5.424758 2.529639
-20.872684 -5.399824 3.030138
-20.830465 -5.385057 3.534891
-20.813213 -5.372859 4.049986
-2.590865 -0.672597 -1.586527
-2.683754 -0.695421 -1.556845
-2.784873 -0.720796 -1.528733
-2.900387 -0.749277 -1.503260
-3.052793 -0.787075 -1.491546
-3.192029 -0.821407 -1.466814
-3.381682 -0.869098 -1.457787
-3.517013 -0.902243 -1.417241
-3.748613 -0.959740 -1.407864
-3.957598 -1.012048 -1.379807
-4.284256 -1.093321 -1.379255
-4.612732 -1.174804 -1.364491
-4.983801 -1.267722 -1.345855
-5.117175 -1.299531 -1.250626
-5.112124 -1.296368 -1.120718
-5.117359 -1.295792 -0.994340
-5.130909 -1.323030 -0.870336
-5.013316 -1.291038 -0.727395
-9.022189 -2.315153 -1.087375
-5.000844 -1.285065 -0.481628
-12.127218 -3.100097 -0.875057
-5.075863 -1.301385 -0.244357
-19.313168 -4.921443 -0.462391
-21.056919 -5.357231 0.000338
-21.017288 -5.343265 0.503780
-20.957426 -5.320296 1.008588
-20.934801 -5.306795 1.510424
-20.895071 -5.288999 2.011073
-20.873552 -5.279703 2.518016
-20.813091 -5.256716 3.017048
-20.777784 -5.240097 3.520617
-20.756063 -5.230786 4.032945
-2.579752 -0.653276 -1.577342
-2.684404 -0.678466 -1.554882
-2.787342 -0.703659 -1.527791
-2.913424 -0.734034 -1.507742
-3.050331 -0.767034 -1.488121
-3.193088 -0.801966 -1.465186
-3.395678 -0.851076 -1.461638
-3.549373 -0.887915 -1.428149
-3.772287 -0.942481 -1.414700
-3.950614 -0.985196 -1.375323
-4.283209 -1.065885 -1.376869
-4.563399 -1.134232 -1.347951
-4.934823 -1.224082 -1.330659
-5.109405 -1.266157 -1.246935
-5.109986 -1.264404 -1.118635
-5.117075 -1.264259 -0.992856
-5.121406 -1.288093 -0.867415
-5.003338 -1.257663 -0.724887
-9.014484 -2.256164 -1.084825
-4.990944 -1.250878 -0.479954
-4.987066 -1.248994 -0.359460
-5.087333 -1.272048 -0.244541
-19.248808 -4.783582 -0.460170
-20.988350 -5.211268 0.000331
-20.953432 -5.194868 0.501497
-20.910963 -5.176623 1.004853
-20.875830 -5.164086 1.503998
-20.828449 -5.144672 2.001776
-20.802233 -5.130515 2.505697
-20.739100 -5.111151 3.002010
-20.713625 -5.097218 3.504722
-20.687389 -5.083130 4.013680
-2.601824 -0.642716 -1.588559
-2.686548 -0.662401 -1.553898
-2.799882 -0.689512 -1.532482
-2.908875 -0.714961 -1.503252
-3.031709 -0.744262 -1.476993
-3.181652 -0.779509 -1.457860
-3.378943 -0.826127 -1.452386
-3.552431 -0.867474 -1.427418
-3.790382 -0.923670 -1.419486
-3.987304 -0.970518 -1.386204
-4.259351 -1.034629 -1.367336
-4.554850 -1.104172 -1.343538
-4.918972 -1.190915 -1.324578
-5.101424 -1.232918 -1.243245
-5.103585 -1.232500 -1.115723
-5.106807 -1.231383 -0.989521
-5.101826 -1.251879 -0.862875
-4.989294 -1.223508 -0.721823
0.000293 -0.007763 -0.000196
0.000293 -0.007763 -0.000196
-4.992214 -1.219612 -0.359317
-14.509420 -3.524437 -0.696072
-19.205191 -4.659001 -0.458505
-20.924629 -5.067691 0.000323
-20.885750 -5.050586 0.499168
-20.834597 -5.034406 0.999814
-20.817881 -5.022685 1.497713
-20.761908 -5.005385 1.992665
-20.749355 -4.994713 2.495933
-20.679537 -4.970305 2.989199
-20.663004 -4.962537 3.491420
-20.633198 -4.947782 3.997750
-2.605309 -0.628010 -1.588557
-2.668104 -0.641975 -1.541159
-2.812262 -0.675724 -1.537172
-2.919719 -0.700191 -1.506839
-3.060403 -0.732986 -1.488968
-3.182335 -0.760726 -1.456231
-3.387064 -0.807921 -1.453924
-3.544476 -0.844461 -1.422324
-3.786289 -0.900168 -1.416063
-4.029528 -0.956754 -1.399004
-4.244595 -1.005847 -1.360779
-4.542181 -1.074166 -1.338024
-4.902906 -1.157960 -1.318498
-5.089236 -1.199817 -1.238632
-5.098911 -1.201151 -1.113227
-5.092508 -1.197766 -0.985446
-5.099108 -1.220922 -0.861251
-8.078920 -1.928464 -1.167101
0.000268 -0.007567 -0.000190
-5.039599 -1.202131 -0.483293
0.000268 -0.007567 -0.000190
-14.484095 -3.432683 -0.693933
-19.160797 -4.535054 -0.456840
-20.864941 -4.930035 0.000316
-20.820152 -4.911808 0.496933
-20.767036 -4.895488 0.995242
-20.750357 -4.883930 1.490868
-20.706110 -4.869727 1.984669
-20.680159 -4.856025 2.484310
-20.612408 -4.832563 2.975552
-20.598112 -4.825427 3.475850
-20.576242 -4.812744 3.981450
-2.619021 -0.614688 -1.594673
-2.692215 -0.630672 -1.552911
-2.817891 -0.659254 -1.538108
-2.908107 -0.679062 -1.498760
-3.048916 -0.710453 -1.481265
-3.199229 -0.744525 -1.461921
-3.373775 -0.783499 -1.446212
-3.580386 -0.829717 -1.434687
-3.780531 -0.874993 -1.411956
-4.020454 -0.928576 -1.393880
-4.241296 -0.977610 -1.357798
-4.537183 -1.044460 -1.334714
-4.887187 -1.122671 -1.312419
-5.098121 -1.169868 -1.239090
-5.087042 -1.165474 -1.109066
-5.086245 -1.163438 -0.982853
-5.094668 -1.187816 -0.859304
-8.092093 -1.880799 -1.167379
-4.993261 -1.161572 -0.598511
-5.066022 -1.176519 -0.485146
0.000273 -0.007378 -0.000186
-14.459368 -3.336270 -0.691794
-19.102337 -4.398155 -0.454804
-12.320943 -2.837180 0.000106
-20.763119 -4.768455 0.494883
-20.710814 -4.748860 0.991136
-20.689442 -4.740192 1.484443
-20.638332 -4.720931 1.975372
-20.614485 -4.707909 2.472920
-20.557619 -4.691195 2.963576
-20.532837 -4.678008 3.459954
-20.501686 -4.663406 3.961446
-2.598967 -0.594124 -1.580388
-2.688939 -0.613460 -1.548990
-2.809547 -0.640124 -1.531532
-2.910184 -0.661740 -1.497859
-3.063509 -0.695083 -1.486395
-3.189156 -0.722718 -1.455411
-3.389002 -0.766306 -1.450834
-3.599594 -0.812170 -1.440505
-3.811168 -0.858769 -1.421528
-3.988719 -0.896987 -1.381073
-4.254272 -0.954663 -1.360178
-4.533679 -1.016070 -1.331956
-4.865206 -1.088050 -1.304819
-5.087635 -1.136535 -1.234938
-5.082159 -1.133467 -1.106569
-5.081310 -1.131420 -0.980629
-5.089840 -1.155690 -0.857356
-8.091162 -1.831408 -1.165707
0.000276 -0.007192 -0.000182
0.000276 -0.007192 -0.000182
-12.094341 -2.722869 -0.866695
-14.437356 -3.243665 -0.689840
0.000276 -0.007192 -0.000182
-20.735592 -4.644159 0.000299
-20.698435 -4.628274 0.492692
-20.644152 -4.608589 0.986656
-20.620932 -4.599642 1.477601
-20.573748 -4.581622 1.966632
-20.561663 -4.571411 2.463388
-20.495295 -4.552931 2.950765
-20.468803 -4.539567 3.444707
-17.139036 -3.796008 3.307404
-2.593907 -0.577127 -1.575284
-2.712831 -0.602270 -1.560742
-2.814867 -0.624142 -1.532468
-2.924403 -0.647082 -1.503239
-3.055048 -0.674561 -1.480403
-3.188003 -0.702443 -1.452967
-3.396899 -0.747402 -1.452374
-3.600546 -0.790462 -1.439046
-3.799601 -0.832396 -1.415370
-3.988216 -0.872635 -1.379150
-4.207396 -0.918672 -1.343497
-4.558380 -0.993053 -1.337466
-4.901606 -1.066396 -1.312920
-5.075206 -1.102071 -1.230326
-5.075371 -1.100246 -1.103656
-5.076374 -1.098605 -0.978404
-5.084788 -1.123664 -0.855410
-8.101849 -1.783226 -1.165706
0.000251 -0.006996 -0.000176
0.000251 -0.006996 -0.000176
-12.131689 -2.655620 -0.868230
-11.600067 -2.537442 -0.553604
-12.755286 -2.784770 -0.302973
-12.026807 -2.621740 0.000097
-20.627005 -4.487706 0.490364
-20.588270 -4.471783 0.982735
-20.554176 -4.456890 1.470895
-20.518763 -4.441736 1.958822
-20.500219 -4.433984 2.452927
-20.428970 -4.411139 2.937397
-20.406561 -4.398874 3.429784
-3.174055 -0.689577 0.611639
-2.607354 -0.563703 -1.581401
-2.711216 -0.584897 -1.557799
-2.821940 -0.607990 -1.534342
-2.922890 -0.628438 -1.500544
-3.053544 -0.655657 -1.477833
-3.186582 -0.682767 -1.450524
-3.408473 -0.728588 -1.455453
-3.608635 -0.770322 -1.440499
-3.791435 -0.807608 -1.410578
-4.032068 -0.857702 -1.392592
-4.216335 -0.895042 -1.344684
-4.541405 -0.961877 -1.330849
-4.881128 -1.032416 -1.305827
-5.071922 -1.070661 -1.228017
-5.069910 -1.069322 -1.101159
-5.067001 -1.066864 -0.975440
-5.075908 -1.090011 -0.852812
-8.084814 -1.730618 -1.161810
-8.945256 -1.910812 -1.067893
-10.078032 -2.148248 -0.961194
-4.952987 -1.058383 -0.354147
-11.704781 -2.487503 -0.557889
0.000253 -0.006814 -0.000172
0.000253 -0.006814 -0.000172
-20.571020 -4.347842 0.488406
-20.533478 -4.336180 0.978908
-20.497459 -4.321120 1.465029
-20.455503 -4.308573 1.950455
-20.433971 -4.296611 2.442001
-3.015922 -0.638908 0.433002
-20.343836 -4.266580 3.415186
-3.149073 -0.665084 0.606087
-2.608745 -0.548610 -1.580377
-2.709280 -0.568512 -1.554857
-2.821794 -0.591336 -1.532461
-2.921078 -0.610843 -1.497848
-3.053677 -0.637166 -1.476119
-3.204640 -0.667740 -1.457027
-3.417856 -0.710497 -1.457763
-3.611167 -0.748981 -1.439767
-3.790309 -0.785129 -1.408525
-4.055475 -0.838105 -1.398990
-4.226991 -0.871730 -1.346469
-4.542903 -0.935570 -1.329744
-4.905907 -1.008000 -1.310890
-5.066348 -1.039829 -1.225249
-5.060597 -1.036830 -1.097832
-5.061463 -1.035157 -0.973216
-5.070283 -1.059086 -0.850865
-4.960422 -1.035392 -0.712070
0.000256 -0.006628 -0.000167
0.000256 -0.006628 -0.000167
0.000256 -0.006628 -0.000167
0.000256 -0.006628 -0.000167
0.000256 -0.006628 -0.000167
-12.259412 -2.526799 0.000098
-20.504848 -4.214340 0.486264
-20.468035 -4.199347 0.974615
-20.435202 -4.188924 1.458882
-20.392126 -4.172698 1.942087
-20.370760 -4.160926 2.431541
-20.320374 -4.146976 2.914835
-3.022503 -0.621416 0.506687
-3.156654 -0.647556 0.606830
-2.628671 -0.536812 -1.590576
-2.719301 -0.554107 -1.558773
-2.816456 -0.573161 -1.527763
-2.928025 -0.594539 -1.499639
-3.069687 -0.621877 -1.482104
-3.187007 -0.644243 -1.447263
-3.420047 -0.690274 -1.456990
-3.613539 -0.727646 -1.439038
-3.802252 -0.763921 -1.411257
-4.067620 -0.816056 -1.401549
-4.200058 -0.840892 -1.336340
-4.531387 -0.905062 -1.324779
-4.898312 -0.976939 -1.307342
-5.059015 -1.006950 -1.222019
-5.055116 -1.004348 -1.095334
-5.059772 -1.003426 -0.971733
-5.064631 -1.027377 -0.848919
-4.954794 -1.003436 -0.710398
-4.967961 -1.005177 -0.591773
0.000231 -0.006432 -0.000162
-4.943255 -0.996636 -0.352608
-5.020648 -1.011226 -0.238843
-4.930978 -0.991496 -0.116809
0.000231 -0.006432 -0.000162
-20.440468 -4.078545 0.484167
-20.401686 -4.063416 0.970321
-20.379406 -4.051609 1.453155
-20.336367 -4.035698 1.934461
-20.314409 -4.027673 2.422007
-20.261021 -4.009760 2.902859
-3.080317 -0.613990 0.515771
-3.133314 -0.623872 0.601649
-2.630109 -0.520693 -1.589551
-2.715667 -0.536453 -1.554851
-2.821501 -0.556609 -1.528699
-2.929699 -0.576650 -1.498739
-3.078605 -0.604520 -1.484668
-3.188813 -0.625370 -1.446448
-3.416799 -0.668393 -1.453903
-3.603123 -0.703196 -1.433216
-3.804712 -0.741489 -1.410570
-4.059341 -0.789226 -1.397064
-4.249924 -0.824457 -1.350635
-4.530805 -0.877705 -1.323124
-4.877375 -0.942595 -1.300250
-5.055146 -0.975808 -1.219712
-5.045411 -0.972119 -1.092006
-5.049980 -0.971165 -0.968769
-5.064799 -0.996011 -0.847944
-4.952669 -0.973211 -0.709283
-4.954288 -0.971729 -0.589453
-4.947179 -0.968547 -0.470274
0.000235 -0.006246 -0.000157
-5.012783 -0.978598 -0.238190
0.000235 -0.006246 -0.000157
-11.881544 -2.304445 0.000086
-20.379837 -3.940829 0.482163
-20.342976 -3.926356 0.966400
-20.322021 -3.918651 1.447427
-20.269289 -3.901155 1.925909
-20.248154 -3.889789 2.411314
-20.203972 -3.877663 2.891439
-20.166906 -3.863273 3.373660
-3.134995 -0.604730 0.601282
-2.626264 -0.504086 -1.585468
-2.716968 -0.520308 -1.553867
-2.819422 -0.539195 -1.525879
-2.929427 -0.558932 -1.496941
-3.060673 -0.582597 -1.474398
-3.183372 -0.605127 -1.442377
-3.380669 -0.641038 -1.436942
-3.581449 -0.677458 -1.423028
-3.819948 -0.721484 -1.414672
-4.067496 -0.766372 -1.398343
-4.252712 -0.799448 -1.350035
-4.548993 -0.853900 -1.326979
-4.947358 -0.926361 -1.317468
-5.047242 -0.944033 -1.216482
-5.039361 -0.940745 -1.089508
-5.049643 -0.940839 -0.967657
-5.047141 -0.962262 -0.844052
0.000209 -0.006050 -0.000151
0.000209 -0.006050 -0.000151
0.000209 -0.006050 -0.000151
-4.999428 -0.947809 -0.355811
-5.020287 -0.949916 -0.238279
-5.022752 -0.948567 -0.118705
-11.833637 -2.224441 0.000083
-12.059217 -2.262368 0.284932
-20.288607 -3.794769 0.962759
-20.253973 -3.784657 1.441001
-20.218927 -3.770813 1.919027
-20.192066 -3.758527 2.402015
-20.138283 -3.744912 2.878906
-20.115038 -3.733335 3.361332
0.000209 -0.006050 -0.000151
-2.634161 -0.489714 -1.588525
-2.713022 -0.503224 -1.549946
-2.822441 -0.522778 -1.525876
-2.930803 -0.541563 -1.496041
-3.056831 -0.563495 -1.470972
-3.186761 -0.586618 -1.442374
-3.378835 -0.620395 -1.434626
-3.587091 -0.656985 -1.423753
-3.824008 -0.699307 -1.414670
-4.064356 -0.741419 -1.395779
-4.274110 -0.777835 -1.355395
-4.553792 -0.827532 -1.326978
-4.927813 -0.893240 -1.310882
-5.041070 -0.912726 -1.213714
-5.038857 -0.910522 -1.088260
-5.047212 -0.910197 -0.966173
-5.046751 -0.931950 -0.843076
-8.051209 -1.481797 -1.150396
0.000213 -0.005864 -0.000147
0.000213 -0.005864 -0.000147
-11.837105 -2.165138 -0.841320
-11.891196 -2.170731 -0.563577
0.000213 -0.005864 -0.000147
-11.891470 -2.164356 0.000082
0.000213 -0.005864 -0.000147
-20.229477 -3.663226 0.958932
-20.208633 -3.655831 1.436250
-20.155970 -3.639063 1.911030
-20.133154 -3.627697 2.392482
-20.079554 -3.614443 2.867486
-20.048740 -3.601686 3.346733
-20.033232 -3.591701 3.834740
-2.633515 -0.473766 -1.586482
-2.715842 -0.487418 -1.549942
-2.820184 -0.505409 -1.523055
-2.926819 -0.523255 -1.492447
-3.083147 -0.549792 -1.482092
-3.229650 -0.575063 -1.460266
-3.402311 -0.604276 -1.443102
-3.554098 -0.629703 -1.409200
-3.840909 -0.679375 -1.419454
-4.055455 -0.715554 -1.391296
-4.284130 -0.754034 -1.357180
-4.558449 -0.801130 -1.326975
-4.900454 -0.859042 -1.302269
-5.034705 -0.881519 -1.210945
-5.022782 -0.877648 -1.083685
-5.034892 -0.877943 -0.962840
-5.044213 -0.901339 -0.841779
0.000215 -0.005682 -0.000143
-8.886348 -1.578722 -1.053746
0.000215 -0.005682 -0.000143
-11.788403 -2.086076 -0.837000
0.000215 -0.005682 -0.000143
0.000215 -0.005682 -0.000143
-12.100699 -2.130301 0.000085
-12.238008 -2.150006 0.288552
-20.161629 -3.531116 0.954731
0.000215 -0.005682 -0.000143
-20.098091 -3.509176 1.903592
-20.071461 -3.497328 2.382718
-20.025839 -3.485793 2.856901
-19.995222 -3.473282 3.334405
0.000215 -0.005682 -0.000143
-2.634477 -0.458124 -1.585458
-2.722020 -0.472184 -1.551898
-2.819516 -0.488398 -1.521175
-2.924458 -0.505317 -1.489753
-3.068405 -0.528823 -1.473533
-3.225767 -0.554495 -1.457010
-3.387512 -0.581414 -1.435391
-3.607203 -0.617478 -1.428840
-3.835588 -0.654833 -1.416031
-4.057622 -0.691701 -1.390652
-4.303443 -0.731722 -1.361942
-4.538438 -0.769760 -1.319807
-4.947253 -0.837709 -1.313410
-5.026381 -0.849219 -1.207716
-5.020172 -0.846371 -1.082018
-5.032235 -0.846596 -0.961356
-5.035695 -0.869770 -0.839506
-8.028849 -1.380603 -1.144831
-8.879600 -1.524701 -1.051890
-4.915042 -0.844654 -0.465251
-11.749407 -2.007261 -0.833374
-11.702646 -1.997188 -0.553521
-11.839050 -2.016157 -0.278730
-11.515600 -1.957096 0.000072
-12.236350 -2.077045 0.288225
-20.110664 -3.402904 0.951370
-20.084652 -3.391304 1.424516
-20.030134 -3.374932 1.895223
-20.012892 -3.368439 2.373420
-19.960171 -3.352435 2.844646
-19.931728 -3.340512 3.320455
-3.182861 -0.537507 0.607960
-2.635435 -0.442028 -1.584434
-2.724744 -0.455852 -1.551895
-2.831048 -0.472927 -1.525866
-2.927362 -0.487792 -1.489750
-3.060752 -0.508675 -1.468396
-3.254199 -0.539324 -1.468396
-3.379933 -0.559348 -1.430764
-3.614462 -0.596497 -1.430292
-3.830076 -0.630395 -1.412610
-4.074711 -0.669584 -1.395131
-4.305796 -0.705706 -1.361344
-4.529627 -0.740494 -1.315945
-4.875708 -0.795800 -1.293149
-5.017843 -0.817048 -1.204487
-5.019261 -0.815485 -1.080770
-5.027443 -0.814997 -0.959502
-5.030993 -0.838111 -0.837883
-8.009508 -1.328279 -1.140934
-4.925313 -0.817969 -0.582948
-4.904195 -0.812736 -0.463764
0.000193 -0.005300 -0.000133
-11.572287 -1.904315 -0.546819
-11.677123 -1.917329 -0.274650
-11.698685 -1.916677 0.000073
-12.279979 -2.009450 0.288965
-20.049610 -3.270289 0.947542
-20.023624 -3.258890 1.418788
-19.980968 -3.244801 1.888714
-19.963844 -3.238453 2.365281
-3.634473 -0.592627 0.517377
-19.886871 -3.211751 3.309748
-3.156849 -0.513756 0.602407
-2.644700 -0.427754 -1.588512
-2.730727 -0.440531 -1.553852
-2.823249 -0.454768 -1.520229
-2.912452 -0.467941 -1.480773
-3.060048 -0.490298 -1.466681
-3.258939 -0.521255 -1.469206
-3.364835 -0.536824 -1.423053
-3.604937 -0.573464 -1.425196
-3.829797 -0.608245 -1.411239
-4.076588 -0.645650 -1.394489
-4.307868 -0.680436 -1.360746
-4.548861 -0.717402 -1.320353
-4.954729 -0.779193 -1.312900
-5.006924 -0.786447 -1.200795
-5.014043 -0.785776 -1.078689
-5.020232 -0.784938 -0.957279
-5.020117 -0.806474 -0.835288
-7.997225 -1.280262 -1.138149
-4.910278 -0.786311 -0.580628
-4.902878 -0.783376 -0.463204
0.000198 -0.005111 -0.000129
-11.667871 -1.850941 -0.550825
-11.393662 -1.803481 -0.267740
-11.906736 -1.882340 0.000075
-20.045841 -3.158378 0.471347
-19.991110 -3.142617 0.943901
-19.964602 -3.134900 1.413339
-19.918081 -3.120482 1.881089
-19.899685 -3.110500 2.355516
-19.492500 -3.043483 2.772811
0.000198 -0.005111 -0.000129
-3.150016 -0.493889 0.600559
-2.647081 -0.412349 -1.588509
-2.731465 -0.424361 -1.552869
-2.827525 -0.438604 -1.521165
-2.920362 -0.451804 -1.483463
-3.080657 -0.475225 -1.475235
-3.249225 -0.500379 -1.463508
-3.378794 -0.518931 -1.427675
-3.560267 -0.545261 -1.406279
-3.816505 -0.583469 -1.405079
-4.076465 -0.621430 -1.393206
-4.277687 -0.650335 -1.350022
-4.535769 -0.688457 -1.315390
-4.957197 -0.750199 -1.312391
-4.999789 -0.755711 -1.198027
-5.006871 -0.754982 -1.076191
-5.012969 -0.754118 -0.955056
-5.009038 -0.774992 -0.832692
-7.984857 -1.231041 -1.135366
-4.906845 -0.756660 -0.579698
-4.901384 -0.754065 -0.462644
-4.896983 -0.752528 -0.346454
-11.709914 -1.788408 -0.552317
-11.704292 -1.783375 -0.274793
-12.123001 -1.844830 0.000077
0.000172 -0.004915 -0.000123
-19.929802 -3.015441 0.940166
-19.911266 -3.009091 1.408309
-19.858875 -2.994101 1.873835
0.000172 -0.004915 -0.000123
0.000172 -0.004915 -0.000123
-3.206635 -0.484751 0.532657
-3.164436 -0.477315 0.602783
-2.630687 -0.394148 -1.577283
-2.733854 -0.408446 -1.552865
-2.833470 -0.422661 -1.523040
-2.933512 -0.436365 -1.488843
-3.076178 -0.456252 -1.471808
-3.232135 -0.478578 -1.454558
-3.367095 -0.497159 -1.421505
-3.578071 -0.526731 -1.412096
-3.816057 -0.560772 -1.403708
-4.008716 -0.587417 -1.368875
-4.270021 -0.623873 -1.346444
-4.530120 -0.660787 -1.312632
-4.949915 -0.719820 -1.309351
-4.994417 -0.725354 -1.195719
-4.997532 -0.724033 -1.073280
-5.005546 -0.723397 -0.952832
-5.003636 -0.744530 -0.831069
-4.894151 -0.727465 -0.695349
-4.907161 -0.727653 -0.579233
-4.982457 -0.736958 -0.469887
-4.891349 -0.722701 -0.345754
-11.727890 -1.721986 -0.552692
-11.722236 -1.716983 -0.274981
-11.422893 -1.671228 0.000062
-19.920549 -2.903827 0.467572
-19.877594 -2.890505 0.936897
-19.857153 -2.883996 1.403280
-19.812691 -2.870491 1.867883
-19.794514 -2.860822 2.339007
-3.385221 -0.492598 0.480638
-3.207414 -0.465819 0.532337
-2.875291 -0.417061 0.547236
-2.651626 -0.381480 -1.588501
-2.734399 -0.392285 -1.551883
-2.839328 -0.406659 -1.524915
-2.939481 -0.419795 -1.490636
-3.066180 -0.436600 -1.465817
-3.220338 -0.457751 -1.448048
-3.368064 -0.477333 -1.420731
-3.564395 -0.503633 -1.405548
-3.783815 -0.533684 -1.390711
-4.025146 -0.565990 -1.373354
-4.262173 -0.597532 -1.342867
-4.560496 -0.638224 -1.320346
-4.932879 -0.688218 -1.303777
-4.990767 -0.695355 -1.193873
-4.991905 -0.693744 -1.071199
-4.995963 -0.692527 -0.950239
-4.999986 -0.714438 -0.829771
-4.890384 -0.697999 -0.694234
-4.946674 -0.704219 -0.583404
-9.880664 -1.398572 -0.930925
-4.883556 -0.692690 -0.344915
-12.014566 -1.693224 -0.565732
-11.983397 -1.684576 -0.280873
-11.800703 -1.656878 0.000066
-12.378333 -1.733344 0.290258
-19.826614 -2.766536 0.933723
-19.802263 -2.759626 1.398250
-19.757851 -2.746421 1.861187
-19.731930 -2.735810 2.329708
0.000178 -0.004547 -0.000115
-19.663626 -2.715878 3.261405
-2.838697 -0.394961 0.539834
-2.650342 -0.365568 -1.586458
-2.738329 -0.376591 -1.552859
-2.829372 -0.388460 -1.518338
-2.950708 -0.403881 -1.495118
-3.059667 -0.417554 -1.461536
-3.219353 -0.437977 -1.446418
-3.361583 -0.456531 -1.416874
-3.589378 -0.485901 -1.414274
-3.812988 -0.514539 -1.400283
-4.007659 -0.539872 -1.366309
-4.237119 -0.569037 -1.333930
-4.520319 -0.605176 -1.307667
-4.929073 -0.658620 -1.301749
-4.985136 -0.664292 -1.191566
-4.986218 -0.662671 -1.069118
-4.990216 -0.661431 -0.948385
-4.990307 -0.683609 -0.827500
-4.888527 -0.668014 -0.693398
-8.836419 -1.202395 -1.041224
-9.868792 -1.338852 -0.929069
-11.655595 -1.576335 -0.822367
-4.854671 -0.658253 -0.228484
-11.980954 -1.613834 -0.280598
-12.095750 -1.624957 0.000068
-11.654805 -1.563805 0.273068
-19.766926 -2.642205 0.930174
-19.741127 -2.631747 1.392801
-19.702698 -2.619642 1.854491
-19.682335 -2.613448 2.322034
-3.166895 -0.423044 0.448911
-19.595222 -2.587997 3.247454
-2.916877 -0.388451 0.554278
-2.654149 -0.349885 -1.587475
-2.730105 -0.358822 -1.546978
-2.835108 -0.371947 -1.520213
-2.935297 -0.383905 -1.486141
-3.071036 -0.400378 -1.465811
-3.238114 -0.421359 -1.453736
-3.356879 -0.435472 -1.413789
-3.581087 -0.463005 -1.409907
-3.802809 -0.490741 -1.395493
-3.993838 -0.513768 -1.360546
-4.230933 -0.542513 -1.330949
-4.512263 -0.577519 -1.304358
-4.896403 -0.624580 -1.292124
-4.983059 -0.634686 -1.190181
-4.976355 -0.632066 -1.066205
-4.988076 -0.631784 -0.947272
-4.988397 -0.653060 -0.826524
-4.888348 -0.639179 -0.692839
0.000156 -0.004165 -0.000105
-9.860732 -1.278103 -0.927584
0.000156 -0.004165 -0.000105
0.000156 -0.004165 -0.000105
-11.962538 -1.539033 -0.279950
-11.946189 -1.534819 0.000065
0.000156 -0.004165 -0.000105
-19.716824 -2.516471 0.927092
-19.688622 -2.509391 1.388049
-3.656513 -0.468149 0.343833
0.000156 -0.004165 -0.000105
-3.658514 -0.466450 0.518228
-19.509920 -2.462448 3.230910
-2.993226 -0.380269 0.568355
-2.664633 -0.335483 -1.592573
-2.747683 -0.344850 -1.555792
-2.842416 -0.356103 -1.523028
-2.958712 -0.369456 -1.496908
-3.082234 -0.383622 -1.470086
-3.235033 -0.401863 -1.451292
-3.366638 -0.416862 -1.416869
-3.598464 -0.444019 -1.415724
-3.811157 -0.469346 -1.397542
-4.026822 -0.494252 -1.370786
-4.230172 -0.517518 -1.329756
-4.488776 -0.548123 -1.296638
-4.922935 -0.599007 -1.298200
-4.976958 -0.604650 -1.187873
-4.974055 -0.602541 -1.064956
-4.985759 -0.602187 -0.946159
-4.978345 -0.622458 -0.824253
-4.876205 -0.608907 -0.690610
-8.802527 -1.092868 -1.035658
-9.850128 -1.218967 -0.925912
0.000159 -0.003979 -0.000101
-4.858035 -0.600634 -0.228293
-11.850121 -1.455173 -0.277122
-11.893264 -1.458354 0.000062
-12.315297 -1.505606 0.288113
-19.631784 -2.390763 0.922425
-19.597755 -2.383147 1.380648
-19.557512 -2.371349 1.838125
-3.703536 -0.450983 0.436212
-3.708308 -0.450896 0.524911
0.000159 -0.003979 -0.000101
-3.018754 -0.365665 0.572801
-2.656252 -0.318745 -1.586449
-2.744423 -0.328229 -1.552849
-2.851423 -0.340382 -1.526780
-2.960785 -0.352237 -1.496904
-3.080790 -0.365270 -1.468372
-3.231811 -0.382427 -1.448850
-3.361646 -0.396436 -1.413782
-3.597242 -0.422688 -1.414266
-3.810045 -0.446791 -1.396172
-4.027690 -0.470674 -1.370144
-4.229259 -0.492551 -1.328562
-4.499498 -0.522975 -1.298840
-4.924356 -0.570268 -1.297692
-4.968732 -0.574490 -1.185105
-4.969647 -0.572840 -1.063291
-4.981304 -0.572417 -0.944677
-4.979854 -0.593393 -0.823928
-4.871730 -0.579730 -0.689496
-8.788901 -1.039704 -1.033340
-9.841120 -1.160242 -0.924429
-11.506653 -1.353917 -0.810097
-4.855428 -0.571795 -0.228012
-12.040984 -1.408099 -0.281393
0.000134 -0.003783 -0.000095
-12.280045 -1.429471 0.287089
0.000134 -0.003783 -0.000095
0.000134 -0.003783 -0.000095
-3.699202 -0.430001 0.347368
-3.706054 -0.429483 0.436214
-3.677385 -0.425528 0.520182
-3.697855 -0.426579 0.611471
-2.950500 -0.340089 0.559473
-2.646053 -0.301925 -1.579305
-2.751446 -0.312831 -1.555785
-2.853330 -0.323777 -1.526777
-2.962754 -0.335004 -1.496900
-3.079228 -0.346952 -1.466658
-3.224871 -0.362626 -1.444780
-3.358337 -0.376300 -1.411468
-3.579229 -0.399549 -1.406262
-3.795714 -0.422821 -1.390014
-4.028430 -0.447102 -1.369501
-4.233903 -0.468231 -1.329156
-4.500485 -0.496693 -1.298287
-4.914089 -0.540264 -1.294144
-4.964209 -0.544861 -1.183259
-4.961182 -0.542782 -1.060794
-4.964969 -0.541440 -0.940972
-4.963553 -0.562343 -0.820684
-4.865129 -0.550399 -0.688102
-8.780905 -0.987388 -1.031717
-9.827837 -1.101204 -0.922572
-11.458695 -1.281330 -0.806195
-4.840756 -0.541678 -0.227172
-12.136306 -1.348310 -0.283438
-11.879389 -1.317749 0.000056
0.000138 -0.003597 -0.000091
-25.571871 -2.814396 1.199934
-25.545721 -2.807008 1.797291
-25.365728 -2.778294 2.380858
0.000138 -0.003597 -0.000091
0.000138 -0.003597 -0.000091
-3.557013 -0.389562 0.587803
-3.007119 -0.328829 0.569846
-2.656274 -0.287425 -1.584403
-2.760105 -0.297554 -1.559702
-2.837565 -0.305301 -1.517385
-2.952165 -0.316451 -1.490617
-3.075765 -0.328476 -1.464088
-3.225142 -0.343122 -1.443963
-3.369628 -0.357741 -1.415318
-3.579612 -0.378564 -1.405531
-3.813095 -0.401690 -1.395483
-4.046000 -0.425302 -1.374620
-4.227035 -0.442687 -1.326174
-4.520547 -0.471600 -1.303247
-4.892081 -0.509213 -1.287558
-4.955709 -0.514045 -1.180491
-4.958441 -0.512585 -1.059546
-4.968081 -0.511810 -0.940970
-4.974538 -0.534426 -0.821979
-4.860429 -0.520520 -0.686986
-8.764708 -0.934355 -1.029166
-9.824092 -1.043415 -0.921644
-11.446244 -1.211100 -0.804801
-4.867619 -0.516142 -0.228288
-12.165728 -1.280577 -0.283950
-12.308681 -1.291245 0.000058
-25.633474 -2.680856 0.598590
-25.603529 -2.668702 1.200670
-25.589689 -2.658233 1.799235
-25.413429 -2.630983 2.383820
-25.430511 -2.628271 2.989932
-3.223030 -0.334950 0.455327
-3.007561 -0.311737 0.496686
-3.065643 -0.317141 0.580588
-2.647672 -0.270443 -1.578277
-2.765275 -0.281350 -1.561658
-2.844576 -0.288823 -1.520199
-2.953968 -0.298763 -1.490614
-3.084774 -0.311310 -1.467508
-3.216123 -0.323292 -1.439080
-3.358813 -0.336300 -1.409920
-3.585418 -0.358146 -1.406984
-3.800371 -0.378082 -1.390008
-4.037055 -0.400717 -1.370777
-4.254200 -0.420598 -1.333916
-4.532756 -0.446327 -1.306000
-4.892993 -0.480682 -1.287050
-4.948874 -0.484402 -1.178185
-4.951500 -0.483771 -1.057464
-4.959095 -0.482771 -0.938747
-4.961909 -0.503158 -0.819383
-4.855421 -0.491576 -0.685873
-8.756229 -0.880819 -1.027543
-9.822170 -0.984181 -0.920902
0.000115 -0.003219 -0.000081
-4.914319 -0.491439 -0.230335
-12.292265 -1.222215 -0.286737
-12.184532 -1.207245 0.000054
-25.698658 -2.533578 0.599741
-25.662199 -2.525472 1.202710
-25.658148 -2.516044 1.802990
-25.481201 -2.494227 2.388826
-25.480778 -2.485213 2.994102
-3.215029 -0.315257 0.453938
-3.539638 -0.346135 0.584242
-3.143703 -0.306674 0.595034
-2.643988 -0.254992 -1.575214
-2.744228 -0.263586 -1.548919
-2.847905 -0.272919 -1.521134
-2.957366 -0.282256 -1.491508
-3.082868 -0.293563 -1.465793
-3.241528 -0.307376 -1.449651
-3.358779 -0.317201 -1.409147
-3.587342 -0.337954 -1.406982
-3.824872 -0.358771 -1.398214
-4.039222 -0.377996 -1.370774
-4.258369 -0.396847 -1.334510
-4.538990 -0.421201 -1.307101
-4.897508 -0.453369 -1.287555
-4.941801 -0.455708 -1.175877
-4.944342 -0.455074 -1.055385
-4.957796 -0.454552 -0.938004
-4.952826 -0.474164 -0.817437
-4.850195 -0.463546 -0.684757
-4.845212 -0.461355 -0.568313
-9.807669 -0.927319 -0.919046
-4.844631 -0.458747 -0.340297
0.000118 -0.003033 -0.000077
-12.304846 -1.154001 -0.286879
-12.404149 -1.158923 0.000054
-13.046270 -1.214161 0.304262
0.000118 -0.003033 -0.000077
-25.693636 -2.374699 1.804515
-25.532385 -2.355329 2.392345
-25.531834 -2.346292 2.998507
0.000118 -0.003033 -0.000077
0.000118 -0.003033 -0.000077
-3.217779 -0.295525 0.608739
-2.647107 -0.239742 -1.576231
-2.756115 -0.248531 -1.554793
-2.865248 -0.257749 -1.529581
-2.969596 -0.265998 -1.496890
-3.088152 -0.275408 -1.467501
-3.243282 -0.287962 -1.449648
-3.345837 -0.296390 -1.402978
-3.598564 -0.317297 -1.410615
-3.836256 -0.336726 -1.401633
-4.030047 -0.352877 -1.366931
-4.268229 -0.372071 -1.336892
-4.541401 -0.394094 -1.307098
-4.880831 -0.422481 -1.282488
-4.934714 -0.425384 -1.173569
-4.935329 -0.423705 -1.052888
-4.948706 -0.423103 -0.935781
-4.949580 -0.444940 -0.816461
-4.841017 -0.433539 -0.683085
0.000094 -0.002833 -0.000071
-4.822048 -0.429314 -0.451665
-4.837317 -0.428953 -0.339598
0.000094 -0.002833 -0.000071
-12.365252 -1.085559 -0.288134
-12.351027 -1.079969 0.000051
0.000094 -0.002833 -0.000071
-25.753223 -2.235196 1.205669
-25.756956 -2.226460 1.807993
-25.587944 -2.202878 2.396236
-25.576939 -2.197447 3.002212
0.000094 -0.002833 -0.000071
-3.541445 -0.304223 0.583922
-3.229255 -0.277084 0.610593
-2.648466 -0.223859 -1.576228
-2.752308 -0.231571 -1.551852
-2.849100 -0.239117 -1.520190
-2.974670 -0.248497 -1.498682
-3.093322 -0.257206 -1.469210
-3.223018 -0.267320 -1.439885
-3.360392 -0.277418 -1.408371
-3.583663 -0.294410 -1.404065
-3.838133 -0.314458 -1.401630
-4.009375 -0.326969 -1.359247
-4.274153 -0.346880 -1.338081
-4.499498 -0.364235 -1.294418
-4.821505 -0.388423 -1.266280
-4.933188 -0.396490 -1.172646
-4.929866 -0.394498 -1.051223
-4.943223 -0.393817 -0.934298
-4.946203 -0.414918 -0.815488
-7.843473 -0.655018 -1.106143
-4.848253 -0.404193 -0.568079
-4.818548 -0.400042 -0.451106
-4.835706 -0.400609 -0.339318
-13.274954 -1.090438 -0.621087
-12.939412 -1.058402 -0.301362
-13.238100 -1.080450 0.000056
-13.113349 -1.065682 0.305509
-25.825741 -2.087146 1.208453
-25.807093 -2.081111 1.810631
-25.639885 -2.058633 2.399941
-25.631115 -2.048927 3.007081
-3.298921 -0.265449 0.465080
-3.377855 -0.270555 0.556686
-3.299397 -0.263170 0.623556
-2.649698 -0.208430 -1.576225
-2.753581 -0.215545 -1.551849
-2.859235 -0.223209 -1.524881
-2.983186 -0.231734 -1.502268
-3.085710 -0.238535 -1.464930
-3.226325 -0.248717 -1.440695
-3.380317 -0.259296 -1.416077
-3.592713 -0.274164 -1.406973
-3.845500 -0.292607 -1.403679
-4.035747 -0.305550 -1.367567
-4.281786 -0.322523 -1.339866
-4.545595 -0.341449 -1.307096
-4.846821 -0.362203 -1.272355
-4.925668 -0.367200 -1.170339
-4.926200 -0.365508 -1.049974
-4.943434 -0.365039 -0.933926
-4.936713 -0.385347 -0.813540
-7.833301 -0.608620 -1.104193
-4.834633 -0.374892 -0.566223
-4.822749 -0.372278 -0.451290
0.000101 -0.002462 -0.000062
-11.840736 -0.904182 -0.553743
-12.797739 -0.972573 -0.297932
-12.219015 -0.926562 0.000043
-13.962636 -1.053526 0.325149
-19.215096 -1.442175 0.898698
0.000101 -0.002462 -0.000062
0.000101 -0.002462 -0.000062
-19.136738 -1.419515 2.244135
-3.306313 -0.246714 0.465918
-14.165245 -1.043926 2.333623
-3.347885 -0.247441 0.632446
-2.661146 -0.193734 -1.582343
-2.751316 -0.199253 -1.549885
-2.867502 -0.207073 -1.528634
-2.986253 -0.214504 -1.503162
-3.090644 -0.220843 -1.466637
-3.236788 -0.230616 -1.444761
-3.372559 -0.239005 -1.412219
-3.557056 -0.250708 -1.392421
-3.854591 -0.270819 -1.406414
-4.041220 -0.282398 -1.368845
-4.294988 -0.298487 -1.343438
-4.564752 -0.316286 -1.312054
-4.856523 -0.334659 -1.274380
-4.919921 -0.338140 -1.168493
-4.916505 -0.336179 -1.047477
-4.927776 -0.335220 -0.930593
-4.934886 -0.356476 -0.812891
-7.822826 -0.562374 -1.102246
0.000076 -0.002266 -0.000057
-4.822805 -0.344202 -0.451103
-4.901677 -0.348927 -0.343638
0.000076 -0.002266 -0.000057
-12.904837 -0.905869 -0.300302
-12.074494 -0.845618 0.000039
-19.220366 -1.337975 0.447415
0.000076 -0.002266 -0.000057
0.000076 -0.002266 -0.000057
0.000076 -0.002266 -0.000057
0.000076 -0.002266 -0.000057
-3.317553 -0.228174 0.467313
-14.127696 -0.959293 2.326486
-3.208065 -0.218466 0.605786
-2.653627 -0.177666 -1.577239
-2.757621 -0.183582 -1.552822
-2.868632 -0.190389 -1.528631
-2.985634 -0.197020 -1.502262
-3.088243 -0.202635 -1.464924
-3.236228 -0.211687 -1.443945
-3.384917 -0.220120 -1.416842
-3.560296 -0.230167 -1.393146
-3.848596 -0.247963 -1.403674
-4.040888 -0.258834 -1.368202
-4.294739 -0.273457 -1.342839
-4.597180 -0.291771 -1.320873
-4.858361 -0.306527 -1.274378
-4.912078 -0.309034 -1.166185
-4.918347 -0.307704 -1.047476
-4.929626 -0.306674 -0.930591
-4.928991 -0.327364 -0.811591
-7.812076 -0.516266 -1.100298
-8.678258 -0.570233 -1.015487
0.000078 -0.002084 -0.000052
0.000078 -0.002084 -0.000052
0.000078 -0.002084 -0.000052
-12.879913 -0.829500 -0.299608
-12.202909 -0.783876 0.000037
-12.688757 -0.810559 0.295235
-25.845930 -1.639820 1.207859
-25.807302 -1.632846 1.808365
-25.784851 -1.622397 2.410497
0.000078 -0.002084 -0.000052
-14.125429 -0.882297 1.989114
-3.606547 -0.225568 0.593659
-3.366191 -0.209491 0.635414
-2.664895 -0.162833 -1.583357
-2.762108 -0.167735 -1.554778
-2.871447 -0.173796 -1.529567
-2.992068 -0.179971 -1.504951
-3.096565 -0.185108 -1.468344
-3.235595 -0.192203 -1.443128
-3.384278 -0.200349 -1.416069
-3.544809 -0.208521 -1.386597
-3.840612 -0.224418 -1.400252
-4.053654 -0.236050 -1.372041
-4.305740 -0.249114 -1.345818
-4.587301 -0.263671 -1.317564
-4.848437 -0.277730 -1.271338
-4.911883 -0.279609 -1.165722
-4.908370 -0.277694 -1.044979
-4.925465 -0.276934 -0.929478
-4.922900 -0.298340 -0.810293
-7.801169 -0.468931 -1.098350
0.000081 -0.001898 -0.000048
0.000081 -0.001898 -0.000048
0.000081 -0.001898 -0.000048
0.000081 -0.001898 -0.000048
-12.670873 -0.742722 -0.294647
-12.800328 -0.745809 0.000038
-13.044528 -0.757715 0.303405
-25.896828 -1.493324 1.209804
-25.870308 -1.482736 1.812120
-14.171352 -0.808125 1.324314
0.000081 -0.001898 -0.000048
0.000081 -0.001898 -0.000048
0.000081 -0.001898 -0.000048
-14.026889 -0.785169 2.646981
-2.660651 -0.146567 -1.580294
-2.764777 -0.151269 -1.555755
-2.870661 -0.156487 -1.528625
-2.998417 -0.162335 -1.507641
-3.095784 -0.167001 -1.467484
-3.225697 -0.172818 -1.438245
-3.376192 -0.179610 -1.412212
-3.577557 -0.189606 -1.398962
-3.830556 -0.201549 -1.396147
-4.056814 -0.212646 -1.372681
-4.291848 -0.223361 -1.341050
-4.596435 -0.237477 -1.319766
-4.851890 -0.249739 -1.271843
-4.905629 -0.250764 -1.163876
-4.902024 -0.249723 -1.043314
-4.913188 -0.248572 -0.926885
-4.916688 -0.268544 -0.808995
-7.791852 -0.423220 -1.096681
-8.654570 -0.466855 -1.012009
-9.747667 -0.522193 -0.910697
-11.166841 -0.596015 -0.781945
-12.095886 -0.641226 -0.564840
-12.199717 -0.644585 -0.283605
-12.017471 -0.630782 0.000029
-12.539618 -0.653719 0.291561
-25.944893 -1.346202 1.211656
-25.928219 -1.336264 1.815596
0.000056 -0.001702 -0.000042
-3.358664 -0.172819 0.393264
-14.031900 -0.711672 1.974630
-3.504441 -0.178407 0.576479
-13.982092 -0.701817 2.637719
-2.666574 -0.131788 -1.583352
-2.760360 -0.135399 -1.552813
-2.876762 -0.140547 -1.531439
-2.983216 -0.144644 -1.499562
-3.103898 -0.149351 -1.470905
-3.223004 -0.153888 -1.436614
-3.351324 -0.159371 -1.401418
-3.586050 -0.169171 -1.401868
-3.826007 -0.179061 -1.394093
-4.065545 -0.189463 -1.375239
-4.310246 -0.199259 -1.346408
-4.586186 -0.210322 -1.316457
-4.816522 -0.219968 -1.262218
-4.899211 -0.222004 -1.162030
-4.899498 -0.220306 -1.042481
-4.912615 -0.219168 -0.926512
-4.912199 -0.240635 -0.808020
-7.774389 -0.377236 -1.093897
-4.801720 -0.232739 -0.561343
-4.787665 -0.230385 -0.447194
-4.792830 -0.228959 -0.335541
-4.761452 -0.226633 -0.222308
-12.550748 -0.590513 -0.291684
-11.901053 -0.555855 0.000027
0.000059 -0.001516 -0.000038
-25.988125 -1.198391 1.213321
-14.086801 -0.645354 0.986115
-14.034496 -0.638058 1.310742
0.000059 -0.001516 -0.000038
-13.988263 -0.628626 1.967945
-3.178136 -0.142888 0.522655
-3.485147 -0.155930 0.657271
-2.662153 -0.115571 -1.580288
-2.762861 -0.118917 -1.553789
-2.866953 -0.122855 -1.525803
-2.987590 -0.126921 -1.501354
-3.099301 -0.130536 -1.468336
-3.222002 -0.135085 -1.435798
-3.394619 -0.141061 -1.419144
-3.585127 -0.147646 -1.401138
-3.828857 -0.156933 -1.394774
-4.077957 -0.165626 -1.379078
-4.315146 -0.173677 -1.347599
-4.596917 -0.184129 -1.319212
-4.833197 -0.191837 -1.266268
-4.890681 -0.193244 -1.159723
-4.892858 -0.191622 -1.040816
-4.911812 -0.190645 -0.926142
-4.909595 -0.211156 -0.807370
0.000063 -0.001330 -0.000034
0.000063 -0.001330 -0.000034
0.000063 -0.001330 -0.000034
-4.790099 -0.201020 -0.335259
-4.770689 -0.198546 -0.222679
-12.268342 -0.504209 -0.285050
-11.930008 -0.488261 0.000022
0.000063 -0.001330 -0.000034
0.000063 -0.001330 -0.000034
0.000063 -0.001330 -0.000034
-14.000140 -0.555618 1.307209
-13.989764 -0.550324 1.637293
-13.946133 -0.546178 1.961538
-13.928618 -0.540625 2.290146
-3.460480 -0.134100 0.652460
-2.669657 -0.100315 -1.584365
-2.765238 -0.102896 -1.554766
-2.878206 -0.106556 -1.531433
-2.991844 -0.109670 -1.503145
-3.105412 -0.113248 -1.470899
-3.226371 -0.116491 -1.437423
-3.393521 -0.121281 -1.418371
-3.578443 -0.127196 -1.398226
-3.839093 -0.135043 -1.398192
-4.088274 -0.143021 -1.382278
-4.337047 -0.150134 -1.354149
-4.615195 -0.158083 -1.324172
-4.843875 -0.165007 -1.268798
-4.887818 -0.164789 -1.158799
-4.884072 -0.163812 -1.038736
-4.897098 -0.162534 -0.923177
-4.896927 -0.182208 -0.805099
-4.793566 -0.177555 -0.674164
0.000037 -0.001134 -0.000028
-4.782057 -0.173788 -0.446448
-4.783180 -0.172990 -0.334701
-4.765774 -0.170691 -0.222398
-12.161057 -0.431690 -0.282501
-12.210472 -0.429163 0.000022
-12.594978 -0.438247 0.292618
-12.710546 -0.440044 0.593122
-13.997581 -0.479586 0.979410
-13.961210 -0.475911 1.303302
-13.962834 -0.471085 1.633803
-13.911444 -0.464491 1.956245
0.000037 -0.001134 -0.000028
-3.239186 -0.107334 0.610616
-2.661585 -0.084959 -1.579261
-2.757049 -0.087012 -1.549865
-2.866416 -0.089922 -1.524857
-2.983475 -0.092519 -1.498656
-3.113231 -0.095415 -1.474320
-3.217859 -0.097464 -1.433353
-3.397830 -0.102271 -1.419911
-3.601445 -0.107087 -1.406955
-3.845449 -0.112926 -1.400241
-4.090919 -0.119367 -1.382916
-4.326392 -0.124663 -1.350573
-4.606431 -0.131064 -1.321413
-4.844734 -0.136955 -1.268798
-4.869216 -0.135943 -1.154188
-4.881053 -0.134564 -1.037902
-4.896019 -0.133259 -0.922805
-4.886038 -0.154326 -0.803152
-4.786586 -0.149540 -0.673050
-4.791133 -0.148836 -0.559713
-4.778983 -0.146793 -0.446074
-4.780100 -0.145166 -0.334421
-4.762652 -0.143801 -0.222210
0.000039 -0.000952 -0.000024
-12.064800 -0.354391 0.000018
0.000039 -0.000952 -0.000024
0.000039 -0.000952 -0.000024
-12.831438 -0.365650 0.897646
-13.925981 -0.391893 1.299768
-13.917678 -0.389225 1.628225
-13.890124 -0.383616 1.952900
0.000039 -0.000952 -0.000024
-3.188670 -0.087125 0.600990
-2.665479 -0.069082 -1.581298
-2.769709 -0.070794 -1.556720
-2.847473 -0.072258 -1.514526
-2.994688 -0.074912 -1.504037
-3.102907 -0.076506 -1.469183
-3.231168 -0.078509 -1.439044
-3.405752 -0.082118 -1.422992
-3.616935 -0.085893 -1.412771
-3.840411 -0.089814 -1.398187
-4.068834 -0.094402 -1.375231
-4.325148 -0.098784 -1.349975
-4.607107 -0.103579 -1.321413
-4.837731 -0.107875 -1.266770
-4.873832 -0.106976 -1.155108
-4.873931 -0.105277 -1.036238
-4.890804 -0.103932 -0.921694
-4.884891 -0.125124 -0.802826
0.000014 -0.000756 -0.000018
0.000014 -0.000756 -0.000018
0.000014 -0.000756 -0.000018
-4.774908 -0.116492 -0.334000
-4.863283 -0.117780 -0.226867
-12.455112 -0.296113 -0.289238
-12.344614 -0.289178 0.000015
-12.295344 -0.285889 0.285553
-12.896591 -0.295325 0.601595
-12.815420 -0.288998 0.896386
-13.888239 -0.308275 1.296047
-13.885980 -0.305795 1.624271
-13.850594 -0.300183 1.947051
-3.606782 -0.077476 0.592703
-3.165553 -0.067536 0.596549
-2.660658 -0.053459 -1.578236
-2.764835 -0.054564 -1.553779
-2.865492 -0.056026 -1.523913
-2.991503 -0.057420 -1.502239
-3.117761 -0.058729 -1.476025
-3.231560 -0.059730 -1.439042
-3.400645 -0.062228 -1.420676
-3.613631 -0.064833 -1.411315
-3.844634 -0.067589 -1.399552
-4.033331 -0.070175 -1.363063
-4.331351 -0.073815 -1.351762
-4.519202 -0.075417 -1.296053
-4.834411 -0.079784 -1.265755
-4.868545 -0.078645 -1.153723
-4.870547 -0.076984 -1.035405
-4.887420 -0.075533 -0.920950
-4.883543 -0.096794 -0.802501
-7.710758 -0.149802 -1.083878
0.000019 -0.000566 -0.000014
0.000019 -0.000566 -0.000014
-4.835352 -0.089930 -0.338183
0.000019 -0.000566 -0.000014
-12.236715 -0.220317 -0.284135
-12.514048 -0.220927 0.000012
-12.266809 -0.214436 0.284854
-12.412678 -0.212643 0.578950
-12.737095 -0.213739 0.890802
-13.851947 -0.227567 1.292512
-13.843797 -0.225015 1.619154
-13.814462 -0.219710 1.941757
-3.650581 -0.057206 0.599838
-3.205196 -0.049737 0.603958
-2.669539 -0.037619 -1.583333
-2.768613 -0.038031 -1.555734
-2.867549 -0.038875 -1.524849
-2.975716 -0.039287 -1.494160
-3.114427 -0.040019 -1.474312
-3.237335 -0.041018 -1.441480
-3.399104 -0.041863 -1.419903
-3.610238 -0.043175 -1.409857
-3.844937 -0.045290 -1.399551
-4.071558 -0.046512 -1.375867
-4.331713 -0.047954 -1.351760
-4.550324 -0.049562 -1.304871
-4.830928 -0.050899 -1.264740
-4.865014 -0.050412 -1.152800
-4.863106 -0.048689 -1.033739
-4.881877 -0.047172 -0.919838
-4.876135 -0.067552 -0.801203
0.000022 -0.000381 -0.000010
-8.567014 -0.113908 -1.000419
-9.693083 -0.125442 -0.904392
0.000022 -0.000381 -0.000010
-4.742457 -0.059089 -0.221182
-12.301774 -0.148368 -0.285625
0.000022 -0.000381 -0.000010
-12.059945 -0.139136 0.280023
-12.765316 -0.142802 0.595344
0.000022 -0.000381 -0.000010
-13.813209 -0.147263 1.288792
-13.811133 -0.142415 1.615201
-13.769959 -0.139582 1.935351
-3.631127 -0.035819 0.596599
-3.227052 -0.030754 0.608034
-2.673144 -0.022104 -1.585372
-2.767052 -0.021898 -1.554751
-2.867733 -0.022189 -1.524846
-2.981256 -0.022018 -1.496849
-3.101970 -0.022362 -1.468319
-3.237520 -0.022207 -1.441478
-3.399303 -0.022115 -1.419900
-3.604835 -0.022812 -1.407672
-3.850780 -0.023017 -1.401601
-4.105859 -0.023809 -1.387389
-4.324292 -0.023555 -1.349374
-4.571685 -0.023303 -1.310934
-4.833070 -0.023773 -1.265246
-4.855508 -0.022186 -1.150492
-4.853511 -0.021335 -1.031660
-4.870275 -0.019701 -0.917615
-4.870529 -0.039262 -0.800229
-7.698105 -0.060597 -1.081931
-8.547685 -0.064278 -0.998100
-9.677724 -0.069376 -0.902907
-10.929038 -0.076416 -0.764249
-4.734756 -0.031557 -0.220806
-0.000003 -0.000184 -0.000004
-12.475771 -0.076312 0.000004
-12.288489 -0.070877 0.285311
-12.444266 -0.069612 0.580340
-13.804099 -0.072374 0.965295
-13.777980 -0.069832 1.285443
-13.770005 -0.064985 1.610318
-13.736869 -0.060032 1.930615
-3.605623 -0.015266 0.592386
-3.225234 -0.012547 0.607667
-2.668084 -0.006984 -1.582307
-2.754923 -0.006249 -1.547891
-2.862520 -0.005993 -1.522026
-2.990269 -0.005219 -1.501334
-3.109265 -0.004343 -1.471740
-3.235765 -0.003392 -1.440662
-3.406750 -0.002973 -1.422982
-3.608631 -0.001890 -1.409125
-3.850870 -0.000670 -1.401598
-4.094562 -0.000004 -1.383546
-4.331995 0.001512 -1.351756
-4.610217 0.003222 -1.321956
-4.827315 0.004210 -1.263726
-4.849716 0.005922 -1.149108
-4.863341 0.007638 -1.033737
-4.864416 0.009344 -0.916502
-4.862796 -0.011883 -0.798930
-7.680514 -0.016081 -1.079426
-8.532017 -0.016381 -0.996246
