# This PCD file was generated using the MATLAB® pcwrite function
# from Computer Vision Toolbox®.
# .PCD v.7 - Point Cloud Data file format
VERSION .7
FIELDS x y z
SIZE 4 4 4
TYPE F F F
COUNT 1 1 1
WIDTH 1631
HEIGHT 1
VIEWPOINT 0 0 0 1 0 0 0
POINTS 1631
DATA ascii
59.614513 -35.787926 11.406894
0.003618 -0.083904 -0.002559
0.513606 -0.390507 -0.355592
2.855150 -1.800360 -1.873061
3.041074 -1.912948 -1.888275
3.216691 -2.020179 -1.886517
3.425972 -2.147878 -1.894785
3.654746 -2.286665 -1.901587
3.848732 -2.405474 -1.879199
3.900395 -2.438459 -1.780921
3.980947 -2.488014 -1.694606
4.046691 -2.529622 -1.599723
4.135509 -2.585257 -1.510234
4.126095 -2.580476 -1.385032
4.135062 -2.587810 -1.267726
4.095570 -2.564790 -1.136873
4.106115 -2.573080 -1.022998
4.121040 -2.584042 -0.910599
4.735403 -2.929981 -0.910284
4.678751 -2.896947 -0.769896
4.681686 -2.900867 -0.640695
4.663167 -2.891861 -0.510610
4.686919 -2.907224 -0.385455
4.687177 -2.909543 -0.258140
4.707183 -2.923784 -0.130618
4.776465 -2.966685 -0.003058
0.003595 -0.083711 -0.002553
0.003595 -0.083711 -0.002553
0.003595 -0.083711 -0.002553
0.003595 -0.083711 -0.002553
0.003595 -0.083711 -0.002553
0.003595 -0.083711 -0.002553
0.003595 -0.083711 -0.002553
0.003595 -0.083711 -0.002553
0.508873 -0.391454 -0.353543
2.845250 -1.816558 -1.873048
3.025977 -1.927442 -1.885442
3.213116 -2.043097 -1.890988
3.412499 -2.166401 -1.893912
3.644734 -2.309980 -1.903196
3.860495 -2.442771 -1.891517
3.901082 -2.469403 -1.787451
3.987454 -2.524116 -1.703481
4.100420 -2.594239 -1.626602
4.127580 -2.612795 -1.512600
4.125982 -2.613734 -1.389976
4.128815 -2.616398 -1.270239
4.105676 -2.604098 -1.143774
4.114602 -2.611499 -1.028802
4.122894 -2.618516 -0.914285
0.003599 -0.083533 -0.002548
4.766819 -2.988343 -0.787142
0.003599 -0.083533 -0.002548
4.743793 -2.977570 -0.521188
4.756933 -2.987798 -0.392559
4.757786 -2.989389 -0.262881
4.779462 -3.004857 -0.133020
4.847976 -3.049026 -0.003045
0.003599 -0.083533 -0.002548
0.003599 -0.083533 -0.002548
0.003599 -0.083533 -0.002548
0.003599 -0.083533 -0.002548
0.003599 -0.083533 -0.002548
0.003599 -0.083533 -0.002548
0.003599 -0.083533 -0.002548
0.003599 -0.083533 -0.002548
0.507030 -0.394258 -0.353535
2.823045 -1.825844 -1.865193
3.018001 -1.946996 -1.887305
3.196906 -2.059085 -1.888281
3.398566 -2.185435 -1.893040
3.630319 -2.329740 -1.902365
3.868403 -2.479012 -1.902293
3.912222 -2.507993 -1.799076
4.003671 -2.565625 -1.716461
4.080624 -2.615282 -1.624660
4.107625 -2.633971 -1.510791
4.108106 -2.635191 -1.388855
4.117008 -2.642658 -1.271233
4.120832 -2.645970 -1.152057
4.129877 -2.653534 -1.036271
4.138263 -2.660695 -0.920935
9.618381 -6.020803 -1.860116
4.915146 -3.117509 -0.814415
0.003576 -0.083340 -0.002541
4.892517 -3.108100 -0.539391
4.899614 -3.113600 -0.405668
4.896713 -3.114101 -0.271445
4.875898 -3.103490 -0.136119
0.003576 -0.083340 -0.002541
0.003576 -0.083340 -0.002541
0.003576 -0.083340 -0.002541
0.003576 -0.083340 -0.002541
0.003576 -0.083340 -0.002541
0.003576 -0.083340 -0.002541
0.003576 -0.083340 -0.002541
0.003576 -0.083340 -0.002541
0.003576 -0.083340 -0.002541
0.508158 -0.398793 -0.355570
2.823329 -1.848323 -1.872038
3.008728 -1.965056 -1.888228
3.190025 -2.080078 -1.890957
3.389489 -2.206666 -1.894736
3.617347 -2.350383 -1.902348
3.854573 -2.501021 -1.902275
3.913965 -2.540153 -1.806333
4.008434 -2.600415 -1.724654
4.067595 -2.639513 -1.625282
4.115511 -2.671592 -1.519115
4.119360 -2.674953 -1.397658
4.136602 -2.687756 -1.281854
4.132358 -2.686024 -1.159418
4.153090 -2.701054 -1.045820
4.149964 -2.701039 -0.926843
7.485926 -4.763415 -1.453274
9.576750 -6.073424 -1.590602
6.586526 -4.205435 -0.910121
12.161139 -7.702009 -1.342295
0.003582 -0.083158 -0.002537
15.801555 -9.994433 -0.873785
0.003582 -0.083158 -0.002537
58.519211 -36.835442 -0.008213
58.568996 -36.894363 1.597792
58.667809 -36.984173 3.223749
58.862881 -37.120346 4.854641
58.905926 -37.175262 6.485858
59.048031 -37.292656 8.153225
59.090397 -37.332874 9.808216
0.003582 -0.083158 -0.002537
59.252808 -37.491283 13.193500
0.504871 -0.400579 -0.354542
2.811664 -1.863395 -1.871044
2.991868 -1.978330 -1.884455
3.176961 -2.097220 -1.890042
3.378730 -2.226879 -1.895574
3.613494 -2.376821 -1.907212
3.842149 -2.523927 -1.903027
3.921771 -2.576416 -1.816501
4.012918 -2.635330 -1.732846
4.072004 -2.674876 -1.632948
4.127927 -2.712456 -1.529227
4.131960 -2.715972 -1.407014
4.147637 -2.727946 -1.289941
4.145200 -2.727344 -1.167241
4.174216 -2.747854 -1.054952
4.166283 -2.744764 -0.933862
0.003559 -0.082965 -0.002530
12.001247 -7.686686 -1.999969
6.532522 -4.223895 -0.905917
12.107009 -7.765204 -1.341132
16.127216 -10.320595 -1.339611
16.275457 -10.422448 -0.903126
0.003559 -0.082965 -0.002530
10.158966 -6.543076 -0.003485
58.771233 -37.494511 1.609371
10.170578 -6.560130 0.558685
0.003559 -0.082965 -0.002530
10.198204 -6.584934 1.124596
10.217875 -6.602344 1.413556
0.003559 -0.082965 -0.002530
59.439659 -38.060608 11.579988
59.458889 -38.101212 13.288089
0.513155 -0.409766 -0.361676
2.805767 -1.882153 -1.873968
2.977965 -1.993401 -1.882563
3.171342 -2.119124 -1.893617
3.369389 -2.248031 -1.897269
3.595635 -2.394397 -1.904754
3.831146 -2.547778 -1.904551
3.924590 -2.609829 -1.824487
4.015527 -2.669360 -1.740352
4.085694 -2.716543 -1.644456
4.139991 -2.753553 -1.539338
4.149025 -2.760346 -1.418022
4.163233 -2.771512 -1.299549
4.159347 -2.769958 -1.175525
4.183457 -2.787555 -1.061172
4.177310 -2.785575 -0.939771
9.663998 -6.281167 -1.889201
9.957226 -6.471612 -1.665723
6.483513 -4.245083 -0.902408
10.003943 -6.511151 -1.112572
0.003564 -0.082783 -0.002525
0.003564 -0.082783 -0.002525
10.044329 -6.549052 -0.280718
0.003564 -0.082783 -0.002525
0.003564 -0.082783 -0.002525
0.003564 -0.082783 -0.002525
0.003564 -0.082783 -0.002525
0.003564 -0.082783 -0.002525
0.003564 -0.082783 -0.002525
0.003564 -0.082783 -0.002525
59.646046 -38.677166 11.663480
59.706085 -38.744659 13.393044
0.512709 -0.413451 -0.362690
2.793889 -1.897101 -1.872972
2.966911 -2.010288 -1.882547
3.161063 -2.138095 -1.894498
3.358400 -2.268158 -1.898109
3.583378 -2.416446 -1.905549
3.816908 -2.569570 -1.904533
3.933404 -2.647429 -1.835383
4.026874 -2.710372 -1.751964
4.094260 -2.755332 -1.654042
4.154918 -2.796966 -1.550640
4.154007 -2.798368 -1.425172
4.165486 -2.806853 -1.305102
4.171002 -2.812474 -1.183346
4.188632 -2.826040 -1.066561
4.192420 -2.830554 -0.946789
9.634803 -6.340738 -1.890461
9.949088 -6.549741 -1.670698
6.424491 -4.259349 -0.897506
9.970120 -6.570545 -1.112904
9.995187 -6.591676 -0.837272
9.995971 -6.594515 -0.559610
10.011971 -6.609775 -0.280817
10.042629 -6.634612 -0.003403
10.037209 -6.633419 0.274802
10.056904 -6.651135 0.556624
10.072853 -6.666416 0.837861
10.079897 -6.675898 1.120035
10.107290 -6.696183 1.408758
0.003541 -0.082590 -0.002519
59.863541 -39.322929 11.751518
59.908382 -39.366333 13.489117
0.506414 -0.413433 -0.359621
2.781650 -1.912469 -1.871979
2.955421 -2.027623 -1.882531
3.141377 -2.151670 -1.889995
3.343860 -2.286814 -1.897235
3.572941 -2.438827 -1.907159
3.803641 -2.592959 -1.905286
3.939869 -2.684865 -1.845550
4.025801 -2.742618 -1.758103
4.103633 -2.796077 -1.664269
4.157864 -2.833987 -1.557772
4.175176 -2.846431 -1.437835
4.173459 -2.847324 -1.312682
4.173065 -2.848047 -1.188400
4.213506 -2.876918 -1.076939
4.199473 -2.869643 -0.951956
9.600842 -6.399687 -1.891071
0.003545 -0.082411 -0.002514
6.371426 -4.278562 -0.893534
11.934703 -7.950302 -1.336905
16.106228 -10.704958 -1.352842
36.860359 -24.413870 -2.065207
0.003545 -0.082411 -0.002514
0.003545 -0.082411 -0.002514
0.003545 -0.082411 -0.002514
0.003545 -0.082411 -0.002514
0.003545 -0.082411 -0.002514
0.003545 -0.082411 -0.002514
0.003545 -0.082411 -0.002514
0.003545 -0.082411 -0.002514
60.100521 -39.974144 11.843119
0.003545 -0.082411 -0.002514
0.504509 -0.416143 -0.359615
2.775428 -1.931134 -1.874903
2.933912 -2.037531 -1.875943
3.138328 -2.175450 -1.895363
3.333017 -2.306229 -1.898075
3.557822 -2.458120 -1.906329
3.787587 -2.613555 -1.904496
3.962456 -2.731463 -1.862995
4.033847 -2.781205 -1.768346
4.112034 -2.834531 -1.673856
4.180516 -2.882444 -1.572054
4.181545 -2.885184 -1.445535
4.193329 -2.894078 -1.323810
4.200707 -2.901093 -1.200835
4.227074 -2.919803 -1.084407
4.227896 -2.922424 -0.961939
9.580761 -6.465537 -1.894277
11.801990 -7.948800 -1.996446
6.332323 -4.305010 -0.891419
11.880985 -8.013083 -1.335932
16.175919 -10.884750 -1.363815
0.003522 -0.082218 -0.002507
0.003522 -0.082218 -0.002507
59.620625 -39.976685 -0.007406
59.714092 -40.068508 1.661035
0.003522 -0.082218 -0.002507
0.003522 -0.082218 -0.002507
0.003522 -0.082218 -0.002507
0.003522 -0.082218 -0.002507
60.146778 -40.475368 10.174505
60.348900 -40.625465 11.936657
0.003522 -0.082218 -0.002507
0.512605 -0.425474 -0.366749
2.782394 -1.958080 -1.886645
2.928466 -2.058121 -1.879683
3.120675 -2.188713 -1.891757
3.320184 -2.325162 -1.898059
3.547132 -2.480394 -1.907939
3.776024 -2.637163 -1.906020
3.999580 -2.789529 -1.887714
4.040042 -2.818925 -1.777906
4.117604 -2.873539 -1.682801
4.238074 -2.957368 -1.600040
4.238512 -2.958676 -1.470880
4.251794 -2.969791 -1.347602
4.230602 -2.957479 -1.214192
4.242025 -2.967348 -1.092706
4.232087 -2.961594 -0.966734
9.559750 -6.528603 -1.897161
0.003528 -0.082036 -0.002502
6.279027 -4.320041 -0.887215
11.829962 -8.074553 -1.335145
10.281326 -7.033027 -0.870951
36.425846 -24.732822 -2.056371
33.819096 -22.976645 -0.953301
59.845535 -40.627224 -0.007241
59.929958 -40.714039 1.673735
0.003528 -0.082036 -0.002502
10.172321 -6.984262 0.856097
0.003528 -0.082036 -0.002502
0.003528 -0.082036 -0.002502
60.377930 -41.151672 10.254841
60.499123 -41.248611 12.014654
0.003528 -0.082036 -0.002502
0.497729 -0.419659 -0.357560
0.495684 -0.418508 -0.337584
2.913788 -2.073243 -1.877790
3.115163 -2.212564 -1.896230
3.312801 -2.348681 -1.901466
3.531348 -2.500133 -1.907108
3.763862 -2.661381 -1.907544
4.044913 -2.855143 -1.916799
4.057832 -2.866019 -1.792938
4.120205 -2.909841 -1.690465
4.237182 -2.992302 -1.605979
4.245141 -2.999880 -1.479131
4.246271 -3.001671 -1.351129
4.241244 -3.000324 -1.222014
4.254872 -3.010738 -1.100175
4.247833 -3.008000 -0.974124
9.560956 -6.614431 -1.905231
0.003503 -0.081846 -0.002496
6.233387 -4.344602 -0.884403
0.003503 -0.081846 -0.002496
0.003503 -0.081846 -0.002496
0.003503 -0.081846 -0.002496
0.003503 -0.081846 -0.002496
60.024723 -41.269505 -0.007065
60.080399 -41.337635 1.684962
0.003503 -0.081846 -0.002496
0.003503 -0.081846 -0.002496
0.003503 -0.081846 -0.002496
0.003503 -0.081846 -0.002496
0.003503 -0.081846 -0.002496
0.003503 -0.081846 -0.002496
0.003503 -0.081846 -0.002496
0.488753 -0.417331 -0.352451
0.486627 -0.416102 -0.332679
2.901193 -2.088255 -1.876837
3.101744 -2.228676 -1.895317
3.293762 -2.363373 -1.898027
3.528311 -2.526874 -1.912787
3.752459 -2.684237 -1.909070
4.030429 -2.879221 -1.917509
4.062314 -2.902349 -1.801816
4.159885 -2.972236 -1.713501
4.215682 -3.013152 -1.604173
4.235113 -3.027700 -1.481318
4.246859 -3.038006 -1.356682
4.252026 -3.042640 -1.229836
4.271634 -3.058452 -1.108890
4.269603 -3.059175 -0.982995
9.582825 -6.707868 -1.916875
0.003509 -0.081664 -0.002491
6.193175 -4.367780 -0.882058
11.712912 -8.195860 -1.332455
16.434748 -11.471917 -1.401763
16.505680 -11.529358 -0.940313
0.003509 -0.081664 -0.002491
0.003509 -0.081664 -0.002491
0.003509 -0.081664 -0.002491
0.003509 -0.081664 -0.002491
0.003509 -0.081664 -0.002491
0.003509 -0.081664 -0.002491
0.003509 -0.081664 -0.002491
0.003509 -0.081664 -0.002491
0.003509 -0.081664 -0.002491
0.003509 -0.081664 -0.002491
0.485402 -0.418944 -0.351424
0.481833 -0.416686 -0.330712
2.885242 -2.101655 -1.874005
3.087883 -2.245251 -1.894405
3.286476 -2.386222 -1.901433
3.512251 -2.546478 -1.911957
3.738925 -2.706626 -1.909823
4.015780 -2.903219 -1.918218
4.070118 -2.943473 -1.812744
4.160216 -3.007900 -1.720526
4.220586 -3.052535 -1.612497
4.248995 -3.074692 -1.492327
4.262992 -3.085597 -1.367304
4.269398 -3.092272 -1.239966
4.281092 -3.102697 -1.115943
0.003514 -0.081482 -0.002486
0.003514 -0.081482 -0.002486
10.059433 -7.128293 -1.728952
6.148892 -4.389439 -0.879249
11.664405 -8.261735 -1.332229
16.234715 -11.476054 -1.390399
16.372532 -11.576820 -0.936435
0.003514 -0.081482 -0.002486
0.003514 -0.081482 -0.002486
60.618183 -42.725002 1.713896
0.003514 -0.081482 -0.002486
60.799042 -42.913807 5.193587
0.003514 -0.081482 -0.002486
61.003960 -43.104057 8.722435
61.092304 -43.197327 10.501653
0.003514 -0.081482 -0.002486
0.003514 -0.081482 -0.002486
0.487579 -0.424585 -0.354477
0.481269 -0.420345 -0.331686
2.877553 -2.121584 -1.876809
3.074999 -2.263304 -1.894390
3.274636 -2.405924 -1.902274
3.496531 -2.565378 -1.911128
3.721793 -2.727462 -1.909035
3.994950 -2.922830 -1.916020
4.058152 -2.969893 -1.814777
4.152575 -3.038176 -1.724351
4.228299 -3.094292 -1.622012
4.256736 -3.116743 -1.501131
4.284985 -3.137955 -1.379950
4.286843 -3.141461 -1.250094
4.299201 -3.151349 -1.125077
4.287811 -3.145404 -0.995182
9.594946 -6.882834 -1.934971
10.139894 -7.271773 -1.749802
6.105450 -4.412950 -0.876673
11.591385 -8.313213 -1.329400
16.258354 -11.632594 -1.398026
0.003491 -0.081289 -0.002480
0.003491 -0.081289 -0.002480
0.003491 -0.081289 -0.002480
60.856197 -43.433617 1.728072
60.945904 -43.512596 3.483233
0.003491 -0.081289 -0.002480
0.003491 -0.081289 -0.002480
0.003491 -0.081289 -0.002480
61.396038 -43.942669 10.597275
61.443542 -43.991798 12.400481
0.003491 -0.081289 -0.002480
0.492634 -0.432109 -0.359571
0.486425 -0.427897 -0.336576
2.866130 -2.137398 -1.876795
3.058431 -2.277090 -1.891683
3.256829 -2.421360 -1.899693
3.480689 -2.584169 -1.910297
3.705471 -2.746893 -1.908248
3.986076 -2.950995 -1.919639
4.061306 -3.007277 -1.823655
4.157008 -3.077323 -1.733297
4.237236 -3.137360 -1.632125
4.270386 -3.163489 -1.512141
4.295577 -3.182751 -1.389052
4.299128 -3.187527 -1.258839
4.314199 -3.200648 -1.133792
4.301415 -3.193609 -1.002572
9.616184 -6.978602 -1.946939
10.054917 -7.298571 -1.742247
6.060198 -4.431654 -0.873632
11.546914 -8.378688 -1.329548
0.003495 -0.081111 -0.002475
43.315533 -31.247475 -2.493715
0.003495 -0.081111 -0.002475
0.003495 -0.081111 -0.002475
61.113037 -44.132229 1.742515
0.003495 -0.081111 -0.002475
61.274525 -44.311714 5.277739
61.435856 -44.459820 7.063924
61.491985 -44.515713 8.865139
61.604961 -44.629089 10.677593
61.652245 -44.695061 12.495970
0.003495 -0.081111 -0.002475
0.478016 -0.425714 -0.350381
0.491419 -0.435697 -0.341469
2.848162 -2.149979 -1.873024
3.043915 -2.293917 -1.890771
3.250207 -2.445735 -1.903956
3.467283 -2.605629 -1.911096
3.692587 -2.770773 -1.909773
3.973515 -2.977657 -1.921804
4.074239 -3.053248 -1.837319
4.165188 -3.120698 -1.744165
4.245223 -3.181353 -1.642235
4.289288 -3.215778 -1.525356
4.305206 -3.228502 -1.398151
4.312029 -3.235729 -1.268044
4.324021 -3.246759 -1.141259
4.316177 -3.243248 -1.010332
9.717219 -7.138497 -1.975769
10.076064 -7.404419 -1.753350
6.016645 -4.454434 -0.871057
11.491082 -8.442069 -1.328763
39.775703 -29.049383 -3.445645
42.986374 -31.398699 -2.485276
57.918144 -42.308159 -1.670180
0.003472 -0.080918 -0.002468
61.375801 -44.876507 1.757760
0.003472 -0.080918 -0.002468
61.550930 -45.068237 5.324632
61.658783 -45.179115 7.120377
61.740582 -45.254475 8.939636
0.003472 -0.080918 -0.002468
0.003472 -0.080918 -0.002468
0.003472 -0.080918 -0.002468
0.480178 -0.431307 -0.353435
0.496389 -0.443476 -0.346360
2.843334 -2.171357 -1.877705
3.028243 -2.309053 -1.888960
3.232186 -2.460963 -1.901374
3.460491 -2.630139 -1.915147
3.680041 -2.793954 -1.911299
3.956798 -3.000257 -1.921788
4.086329 -3.096939 -1.850301
4.172018 -3.162418 -1.754392
4.254969 -3.225956 -1.652943
4.301103 -3.261172 -1.535814
4.318117 -3.276030 -1.408264
4.322503 -3.280370 -1.276327
4.339300 -3.295083 -1.149975
4.333203 -3.292825 -1.018463
0.003479 -0.080732 -0.002463
10.054190 -7.474364 -1.756656
11.441794 -8.501087 -1.661635
11.437994 -8.504266 -1.328166
39.647278 -29.295393 -3.448459
42.649586 -31.530180 -2.476099
57.354172 -42.404079 -1.660747
0.003479 -0.080732 -0.002463
61.622143 -45.601589 1.772491
0.003479 -0.080732 -0.002463
61.831642 -45.804417 5.371100
0.003479 -0.080732 -0.002463
62.025703 -46.012909 9.019238
62.122829 -46.100616 10.858829
45.615448 -33.895367 9.323263
0.003479 -0.080732 -0.002463
0.480917 -0.435916 -0.355469
0.498489 -0.449247 -0.349293
2.827003 -2.184302 -1.874874
3.016832 -2.327305 -1.889845
3.219866 -2.480381 -1.902213
3.440929 -2.647118 -1.912691
3.664372 -2.814871 -1.911283
3.942931 -3.024996 -1.923226
4.089453 -3.136657 -1.859861
4.176963 -3.203180 -1.763978
4.264307 -3.270765 -1.663650
4.359083 -3.344028 -1.563362
4.383291 -3.363278 -1.435603
4.379755 -3.362942 -1.298908
4.354613 -3.346376 -1.159108
4.356501 -3.350104 -1.028444
9.800066 -7.371942 -2.009433
11.376199 -8.551013 -1.996077
5.937265 -4.501574 -0.866834
11.386165 -8.567327 -1.327755
39.487843 -29.540356 -3.449589
42.945133 -32.130852 -2.503759
0.003455 -0.080543 -0.002457
0.003455 -0.080543 -0.002457
61.868538 -46.335773 1.787411
0.003455 -0.080543 -0.002457
62.096191 -46.571575 5.418140
49.264835 -36.990314 5.737519
47.929840 -36.002323 6.998953
62.395634 -46.877712 10.955022
45.739414 -34.408924 9.390182
0.003455 -0.080543 -0.002457
0.476037 -0.436479 -0.353421
0.497677 -0.453038 -0.350266
2.811661 -2.198686 -1.872981
2.997746 -2.340629 -1.886240
3.211778 -2.503012 -1.905621
3.426119 -2.666666 -1.912675
3.646613 -2.835213 -1.910494
3.927409 -3.048540 -1.923936
4.113747 -3.191672 -1.878998
4.184617 -3.246391 -1.774846
4.282393 -3.322702 -1.677930
4.361696 -3.385106 -1.571064
4.364318 -3.388222 -1.435583
4.359270 -3.386704 -1.298430
4.375278 -3.399985 -1.169487
4.371049 -3.399112 -1.036203
9.855970 -7.504502 -2.029830
11.339951 -8.625635 -1.998266
5.922056 -4.544847 -0.868434
11.337247 -8.635639 -1.327900
39.346416 -29.788410 -3.451979
41.989368 -31.806440 -2.458861
0.003460 -0.080361 -0.002452
0.003460 -0.080361 -0.002452
62.101887 -47.086327 1.802387
0.003460 -0.080361 -0.002452
62.317543 -47.298859 5.461271
0.003460 -0.080361 -0.002452
0.003460 -0.080361 -0.002452
46.025040 -35.014179 8.115274
45.559792 -34.672794 9.392912
0.003460 -0.080361 -0.002452
0.476774 -0.441009 -0.355455
0.496965 -0.456655 -0.351238
2.801216 -2.215206 -1.873907
2.985082 -2.357102 -1.886225
3.186300 -2.512459 -1.898760
3.409729 -2.685011 -1.911846
3.634132 -2.857551 -1.912021
3.907307 -3.068609 -1.922463
4.124132 -3.236795 -1.891979
4.194923 -3.292107 -1.786995
4.319746 -3.390067 -1.699959
4.342606 -3.409931 -1.571045
4.363650 -3.427204 -1.441645
4.372576 -3.436407 -1.308095
4.392727 -3.454253 -1.179449
4.391802 -3.455907 -1.045814
10.520678 -8.097541 -2.175741
13.389624 -10.291727 -2.369372
18.500717 -14.195485 -2.720305
0.003466 -0.080178 -0.002447
39.189186 -30.024918 -3.453115
42.002254 -32.185505 -2.469926
57.542873 -44.096176 -1.687385
0.003466 -0.080178 -0.002447
0.003466 -0.080178 -0.002447
0.003466 -0.080178 -0.002447
0.003466 -0.080178 -0.002447
48.124474 -37.007351 5.654068
47.370049 -36.440754 6.978115
45.966267 -35.387890 8.140738
0.003466 -0.080178 -0.002447
0.003466 -0.080178 -0.002447
0.474641 -0.443630 -0.355449
0.501627 -0.464719 -0.356130
2.794097 -2.235879 -1.877649
2.965893 -2.370181 -1.882621
3.170423 -2.529997 -1.897890
3.406231 -2.713311 -1.918338
3.623455 -2.883356 -1.915088
3.895407 -3.096068 -1.925355
4.141560 -3.287894 -1.908380
4.196759 -3.332957 -1.795940
4.289475 -3.407198 -1.695768
4.364371 -3.466484 -1.585912
4.391095 -3.489604 -1.457330
4.397743 -3.495930 -1.321451
4.419588 -3.515300 -1.191908
4.412646 -3.512300 -1.055426
10.466732 -8.154718 -2.174407
13.329114 -10.367158 -2.369050
18.379028 -14.275520 -2.714675
0.003443 -0.079985 -0.002440
39.044724 -30.271578 -3.455506
41.612183 -32.279579 -2.458044
0.003443 -0.079985 -0.002440
0.003443 -0.079985 -0.002440
0.003443 -0.079985 -0.002440
0.003443 -0.079985 -0.002440
49.004578 -38.105717 4.332355
48.831394 -37.997826 5.762855
46.134182 -35.928314 6.827318
0.003443 -0.079985 -0.002440
45.269520 -35.292881 9.417509
0.003443 -0.079985 -0.002440
0.469825 -0.444030 -0.353401
0.493879 -0.463091 -0.352202
2.783040 -2.252795 -1.878574
2.951253 -2.385892 -1.881709
3.152004 -2.544646 -1.895308
3.389594 -2.731532 -1.917509
3.607258 -2.903944 -1.915071
3.878010 -3.118224 -1.925339
4.160014 -3.340459 -1.925465
4.210773 -3.382579 -1.810009
4.294298 -3.450484 -1.705284
4.376575 -3.516274 -1.597473
4.410951 -3.545692 -1.470482
4.422391 -3.555857 -1.334807
4.441251 -3.573127 -1.203118
4.436070 -3.571472 -1.065779
4.587288 -3.659496 -0.958191
0.003447 -0.079807 -0.002436
0.003447 -0.079807 -0.002436
34.366276 -26.961588 -4.074383
41.786598 -32.777493 -3.714457
41.361797 -32.467655 -2.454091
0.003447 -0.079807 -0.002436
0.003447 -0.079807 -0.002436
0.003447 -0.079807 -0.002436
0.003447 -0.079807 -0.002436
48.869793 -38.453255 4.340036
0.003447 -0.079807 -0.002436
44.371964 -34.969833 6.596159
43.057083 -33.947281 7.694110
45.056942 -35.545124 9.415703
0.003447 -0.079807 -0.002436
0.467711 -0.446519 -0.353394
0.497132 -0.470044 -0.356114
2.776026 -2.272943 -1.882316
2.946355 -2.409284 -1.887080
3.142015 -2.565892 -1.897860
3.371425 -2.748510 -1.915866
3.589494 -2.923286 -1.914283
3.861930 -3.141432 -1.926050
4.163246 -3.381643 -1.935707
4.218412 -3.427749 -1.821517
4.312212 -3.504626 -1.720161
4.386822 -3.565110 -1.608480
4.424246 -3.597301 -1.481607
4.432759 -3.605263 -1.344011
4.459344 -3.628879 -1.213497
4.471228 -3.640821 -1.079093
4.549571 -3.672151 -0.954603
6.406240 -5.141064 -1.149779
8.168748 -6.538824 -1.218466
8.131847 -6.514107 -0.969979
41.668251 -33.072815 -3.720609
41.586666 -33.031136 -2.478485
0.003424 -0.079614 -0.002429
0.003424 -0.079614 -0.002429
0.003424 -0.079614 -0.002429
0.003424 -0.079614 -0.002429
48.716995 -38.788086 4.346322
45.672127 -36.393829 5.439078
44.598019 -35.564381 6.660160
0.003424 -0.079614 -0.002429
42.948837 -34.287350 9.016133
0.003424 -0.079614 -0.002429
0.469603 -0.452216 -0.356447
0.493535 -0.471611 -0.355129
2.768884 -2.293087 -1.886058
2.928711 -2.422631 -1.884372
3.123419 -2.580321 -1.895277
3.356018 -2.767654 -1.915851
3.578858 -2.948309 -1.917352
3.842783 -3.162216 -1.925304
4.142735 -3.404160 -1.935006
4.225678 -3.473121 -1.833024
4.325150 -3.555485 -1.733250
4.396678 -3.614191 -1.619490
4.437078 -3.649171 -1.492732
4.448791 -3.659800 -1.355062
4.463214 -3.673900 -1.220132
4.495040 -3.702058 -1.089815
4.518043 -3.689427 -0.952314
8.181920 -6.621345 -1.474660
8.208981 -6.647554 -1.230036
8.167751 -6.619076 -0.978685
38.588074 -30.996258 -3.461424
0.003429 -0.079432 -0.002424
0.003429 -0.079432 -0.002424
0.003429 -0.079432 -0.002424
63.446411 -51.037628 1.884267
0.003429 -0.079432 -0.002424
48.488884 -39.063671 4.346053
45.901550 -37.008961 5.491780
44.879017 -36.211258 6.733222
42.624550 -34.407578 7.687140
42.771328 -34.549675 9.020482
0.003429 -0.079432 -0.002424
0.463432 -0.451457 -0.353379
0.485840 -0.469847 -0.351203
2.753373 -2.306554 -1.884168
2.911017 -2.435856 -1.881666
3.108990 -2.598044 -1.895263
3.344273 -2.790740 -1.918275
3.565140 -2.970960 -1.918876
3.830778 -3.188766 -1.928198
4.125866 -3.430814 -1.936356
4.234005 -3.519877 -1.845171
4.331742 -3.601792 -1.743956
4.406930 -3.665460 -1.631047
4.509470 -3.750194 -1.524120
4.508931 -3.752293 -1.379945
4.485779 -3.735940 -1.232172
4.508510 -3.757014 -1.098314
4.481855 -3.702731 -0.949052
8.199944 -6.715615 -1.484929
8.254424 -6.761968 -1.242535
8.187218 -6.712126 -0.985529
0.003405 -0.079242 -0.002417
66.502579 -54.031467 -3.998373
0.003405 -0.079242 -0.002417
65.003143 -52.887989 -0.004880
63.729492 -51.870586 1.901708
0.003405 -0.079242 -0.002417
0.003405 -0.079242 -0.002417
44.343178 -36.189842 5.330902
0.003405 -0.079242 -0.002417
40.341862 -32.964878 7.310473
0.003405 -0.079242 -0.002417
0.003405 -0.079242 -0.002417
0.459884 -0.452904 -0.352352
0.480802 -0.470299 -0.349235
2.752397 -2.332696 -1.892603
2.902523 -2.457394 -1.885241
3.087012 -2.610480 -1.890968
3.327228 -2.808576 -1.917447
3.542251 -2.987153 -1.915777
3.810856 -3.210026 -1.927454
4.106515 -3.454285 -1.936338
4.248642 -3.573601 -1.860519
4.343211 -3.653902 -1.757045
4.467844 -3.757793 -1.661352
4.480193 -3.770500 -1.521569
4.481745 -3.773015 -1.378083
4.500879 -3.791361 -1.242134
4.531221 -3.818976 -1.109035
4.480149 -3.745276 -0.953249
8.239778 -6.826473 -1.499098
8.288430 -6.871017 -1.253641
8.235524 -6.832312 -0.996092
0.003410 -0.079060 -0.002413
66.807007 -54.937893 -4.035917
0.003410 -0.079060 -0.002413
0.003410 -0.079060 -0.002413
64.005142 -52.727261 1.919437
0.003410 -0.079060 -0.002413
64.305244 -53.028351 5.820029
44.308407 -36.587170 5.352026
43.160458 -35.665779 6.537486
40.258991 -33.284359 7.330080
42.158859 -34.875469 8.976661
41.247807 -34.146938 10.075135
0.456410 -0.454244 -0.351326
0.477189 -0.471737 -0.348248
2.733962 -2.343777 -1.888834
2.886045 -2.471565 -1.883432
3.071004 -2.626834 -1.890098
3.298818 -2.816951 -1.910110
3.526878 -3.008449 -1.916531
3.797076 -3.235265 -1.929619
4.087042 -3.477647 -1.936320
4.250310 -3.615962 -1.870105
4.350441 -3.701845 -1.768346
4.439213 -3.777063 -1.658576
4.484126 -3.817068 -1.530160
4.491786 -3.824707 -1.387747
4.511004 -3.843325 -1.250850
4.547339 -3.876280 -1.118275
4.493940 -3.799743 -0.960689
8.287745 -6.945588 -1.514936
8.368472 -7.017287 -1.271706
8.273159 -6.942952 -1.005353
38.138584 -31.742474 -3.469714
67.144997 -55.864899 -4.075423
0.003416 -0.078878 -0.002408
0.003416 -0.078878 -0.002408
0.003416 -0.078878 -0.002408
47.170200 -39.362606 2.858642
0.003416 -0.078878 -0.002408
0.003416 -0.078878 -0.002408
0.003416 -0.078878 -0.002408
0.003416 -0.078878 -0.002408
0.003416 -0.078878 -0.002408
41.461372 -34.726204 10.175975
0.459502 -0.461077 -0.355399
0.465577 -0.466431 -0.341384
0.503871 -0.498699 -0.349825
2.876345 -2.491372 -1.886110
3.057695 -2.645421 -1.890939
3.285807 -2.838023 -1.911721
3.509977 -3.028485 -1.916516
3.778854 -3.256846 -1.929602
4.071720 -3.504517 -1.938354
4.269007 -3.673106 -1.887374
4.360173 -3.752444 -1.780839
4.439922 -3.820926 -1.666827
4.502470 -3.876289 -1.543818
4.510309 -3.884173 -1.400180
4.526620 -3.900561 -1.261227
4.567433 -3.937693 -1.128625
4.514802 -3.860821 -0.969749
0.003393 -0.078685 -0.002401
0.003393 -0.078685 -0.002401
8.317406 -7.060649 -1.015543
37.977245 -31.979063 -3.471549
0.003393 -0.078685 -0.002401
64.422760 -54.269405 -1.958743
0.003393 -0.078685 -0.002401
64.646370 -54.513073 1.957766
0.003393 -0.078685 -0.002401
45.346539 -38.300110 4.143172
42.934155 -36.291500 5.236215
0.003393 -0.078685 -0.002401
45.589851 -38.570858 8.381484
41.832653 -35.422626 8.993458
0.003393 -0.078685 -0.002401
0.450740 -0.457944 -0.350292
0.467320 -0.472279 -0.344316
0.490681 -0.492242 -0.342306
2.863772 -2.508820 -1.886993
3.042863 -2.662749 -1.890924
3.265699 -2.853115 -1.909264
3.494344 -3.049607 -1.917270
3.761930 -3.279525 -1.930312
4.051965 -3.527676 -1.938337
4.287210 -3.730591 -1.904644
4.372385 -3.805755 -1.794524
4.454871 -3.877389 -1.680591
4.524702 -3.939612 -1.558996
4.523866 -3.940182 -1.411229
4.555114 -3.969543 -1.275346
4.573535 -3.987964 -1.135642
4.535128 -3.922267 -0.978811
0.003398 -0.078503 -0.002396
8.445603 -7.246390 -1.295774
8.360582 -7.179075 -1.025734
0.003398 -0.078503 -0.002396
0.003398 -0.078503 -0.002396
64.731255 -55.167530 -1.977500
0.003398 -0.078503 -0.002396
64.989746 -55.443916 1.978001
0.003398 -0.078503 -0.002396
44.629570 -38.136719 4.097703
42.655510 -36.478153 5.227803
0.003398 -0.078503 -0.002396
42.581837 -36.452301 7.866756
39.022961 -33.434887 8.430449
41.888958 -35.909454 10.381732
0.451147 -0.462563 -0.352325
0.463713 -0.473617 -0.343329
0.482932 -0.490252 -0.338544
2.845679 -2.521550 -1.884287
3.025212 -2.677646 -1.889198
3.256134 -2.878180 -1.913317
3.482798 -3.074272 -1.920338
3.744844 -3.302112 -1.931022
4.035706 -3.555099 -1.940370
4.306310 -3.789636 -1.922553
4.378319 -3.854331 -1.805824
4.462834 -3.929905 -1.692149
4.540483 -3.998253 -1.572147
4.550959 -4.009993 -1.426888
4.580791 -4.038501 -1.289050
4.612678 -4.068815 -1.151175
4.562360 -3.990491 -0.989493
8.492862 -7.368355 -1.575254
8.496142 -7.373594 -1.309893
8.414729 -7.308614 -1.037409
0.003375 -0.078310 -0.002390
0.003375 -0.078310 -0.002390
0.003375 -0.078310 -0.002390
0.003375 -0.078310 -0.002390
65.257881 -56.323067 1.996199
0.003375 -0.078310 -0.002390
45.214317 -39.100349 4.172747
43.545216 -37.685482 5.364281
43.042862 -37.263924 6.648115
42.376015 -36.712849 7.868842
39.026077 -33.839649 8.474343
41.743103 -36.202297 10.397043
0.444943 -0.461636 -0.349256
0.457421 -0.472728 -0.340384
0.489790 -0.501005 -0.345108
2.832512 -2.539344 -1.885170
3.010217 -2.694801 -1.889184
3.234461 -2.891858 -1.910048
3.463592 -3.093441 -1.919551
3.724860 -3.322182 -1.930279
4.012814 -3.575580 -1.938985
4.317702 -3.842781 -1.937259
4.386734 -3.905621 -1.818317
4.473925 -3.984408 -1.704811
4.631461 -4.123405 -1.611636
4.671826 -4.161461 -1.472062
4.680851 -4.170706 -1.323548
4.622889 -4.122764 -1.159304
4.580806 -4.053482 -0.998552
5.354412 -4.726870 -0.998702
8.547231 -7.505727 -1.324478
8.481432 -7.453566 -1.050943
36.574203 -31.903307 -3.393182
0.003381 -0.078128 -0.002385
65.373322 -57.023071 -2.016541
0.003381 -0.078128 -0.002385
65.605965 -57.303974 2.017423
45.159653 -39.481487 2.791515
0.003381 -0.078128 -0.002385
0.003381 -0.078128 -0.002385
41.812721 -36.622974 6.490537
40.101402 -35.151112 7.483784
38.367828 -33.645889 8.372011
0.003381 -0.078128 -0.002385
0.447976 -0.468453 -0.353331
0.456499 -0.476211 -0.341355
0.499358 -0.514020 -0.353552
2.816052 -2.552540 -1.883362
2.995123 -2.711873 -1.889170
3.209989 -2.902960 -1.905151
3.450850 -3.116160 -1.921846
3.708933 -3.345808 -1.931717
3.994043 -3.599645 -1.939651
4.321558 -3.889922 -1.948766
4.397550 -3.959651 -1.832001
4.491689 -4.045516 -1.720227
4.625518 -4.165157 -1.617695
4.632230 -4.173873 -1.466970
4.643306 -4.186486 -1.319784
0.003358 -0.077935 -0.002378
4.603045 -4.117834 -1.008261
0.003358 -0.077935 -0.002378
17.376455 -15.352179 -2.703815
8.555265 -7.601822 -1.065219
0.003358 -0.077935 -0.002378
0.003358 -0.077935 -0.002378
0.003358 -0.077935 -0.002378
0.003358 -0.077935 -0.002378
0.003358 -0.077935 -0.002378
46.335632 -40.979218 2.878931
0.003358 -0.077935 -0.002378
41.026928 -36.342270 5.105235
0.003358 -0.077935 -0.002378
40.054737 -35.518761 7.513134
38.479977 -34.148510 8.440546
40.902527 -36.305607 10.291035
0.445650 -0.470897 -0.353324
0.458031 -0.482178 -0.344287
0.500715 -0.520288 -0.356362
2.814686 -2.580864 -1.892321
2.979441 -2.729362 -1.889153
3.196422 -2.923607 -1.906763
3.431427 -3.135130 -1.921060
3.690884 -3.368766 -1.932427
3.979331 -3.627362 -1.942370
4.298890 -3.915263 -1.948747
4.397257 -4.005805 -1.841515
4.579161 -4.169764 -1.762659
4.593996 -4.185839 -1.615142
4.611475 -4.202834 -1.467872
4.635632 -4.227281 -1.324339
4.661686 -4.253463 -1.181114
4.632124 -4.192037 -1.019915
0.003362 -0.077756 -0.002373
0.003362 -0.077756 -0.002373
0.003362 -0.077756 -0.002373
0.003362 -0.077756 -0.002373
0.003362 -0.077756 -0.002373
0.003362 -0.077756 -0.002373
0.003362 -0.077756 -0.002373
0.003362 -0.077756 -0.002373
0.003362 -0.077756 -0.002373
44.531311 -39.871338 4.172891
40.897816 -36.649097 5.115395
0.003362 -0.077756 -0.002373
39.965336 -35.851368 7.534969
39.881233 -35.800415 8.793097
0.003362 -0.077756 -0.002373
0.447206 -0.476697 -0.356377
0.447910 -0.477605 -0.338402
0.498168 -0.522961 -0.356356
2.802892 -2.599199 -1.894102
2.966845 -2.748679 -1.890851
3.178625 -2.940508 -1.905933
3.413789 -3.154613 -1.921045
3.676031 -3.393476 -1.934592
3.957435 -3.648718 -1.941667
4.279563 -3.942263 -1.950009
4.455309 -4.103824 -1.875455
4.552691 -4.193249 -1.761536
4.604716 -4.243152 -1.627279
4.639592 -4.276107 -1.484452
4.668216 -4.304901 -1.340536
4.692922 -4.330171 -1.195167
4.656800 -4.261947 -1.030595
5.214475 -4.764957 -0.987501
0.003339 -0.077563 -0.002367
0.003339 -0.077563 -0.002367
10.128358 -9.200396 -0.955505
0.003339 -0.077563 -0.002367
0.003339 -0.077563 -0.002367
0.003339 -0.077563 -0.002367
0.003339 -0.077563 -0.002367
45.072254 -40.809784 2.830042
66.952553 -60.604660 6.308021
0.003339 -0.077563 -0.002367
0.003339 -0.077563 -0.002367
0.003339 -0.077563 -0.002367
39.291939 -35.681755 8.708276
39.528831 -35.920803 10.050238
0.435981 -0.470949 -0.349228
0.450761 -0.484664 -0.342314
0.500798 -0.530361 -0.360103
2.780419 -2.607852 -1.888704
2.947400 -2.761832 -1.888268
3.163450 -2.959769 -1.906731
3.386468 -3.165278 -1.915631
3.652761 -3.410587 -1.932392
3.938220 -3.672487 -1.942334
4.258650 -3.967881 -1.950630
4.506713 -4.197472 -1.907010
4.516184 -4.207484 -1.756556
4.627765 -4.312484 -1.643974
4.665606 -4.348536 -1.500573
4.689980 -4.373784 -1.353824
4.720519 -4.404716 -1.208478
4.685211 -4.336267 -1.042249
11.079041 -10.155767 -2.107046
0.003344 -0.077381 -0.002362
0.003344 -0.077381 -0.002362
0.003344 -0.077381 -0.002362
0.003344 -0.077381 -0.002362
66.810806 -61.054920 -2.102982
0.003344 -0.077381 -0.002362
0.003344 -0.077381 -0.002362
0.003344 -0.077381 -0.002362
43.461079 -39.823044 4.115419
43.218502 -39.628082 5.462676
40.769775 -37.412376 6.461798
40.136776 -36.844765 7.646834
37.454269 -34.410591 8.344613
40.670368 -37.384293 10.395107
0.438792 -0.477914 -0.353304
0.444572 -0.483508 -0.339369
0.492997 -0.528252 -0.356341
2.782900 -2.639349 -1.900356
2.937247 -2.783446 -1.891678
3.141453 -2.972761 -1.903463
3.374075 -3.189507 -1.918699
3.641742 -3.438924 -1.936741
3.911965 -3.689775 -1.939581
4.236216 -3.992113 -1.950612
4.471726 -4.212743 -1.902224
4.514913 -4.254077 -1.765356
4.644496 -4.376961 -1.658644
4.693777 -4.424041 -1.517615
4.719686 -4.451029 -1.369605
4.745956 -4.478379 -1.221418
4.718728 -4.416397 -1.055200
0.003349 -0.077203 -0.002357
0.003349 -0.077203 -0.002357
8.352218 -7.772988 -1.061750
9.920075 -9.221215 -0.945667
0.003349 -0.077203 -0.002357
0.003349 -0.077203 -0.002357
0.003349 -0.077203 -0.002357
46.082802 -42.666904 1.454184
43.733917 -40.523403 2.775269
0.003349 -0.077203 -0.002357
44.248444 -41.040596 5.622766
39.250172 -36.437752 6.254023
38.479252 -35.735260 7.370013
37.542702 -34.890938 8.408931
39.946579 -37.145435 10.264520
0.438988 -0.482569 -0.355337
0.447311 -0.490601 -0.343280
0.496856 -0.536898 -0.361029
2.772012 -2.658755 -1.903032
2.925577 -2.803785 -1.894229
3.124251 -2.991125 -1.903448
3.349382 -3.202363 -1.914829
3.620993 -3.458344 -1.935998
3.900091 -3.721677 -1.944351
4.216389 -4.018796 -1.951874
4.447867 -4.238194 -1.902206
4.536385 -4.323936 -1.783529
4.680386 -4.460289 -1.680404
4.744570 -4.523459 -1.542494
4.752163 -4.533600 -1.386634
4.769947 -4.553317 -1.234360
4.748572 -4.494352 -1.067501
9.276653 -8.715395 -1.783523
8.896249 -8.363760 -1.421714
0.003326 -0.077010 -0.002350
0.003326 -0.077010 -0.002350
0.003326 -0.077010 -0.002350
44.734966 -41.858395 -1.423587
0.003326 -0.077010 -0.002350
43.433071 -40.683311 1.377927
43.410133 -40.689430 2.769629
0.003326 -0.077010 -0.002350
43.826172 -41.134415 5.600059
0.003326 -0.077010 -0.002350
39.290035 -36.921658 7.567208
0.003326 -0.077010 -0.002350
37.323956 -35.113049 9.642169
0.435304 -0.483775 -0.354309
0.439775 -0.488261 -0.339354
0.495397 -0.540839 -0.361961
2.755371 -2.673708 -1.902121
2.915122 -2.825336 -1.897639
3.110092 -3.011353 -1.905060
3.328125 -3.219421 -1.913272
3.606897 -3.484028 -1.938891
3.881798 -3.746426 -1.945702
4.189524 -4.038874 -1.949935
4.475144 -4.312078 -1.924229
4.550950 -4.386780 -1.798945
4.701443 -4.530864 -1.697099
4.755641 -4.585298 -1.554464
4.774059 -4.604271 -1.400336
4.806195 -4.637845 -1.250263
4.775461 -4.572282 -1.079477
0.003331 -0.076828 -0.002345
8.679333 -8.258039 -1.394774
8.199493 -7.810813 -1.053699
0.003331 -0.076828 -0.002345
0.003331 -0.076828 -0.002345
44.544788 -42.162846 -1.425070
0.003331 -0.076828 -0.002345
44.407322 -42.089962 1.416924
43.558868 -41.300762 2.794365
0.003331 -0.076828 -0.002345
43.392670 -41.184860 5.573997
0.003331 -0.076828 -0.002345
39.107647 -37.175438 7.573177
39.448757 -37.511360 8.932175
37.917038 -36.082127 9.848920
0.426801 -0.480059 -0.349201
0.446290 -0.498920 -0.346205
0.496616 -0.547041 -0.364770
2.740837 -2.688832 -1.902107
2.896633 -2.839350 -1.895912
3.094975 -3.029703 -1.905857
3.310522 -3.237719 -1.913255
3.583194 -3.500651 -1.936692
3.855836 -3.762620 -1.942949
4.168014 -4.064002 -1.950556
4.516887 -4.400940 -1.952806
4.567088 -4.450465 -1.814913
4.702270 -4.583068 -1.706702
4.787997 -4.666787 -1.573350
4.805819 -4.687001 -1.417366
4.840825 -4.723753 -1.266166
4.810338 -4.655813 -1.093076
0.003308 -0.076635 -0.002339
8.613449 -8.286918 -1.391496
8.144701 -7.845219 -1.052182
8.632238 -8.313134 -0.836464
0.003308 -0.076635 -0.002339
0.003308 -0.076635 -0.002339
44.690041 -42.803093 -0.002194
41.937359 -40.198380 1.345239
0.003308 -0.076635 -0.002339
0.003308 -0.076635 -0.002339
42.117512 -40.438713 5.439994
38.724476 -37.212017 6.271818
39.034466 -37.521622 7.599463
39.184380 -37.690937 8.921274
37.737637 -36.326611 9.856448
0.426942 -0.484689 -0.351235
0.442595 -0.500064 -0.345218
0.485003 -0.541102 -0.358190
2.727056 -2.705590 -1.902991
2.883303 -2.858275 -1.897610
3.079251 -3.048522 -1.906656
3.289653 -3.253950 -1.911700
3.560775 -3.518411 -1.935221
3.838621 -3.788452 -1.944984
4.149110 -4.091666 -1.952459
4.526219 -4.459865 -1.967680
4.588779 -4.521953 -1.833636
4.726264 -4.658333 -1.724916
4.820166 -4.750962 -1.592696
4.833936 -4.767509 -1.433561
4.864733 -4.800617 -1.279474
4.857819 -4.754413 -1.109916
8.712810 -8.471972 -1.702426
8.591808 -8.360939 -1.395639
8.066941 -7.859925 -1.047880
0.003312 -0.076456 -0.002334
8.662479 -8.443197 -0.563798
0.003312 -0.076456 -0.002334
30.750502 -29.815239 -0.002139
0.003312 -0.076456 -0.002334
0.003312 -0.076456 -0.002334
0.003312 -0.076456 -0.002334
0.003312 -0.076456 -0.002334
38.939381 -37.850246 6.341868
0.003312 -0.076456 -0.002334
0.003312 -0.076456 -0.002334
36.916779 -35.948376 9.695852
0.426981 -0.489410 -0.353269
0.437579 -0.500037 -0.343252
0.475906 -0.537586 -0.353488
2.713987 -2.723998 -1.904772
2.873224 -2.881420 -1.901873
3.060282 -3.065233 -1.905827
3.266810 -3.269308 -1.909371
3.529648 -3.528810 -1.929383
3.815196 -3.809606 -1.944281
4.126585 -4.117296 -1.953080
4.496067 -4.482388 -1.965873
4.599412 -4.585211 -1.848500
4.752883 -4.738919 -1.744649
4.892341 -4.877409 -1.625874
4.903741 -4.891850 -1.462648
0.003291 -0.076259 -0.002327
4.889336 -4.840767 -1.123512
0.003291 -0.076259 -0.002327
5.517486 -5.458707 -0.902032
7.977934 -7.865634 -1.042276
8.683856 -8.557959 -0.850906
0.003291 -0.076259 -0.002327
42.476864 -41.633095 -1.381531
43.326187 -42.478043 -0.001914
44.157249 -43.320724 1.432993
30.571659 -30.035276 1.993983
0.003291 -0.076259 -0.002327
0.003291 -0.076259 -0.002327
0.003291 -0.076259 -0.002327
37.872429 -37.265312 7.457475
0.003291 -0.076259 -0.002327
36.653099 -36.116676 9.682642
0.423363 -0.490445 -0.352241
0.433906 -0.501124 -0.342266
0.470726 -0.537631 -0.351603
2.707620 -2.748155 -1.911040
2.858320 -2.898964 -1.902714
3.046939 -3.086437 -1.908253
3.250997 -3.290432 -1.910896
3.505752 -3.544915 -1.927184
3.796345 -3.833933 -1.945632
4.103269 -4.140759 -1.953062
4.470647 -4.507973 -1.965853
4.615711 -4.653372 -1.865570
4.767152 -4.806868 -1.759822
4.885359 -4.925838 -1.632770
4.907850 -4.951485 -1.472189
4.940223 -4.986983 -1.314240
4.923688 -4.929595 -1.137758
5.022077 -5.028279 -0.993176
5.554300 -5.557150 -0.913143
7.914589 -7.892995 -1.039831
0.003296 -0.076077 -0.002322
0.003296 -0.076077 -0.002322
0.003296 -0.076077 -0.002322
43.135620 -42.779789 -0.001776
43.423431 -43.093891 1.417298
30.299507 -30.111931 1.987560
0.003296 -0.076077 -0.002322
0.003296 -0.076077 -0.002322
37.642864 -37.455074 6.201567
37.749245 -37.573036 7.475688
36.221813 -36.080074 8.388569
38.756863 -38.626202 10.297128
0.418523 -0.490234 -0.350194
0.435139 -0.507102 -0.345198
0.469311 -0.541376 -0.352535
2.695992 -2.767269 -1.913718
2.845884 -2.918997 -1.905267
3.027002 -3.101127 -1.906612
3.231140 -3.307563 -1.910109
3.489689 -3.568775 -1.929350
3.770687 -3.851514 -1.943563
4.079811 -4.164082 -1.953043
4.446428 -4.534761 -1.966429
4.643568 -4.734118 -1.887599
4.809485 -4.903939 -1.785633
4.916415 -5.012970 -1.652577
4.947332 -5.047400 -1.492543
4.978401 -5.082028 -1.331994
4.957144 -5.018960 -1.152003
5.015957 -5.079274 -0.997610
5.580308 -5.646358 -0.922630
7.832852 -7.901568 -1.034970
0.003300 -0.075899 -0.002318
36.568230 -36.659462 -2.413839
0.003300 -0.075899 -0.002318
0.003300 -0.075899 -0.002318
0.003300 -0.075899 -0.002318
36.863518 -37.042126 2.432732
0.003300 -0.075899 -0.002318
0.003300 -0.075899 -0.002318
37.406231 -37.649628 6.198203
0.003300 -0.075899 -0.002318
35.481129 -35.751621 8.264493
35.722095 -36.018253 9.545485
0.419760 -0.496098 -0.353247
0.427731 -0.504431 -0.341272
0.464155 -0.541360 -0.350651
2.676693 -2.778715 -1.911012
2.830741 -2.936396 -1.906108
3.012109 -3.120882 -1.908223
3.208609 -3.321949 -1.907781
3.465634 -3.584614 -1.927153
3.750226 -3.874270 -1.944230
4.057574 -4.188632 -1.953666
4.427411 -4.566856 -1.969389
4.669313 -4.813971 -1.909079
4.810121 -4.960270 -1.796248
4.947984 -5.102003 -1.672844
4.981752 -5.139747 -1.511650
5.010125 -5.172064 -1.348265
4.992536 -5.111679 -1.166897
4.980103 -5.100792 -0.996196
5.618022 -5.748741 -0.934202
7.765304 -7.923630 -1.031968
28.899981 -29.301786 -2.875744
41.514732 -42.088806 -2.755827
0.003277 -0.075706 -0.002311
43.546360 -44.189377 -0.001484
0.003277 -0.075706 -0.002311
0.003277 -0.075706 -0.002311
40.148731 -40.815815 3.998031
0.003277 -0.075706 -0.002311
37.146278 -37.820030 6.191123
36.176479 -36.846600 7.247664
38.763260 -39.502838 9.082089
35.423836 -36.130356 9.521160
0.413707 -0.494611 -0.350179
0.427701 -0.509175 -0.343225
0.461461 -0.543820 -0.350644
2.671080 -2.804081 -1.918176
2.820554 -2.958888 -1.910371
3.002939 -3.147620 -1.913902
3.193754 -3.344113 -1.910079
3.445398 -3.604286 -1.927137
3.732878 -3.901601 -1.946948
4.036491 -4.214413 -1.954928
4.400187 -4.590682 -1.968775
4.696119 -4.897840 -1.931659
4.831866 -5.038963 -1.814967
4.992733 -5.207785 -1.698183
5.049798 -5.270001 -1.541565
5.056490 -5.280425 -1.368978
5.024251 -5.202146 -1.181141
5.005647 -5.186628 -1.007307
5.657541 -5.854591 -0.946240
7.699160 -7.946605 -1.029153
29.044193 -29.797691 -2.907449
41.185883 -42.238068 -2.749921
0.003283 -0.075524 -0.002306
40.528858 -41.621727 -0.001401
0.003283 -0.075524 -0.002306
0.003283 -0.075524 -0.002306
0.003283 -0.075524 -0.002306
0.003283 -0.075524 -0.002306
0.003283 -0.075524 -0.002306
37.359169 -38.501499 7.530340
39.422775 -40.651730 9.292997
35.506157 -36.632183 9.599786
0.412423 -0.498092 -0.351193
0.426318 -0.512748 -0.344197
0.458649 -0.546332 -0.350636
0.480178 -0.568926 -0.346886
2.804679 -2.976653 -1.911213
2.986485 -3.165954 -1.914700
3.175608 -3.364105 -1.910834
3.417940 -3.617723 -1.923481
3.710831 -3.922812 -1.946932
4.010591 -4.236696 -1.954270
4.373343 -4.616470 -1.968755
4.736285 -4.995228 -1.959752
4.847956 -5.114729 -1.832166
5.004925 -5.279705 -1.712455
5.048282 -5.328382 -1.550275
5.079552 -5.364521 -1.383397
5.059659 -5.299697 -1.196682
5.031250 -5.272061 -1.018419
5.700540 -5.967797 -0.959205
7.633013 -7.971838 -1.026522
29.165239 -30.266832 -2.936784
41.594364 -43.163967 -2.794021
0.003260 -0.075331 -0.002299
40.247601 -41.810741 -0.001272
0.003260 -0.075331 -0.002299
39.833294 -41.437187 2.676538
0.003260 -0.075331 -0.002299
0.003260 -0.075331 -0.002299
41.303864 -43.036678 6.967840
38.210705 -39.832207 7.748156
35.083607 -36.603058 8.319317
0.003260 -0.075331 -0.002299
0.401638 -0.491545 -0.344045
0.421397 -0.512476 -0.342232
0.452284 -0.544935 -0.347813
0.479807 -0.574067 -0.348674
2.790435 -2.995145 -1.912910
2.972445 -3.186841 -1.917126
3.152832 -3.378110 -1.908507
3.400082 -3.639820 -1.924920
3.687341 -3.942528 -1.946231
3.991803 -4.264974 -1.956812
4.351099 -4.645496 -1.970523
4.779436 -5.097409 -1.989498
4.877553 -5.204041 -1.854431
5.016468 -5.351945 -1.726728
5.081284 -5.423805 -1.569795
5.109905 -5.457602 -1.400037
5.100461 -5.402655 -1.213518
5.086161 -5.389455 -1.035653
8.632684 -9.103570 -1.460352
7.558586 -7.985164 -1.022593
29.336941 -30.796051 -2.971695
0.003264 -0.075152 -0.002295
0.003264 -0.075152 -0.002295
71.849419 -75.446022 -0.000223
39.752918 -41.803219 1.336871
44.158321 -46.459358 2.985462
0.003264 -0.075152 -0.002295
0.003264 -0.075152 -0.002295
37.498173 -39.529472 6.363883
35.744240 -37.696270 7.291726
34.408199 -36.314522 8.208528
37.268234 -39.353691 10.199980
0.402783 -0.497394 -0.347098
0.420052 -0.515950 -0.343203
0.450769 -0.548601 -0.348744
0.491635 -0.592202 -0.359434
2.776083 -3.013578 -1.914607
2.958971 -3.209519 -1.920365
3.135022 -3.397321 -1.909261
3.380798 -3.660468 -1.925632
3.663068 -3.962739 -1.945529
3.967641 -4.287662 -1.956795
4.320819 -4.666070 -1.968717
4.793061 -5.171681 -2.007669
4.902270 -5.289615 -1.875174
5.045047 -5.445222 -1.747455
5.121795 -5.530663 -1.592226
5.155904 -5.570753 -1.421491
5.141617 -5.507691 -1.230680
5.114427 -5.482626 -1.047876
0.003241 -0.074959 -0.002288
0.003241 -0.074959 -0.002288
29.451525 -31.284058 -3.001862
0.003241 -0.074959 -0.002288
41.077709 -43.649368 -1.391254
0.003241 -0.074959 -0.002288
0.003241 -0.074959 -0.002288
0.003241 -0.074959 -0.002288
38.884308 -41.420231 3.967710
0.003241 -0.074959 -0.002288
0.003241 -0.074959 -0.002288
37.822433 -40.358997 7.764555
0.003241 -0.074959 -0.002288
0.003241 -0.074959 -0.002288
0.402634 -0.502091 -0.349133
0.413852 -0.514401 -0.340257
0.446734 -0.549768 -0.347798
0.494655 -0.601436 -0.363914
0.003246 -0.074777 -0.002283
2.942118 -3.227612 -1.921163
3.122829 -3.423742 -1.913870
3.366468 -3.686470 -1.929253
3.632940 -3.975274 -1.941407
3.943336 -4.310209 -1.956776
4.299538 -4.696237 -1.971081
4.709995 -5.141203 -1.985047
4.923546 -5.372813 -1.894905
5.063052 -5.526720 -1.764493
5.180422 -5.655024 -1.620062
5.198665 -5.678488 -1.441834
5.173991 -5.607059 -1.246218
5.163005 -5.597124 -1.064274
8.472435 -9.145271 -1.451010
8.469639 -9.148443 -1.159792
29.670259 -31.880190 -3.042627
0.003246 -0.074777 -0.002283
0.003246 -0.074777 -0.002283
45.888683 -49.350803 -0.000653
0.003246 -0.074777 -0.002283
0.003246 -0.074777 -0.002283
0.003246 -0.074777 -0.002283
0.003246 -0.074777 -0.002283
37.452759 -40.400249 6.434761
0.003246 -0.074777 -0.002283
0.003246 -0.074777 -0.002283
34.609142 -37.401222 9.589136
0.394387 -0.497804 -0.344025
0.413756 -0.519062 -0.342210
0.444077 -0.552050 -0.347791
0.491698 -0.603982 -0.363907
2.754343 -3.058199 -1.923135
2.928218 -3.247804 -1.923590
3.105354 -3.442260 -1.914626
3.339340 -3.698720 -1.925600
3.608588 -3.992507 -1.940023
3.917634 -4.331222 -1.956119
4.271600 -4.719282 -1.970466
4.671256 -5.155860 -1.980617
4.944036 -5.456430 -1.914636
5.124685 -5.655041 -1.796747
5.207749 -5.749403 -1.638750
5.246023 -5.795028 -1.464027
5.219402 -5.718236 -1.264675
5.204720 -5.704189 -1.079282
8.404214 -9.173207 -1.447965
8.404052 -9.179235 -1.157719
29.883364 -32.468788 -3.082837
0.003252 -0.074595 -0.002278
0.003252 -0.074595 -0.002278
40.646530 -44.212128 -0.000701
0.003252 -0.074595 -0.002278
40.702286 -44.332863 2.803269
38.283794 -41.716629 3.954561
40.207226 -43.838737 5.543664
35.749203 -39.012424 6.180454
39.044228 -42.615707 8.114188
0.003252 -0.074595 -0.002278
35.547813 -38.858566 9.911093
0.401230 -0.510027 -0.352179
0.413530 -0.523803 -0.344162
0.443708 -0.557003 -0.349663
0.493457 -0.611879 -0.367489
2.733477 -3.069776 -1.920553
2.904432 -3.259494 -1.920320
3.089663 -3.463959 -1.916924
3.322175 -3.721786 -1.927765
3.582790 -4.010844 -1.938638
3.898185 -4.359091 -1.958662
4.246070 -4.744971 -1.971041
4.644947 -5.187522 -1.982251
4.959804 -5.536153 -1.932847
5.116346 -5.712491 -1.805484
5.251532 -5.865487 -1.663257
5.284599 -5.905937 -1.484369
5.265413 -5.833928 -1.283782
5.262074 -5.834188 -1.098184
8.339674 -9.207980 -1.445846
7.255177 -8.025186 -1.005948
30.098125 -33.091885 -3.124991
0.003227 -0.074406 -0.002272
0.003227 -0.074406 -0.002272
0.003227 -0.074406 -0.002272
40.423904 -44.510273 1.394086
0.003227 -0.074406 -0.002272
0.003227 -0.074406 -0.002272
37.769485 -41.677113 5.241434
35.527321 -39.220116 6.181037
