# This PCD file was generated using the MATLAB® pcwrite function
# from Computer Vision Toolbox®.
# .PCD v.7 - Point Cloud Data file format
VERSION .7
FIELDS x y z
SIZE 4 4 4
TYPE F F F
COUNT 1 1 1
WIDTH 1570
HEIGHT 1
VIEWPOINT 0 0 0 1 0 0 0
POINTS 1570
DATA ascii
0.001738 -0.043078 -0.001080
0.001738 -0.043078 -0.001080
0.001738 -0.043078 -0.001080
0.001738 -0.043078 -0.001080
-15.710001 -70.924179 11.921407
-15.870862 -71.591187 13.801403
0.001720 -0.042891 -0.001074
0.001720 -0.042891 -0.001074
-0.124046 -0.604643 -0.307213
-0.135949 -0.656772 -0.317002
-0.144455 -0.693700 -0.316863
-0.150142 -0.718478 -0.309432
-0.189621 -0.892655 -0.364978
-0.209769 -0.980619 -0.376524
-1.187079 -5.309724 -1.966719
-1.283882 -5.729399 -1.971502
-1.401087 -6.237845 -1.983600
-1.530931 -6.805793 -1.990031
-1.698994 -7.535238 -2.012961
-1.885269 -8.349258 -2.020015
-2.113325 -9.338180 -2.028081
-2.404663 -10.601455 -2.042243
-2.732180 -12.274913 -2.061250
-3.207471 -14.389710 -2.068317
-3.880128 -17.368563 -2.075588
-4.504802 -20.123915 -1.922660
-6.256916 -27.908813 -2.000298
-6.915303 -30.790092 -1.473093
0.001720 -0.042891 -0.001074
-17.312590 -76.820808 -0.006845
0.001720 -0.042891 -0.001074
-13.173211 -58.276443 2.778843
0.001720 -0.042891 -0.001074
0.001720 -0.042891 -0.001074
0.001720 -0.042891 -0.001074
0.001720 -0.042891 -0.001074
-16.117371 -70.832458 11.921468
-16.294962 -71.497612 13.801835
0.001732 -0.042713 -0.001071
0.001732 -0.042713 -0.001071
-0.130046 -0.615776 -0.313781
-0.140669 -0.661022 -0.319691
-0.147809 -0.690901 -0.316002
-0.157336 -0.731644 -0.315935
-0.195753 -0.896751 -0.367286
-0.213889 -0.973766 -0.374337
-1.219476 -5.311772 -1.970131
-1.316131 -5.719887 -1.970854
-1.437150 -6.231347 -1.984185
-1.569385 -6.794807 -1.989469
-1.741626 -7.523266 -2.012443
-1.933029 -8.338080 -2.020004
-2.165882 -9.321863 -2.027236
-2.463094 -10.577702 -2.040379
-2.799407 -12.245334 -2.058964
-3.288152 -14.363116 -2.067188
-3.968563 -17.297379 -2.069768
-4.596947 -19.996592 -1.912973
-6.394207 -27.773029 -1.993149
0.001732 -0.042713 -0.001071
-13.352889 -57.759789 -1.380793
-17.752932 -76.715904 -0.006780
0.001732 -0.042713 -0.001071
0.001732 -0.042713 -0.001071
0.001732 -0.042713 -0.001071
0.001732 -0.042713 -0.001071
0.001732 -0.042713 -0.001071
-17.990898 -77.133705 11.118692
-16.530479 -70.765305 11.926064
-16.707853 -71.412086 13.803747
0.001715 -0.042526 -0.001066
0.001715 -0.042526 -0.001066
-0.136188 -0.626855 -0.320350
-0.145890 -0.666958 -0.323275
-0.150269 -0.684579 -0.313431
-0.162252 -0.734070 -0.317558
-0.201524 -0.899007 -0.368822
-0.218821 -0.970511 -0.373603
-1.250259 -5.302428 -1.969437
-1.348331 -5.710188 -1.970204
-1.469607 -6.209794 -1.980005
-1.608925 -6.783330 -1.988908
-1.783264 -7.507292 -2.010914
-1.982618 -8.328178 -2.020453
-2.220376 -9.306774 -2.026809
-2.525020 -10.560819 -2.039996
-2.866812 -12.217321 -2.057005
-3.369776 -14.329696 -2.065222
-4.058601 -17.235413 -2.065108
-4.711623 -19.969637 -1.912953
-6.529903 -27.614098 -1.984463
-7.285538 -30.780067 -1.476488
-13.734468 -57.891960 -1.385773
-18.214815 -76.642242 -0.006716
0.001715 -0.042526 -0.001066
0.001715 -0.042526 -0.001066
0.001715 -0.042526 -0.001066
0.001715 -0.042526 -0.001066
0.001715 -0.042526 -0.001066
-18.487061 -77.191177 11.142685
-16.954773 -70.688942 11.930016
0.001715 -0.042526 -0.001066
0.001698 -0.042339 -0.001061
0.001698 -0.042339 -0.001061
-0.143815 -0.643008 -0.329736
-0.148749 -0.662417 -0.321475
-0.153116 -0.679997 -0.311714
-0.166662 -0.734708 -0.318367
-0.206150 -0.895821 -0.368047
-0.224601 -0.970858 -0.374326
-1.279135 -5.289491 -1.967378
-1.381357 -5.703993 -1.970836
-1.505073 -6.201043 -1.979995
-1.647218 -6.771903 -1.988346
-1.826179 -7.496720 -2.010903
-2.032087 -8.324011 -2.022288
-2.271539 -9.292160 -2.026381
-2.581311 -10.536836 -2.038130
-2.936130 -12.188418 -2.055044
-3.447692 -14.292569 -2.062701
-4.153386 -17.181913 -2.061609
-4.827748 -19.933432 -1.912189
-6.664322 -27.477030 -1.977316
-7.502957 -30.881765 -1.483459
-14.149246 -58.149853 -1.393825
-14.173769 -58.162624 -0.005309
0.001698 -0.042339 -0.001061
0.001698 -0.042339 -0.001061
0.001698 -0.042339 -0.001061
0.001698 -0.042339 -0.001061
0.001698 -0.042339 -0.001061
-18.972015 -77.252640 11.167231
-17.357416 -70.629494 11.936233
-17.371065 -70.579292 13.680604
0.001708 -0.042164 -0.001058
0.001708 -0.042164 -0.001058
-0.146733 -0.640293 -0.328792
-0.154801 -0.671793 -0.326855
-0.160299 -0.692938 -0.318554
-0.171527 -0.737094 -0.319990
-0.208235 -0.883723 -0.363416
-0.230395 -0.971164 -0.375048
-1.308863 -5.280025 -1.966683
-1.413457 -5.693917 -1.970185
-1.539060 -6.186548 -1.978199
-1.687283 -6.767732 -1.989992
-1.868558 -7.484021 -2.010386
-2.075887 -8.296899 -2.018587
-2.325828 -9.276453 -2.025954
-2.641045 -10.511641 -2.036265
-2.999067 -12.152515 -2.051787
-3.526248 -14.258861 -2.060735
-4.241247 -17.127449 -2.057877
-4.930424 -19.873159 -1.909008
-6.801256 -27.354811 -1.971285
-7.731354 -31.066059 -1.494347
-14.558231 -58.368023 -1.400992
0.001708 -0.042164 -0.001058
-13.902021 -55.615963 1.324946
0.001708 -0.042164 -0.001058
0.001708 -0.042164 -0.001058
0.001708 -0.042164 -0.001058
0.001708 -0.042164 -0.001058
-19.452486 -77.288017 11.188441
-17.788376 -70.576889 11.945043
-17.786060 -70.516144 13.688068
0.001691 -0.041977 -0.001053
0.001691 -0.041977 -0.001053
-0.153334 -0.651198 -0.335360
-0.156316 -0.662019 -0.322363
-0.163707 -0.690035 -0.317694
-0.174644 -0.732355 -0.318356
-0.215967 -0.893007 -0.368037
-0.235914 -0.969586 -0.375042
-1.338489 -5.270408 -1.965992
-1.446441 -5.683422 -1.969537
-1.574979 -6.175277 -1.977594
-1.723556 -6.748412 -1.987225
-1.913570 -7.476388 -2.011390
-2.121884 -8.278975 -2.017191
-2.377431 -9.257052 -2.024694
-2.699256 -10.488471 -2.034770
-3.068846 -12.126684 -2.050475
-3.607465 -14.236235 -2.060441
-4.336517 -17.078732 -2.055075
-5.027672 -19.764294 -1.901365
-6.935048 -27.224190 -1.964694
-7.958104 -31.187902 -1.502434
-14.968038 -58.532356 -1.406993
0.001691 -0.041977 -0.001053
-14.558930 -56.810692 1.355541
-14.885388 -57.999725 2.785327
0.001691 -0.041977 -0.001053
0.001691 -0.041977 -0.001053
0.001691 -0.041977 -0.001053
-19.943882 -77.358788 11.215216
-18.203098 -70.509529 11.951262
-18.216618 -70.460686 13.698125
0.001675 -0.041787 -0.001047
0.001675 -0.041787 -0.001047
-0.156415 -0.648398 -0.334415
-0.159449 -0.659180 -0.321460
-0.165610 -0.681895 -0.314266
-0.177229 -0.725844 -0.315910
-0.218527 -0.882631 -0.364177
-0.243609 -0.977035 -0.378676
-1.368548 -5.262428 -1.965983
-1.478383 -5.672986 -1.968888
-1.609758 -6.164072 -1.976987
-1.763091 -6.741909 -1.988317
-1.954845 -7.459444 -2.009858
-2.168231 -8.262682 -2.016258
-2.430415 -9.243025 -2.024681
-2.758285 -10.468787 -2.034017
-3.133810 -12.091464 -2.047543
-3.686558 -14.205477 -2.059033
-4.429437 -17.034088 -2.052735
-5.125416 -19.675135 -1.895582
-7.069567 -27.100664 -1.958663
-8.160847 -31.232275 -1.506791
-15.302118 -58.437386 -1.406757
0.001675 -0.041787 -0.001047
-14.966403 -57.035263 1.362995
-11.424587 -43.487690 2.090817
-10.973892 -41.744568 3.011425
0.001675 -0.041787 -0.001047
0.001675 -0.041787 -0.001047
-20.410942 -77.328781 11.227799
-18.623177 -70.460724 11.961044
-18.819021 -71.101242 13.843659
0.001685 -0.041612 -0.001044
0.001685 -0.041612 -0.001044
-0.162167 -0.655833 -0.339107
-0.169002 -0.680506 -0.333123
-0.170686 -0.685985 -0.316829
-0.186017 -0.742236 -0.324041
-0.227675 -0.897210 -0.371110
-0.248982 -0.975429 -0.378671
-1.398983 -5.252220 -1.965289
-1.509765 -5.660544 -1.967598
-1.646426 -6.160058 -1.978767
-1.801748 -6.727449 -1.987206
-1.996452 -7.444161 -2.008836
-2.219956 -8.260771 -2.019014
-2.483345 -9.222617 -2.023423
-2.818988 -10.448280 -2.033264
-3.200031 -12.061603 -2.045581
-3.763258 -14.156411 -2.055120
-4.522468 -16.990875 -2.050629
-5.230546 -19.616282 -1.892772
-7.217902 -27.013788 -1.955426
-8.375765 -31.317791 -1.513199
-15.686400 -58.529755 -1.411081
0.001685 -0.041612 -0.001044
0.001685 -0.041612 -0.001044
-11.082295 -41.221813 1.984800
0.001685 -0.041612 -0.001044
-11.027222 -40.903873 3.944736
-11.049702 -40.958958 4.952465
-20.923843 -77.410866 11.257635
-19.058176 -70.415604 11.972451
-19.253588 -71.088394 13.862600
0.001668 -0.041425 -0.001039
0.001668 -0.041425 -0.001039
-0.165351 -0.652963 -0.338162
-0.173265 -0.681026 -0.334015
-0.178710 -0.700481 -0.324525
-0.201622 -0.783258 -0.343564
-0.230300 -0.886755 -0.367250
-0.253391 -0.970185 -0.377209
-1.429433 -5.245707 -1.965965
-1.542572 -5.653399 -1.968229
-1.682097 -6.152141 -1.979353
-1.840696 -6.718635 -1.987747
-2.039515 -7.434230 -2.009331
-2.266653 -8.245811 -2.018543
-2.532425 -9.200891 -2.021747
-2.875932 -10.428415 -2.032510
-3.262882 -12.011779 -2.040378
-3.835512 -14.101861 -2.050370
-4.617597 -16.944422 -2.048289
-5.340139 -19.561707 -1.890521
-7.347099 -26.877344 -1.948556
-8.590544 -31.375309 -1.518394
-16.071707 -58.617710 -1.415360
0.001668 -0.041425 -0.001039
-11.205938 -40.774364 0.976966
-11.611151 -42.218521 2.036098
-11.438854 -41.536278 3.005925
0.001668 -0.041425 -0.001039
0.001668 -0.041425 -0.001039
-21.405933 -77.424576 11.277454
-19.475025 -70.397438 11.987743
-19.688618 -71.072884 13.881540
0.001651 -0.041238 -0.001034
-0.126235 -0.499730 -0.268518
-0.169716 -0.655239 -0.340035
-0.176827 -0.679861 -0.334011
-0.191272 -0.730584 -0.339924
-0.215134 -0.815355 -0.359016
-0.237017 -0.892370 -0.370329
-0.260219 -0.973911 -0.379388
-1.457424 -5.233846 -1.964588
-1.574820 -5.644247 -1.968221
-1.714105 -6.131150 -1.975769
-1.874766 -6.696979 -1.984429
-2.079380 -7.412872 -2.006788
-2.311342 -8.229095 -2.017608
-2.585085 -9.185977 -2.021734
-2.931868 -10.398283 -2.029905
-3.326412 -11.981800 -2.038417
-3.910681 -14.068613 -2.048682
-4.703776 -16.889519 -2.044790
-5.418328 -19.422127 -1.879905
-7.439635 -26.632113 -1.933728
-8.798546 -31.446007 -1.524150
0.001651 -0.041238 -0.001034
-21.415277 -76.317551 -0.006295
-12.161876 -43.303795 1.039354
-11.848118 -42.131618 2.035207
-11.674397 -41.487015 3.007078
-11.617487 -41.230190 3.988808
0.001651 -0.041238 -0.001034
-21.880201 -77.456284 11.299777
-19.908339 -70.386627 12.005305
-20.113918 -71.018799 13.893446
0.001661 -0.041064 -0.001031
-0.139372 -0.535699 -0.290070
-0.171307 -0.647272 -0.336275
-0.184419 -0.692394 -0.341187
-0.200703 -0.748400 -0.349333
-0.219083 -0.812155 -0.358198
-0.242434 -0.892572 -0.371094
-0.265078 -0.970413 -0.378655
-1.486745 -5.223384 -1.963896
-1.605994 -5.631255 -1.966930
-1.748059 -6.117330 -1.974567
-1.910909 -6.678497 -1.982213
-2.122817 -7.404320 -2.007791
-2.356215 -8.208008 -2.015754
-2.635463 -9.163254 -2.020059
-2.988676 -10.371611 -2.028039
-3.391802 -11.950888 -2.036456
-3.989124 -14.038083 -2.047553
-4.789684 -16.823799 -2.040131
-5.523143 -19.367476 -1.877653
-7.585308 -26.563759 -1.931887
-9.018634 -31.532974 -1.530837
-16.884359 -58.916798 -1.427084
0.001661 -0.041064 -0.001031
0.001661 -0.041064 -0.001031
-12.020905 -41.822609 2.023615
-11.808753 -41.058563 2.980910
-11.901618 -41.327053 4.004812
-12.460282 -43.208416 5.250218
-22.361313 -77.454559 11.318206
-20.341627 -70.371239 12.022544
-20.408028 -70.509071 13.816509
0.001645 -0.040873 -0.001026
-0.147194 -0.551406 -0.299863
-0.175891 -0.649438 -0.338148
-0.187804 -0.689368 -0.340282
-0.203891 -0.743530 -0.347616
-0.224158 -0.812408 -0.359007
-0.244373 -0.880296 -0.366463
-0.270603 -0.968623 -0.378649
-1.515832 -5.208881 -1.961835
-1.639089 -5.621450 -1.966921
-1.783505 -6.104834 -1.973962
-1.950214 -6.666863 -1.982203
-2.162588 -7.378429 -2.004234
-2.404598 -8.193698 -2.015741
-2.687800 -9.141657 -2.018799
-3.049274 -10.351645 -2.027656
-3.460091 -11.922816 -2.035146
-4.074214 -14.021609 -2.048651
-4.876233 -16.751076 -2.034775
-5.650403 -19.378181 -1.881909
-7.743448 -26.521986 -1.932140
-9.214605 -31.511391 -1.532394
-17.354435 -59.229961 -1.437086
0.001645 -0.040873 -0.001026
-12.502172 -42.600204 1.025962
-12.276152 -41.777287 2.024956
-12.058350 -41.010639 2.982621
-12.034574 -40.877407 3.968091
-12.615776 -42.794487 5.208932
-22.867302 -77.481949 11.341923
-20.791002 -70.360939 12.041730
-20.802883 -70.311333 13.801765
0.001629 -0.040683 -0.001020
-0.151636 -0.555369 -0.302796
-0.178892 -0.646532 -0.337204
-0.193567 -0.694944 -0.343868
-0.210518 -0.750814 -0.351890
-0.231226 -0.819661 -0.363069
-0.249179 -0.878695 -0.366459
-0.278606 -0.975786 -0.382282
-1.545542 -5.199883 -1.961826
-1.670617 -5.609925 -1.966272
-1.817802 -6.092461 -1.973357
-1.988848 -6.657186 -1.982744
-2.204745 -7.365685 -2.004224
-2.448627 -8.170237 -2.013425
-2.738966 -9.122113 -2.017956
-3.104562 -10.320572 -2.025049
-3.523325 -11.885495 -2.032211
-4.148335 -13.976877 -2.045572
-4.964316 -16.695911 -2.031508
-5.796291 -19.461561 -1.893229
-7.873921 -26.404181 -1.926808
-9.471013 -31.710340 -1.544679
-17.789761 -59.446941 -1.444761
0.001629 -0.040683 -0.001020
-13.517304 -45.095577 1.088080
-12.916080 -43.037483 2.089750
-12.196706 -40.617519 2.959104
-12.210099 -40.610920 3.949005
-12.762836 -42.393898 5.169036
-13.019159 -43.217274 6.334038
-21.231556 -70.360931 12.062532
-21.461458 -71.033173 13.967666
0.001640 -0.040508 -0.001017
-0.157127 -0.562639 -0.307691
-0.183401 -0.648682 -0.339077
-0.197330 -0.693628 -0.343864
-0.213540 -0.745946 -0.350174
-0.235696 -0.818129 -0.363065
-0.255089 -0.880582 -0.367995
-0.282359 -0.968629 -0.380094
-1.574104 -5.187120 -1.960448
-1.703179 -5.601846 -1.966903
-1.850348 -6.074410 -1.970963
-2.025719 -6.641785 -1.981633
-2.246856 -7.352685 -2.004213
-2.493644 -8.150243 -2.012029
-2.788283 -9.096670 -2.015864
-3.159002 -10.287332 -2.022073
-3.586804 -11.849741 -2.029602
-4.220358 -13.926071 -2.041657
-5.051344 -16.638390 -2.028008
-5.953762 -19.578196 -1.907895
-8.003284 -26.285755 -1.921476
-9.672258 -31.718204 -1.547727
0.001640 -0.040508 -0.001017
0.001640 -0.040508 -0.001017
-13.686013 -44.722485 1.080992
-13.874312 -45.281063 2.202739
-12.503596 -40.786842 2.976702
-12.429165 -40.494156 3.944586
-12.994521 -42.281624 5.164433
-12.927510 -42.037937 6.171874
-21.673956 -70.361954 12.083985
-21.908220 -71.034195 13.992532
0.001622 -0.040321 -0.001012
-0.161174 -0.564864 -0.309645
-0.187427 -0.649114 -0.340011
-0.198976 -0.685460 -0.340268
-0.217069 -0.742785 -0.349313
-0.238554 -0.811330 -0.360618
-0.259371 -0.877147 -0.367219
-0.288260 -0.968571 -0.380816
-1.603670 -5.177797 -1.960440
-1.734009 -5.588151 -1.965614
-1.884446 -6.061662 -1.970359
-2.063679 -6.629827 -1.981622
-2.286547 -7.332073 -2.002177
-2.540235 -8.135582 -2.012019
-2.840330 -9.080292 -2.015852
-3.218471 -10.270680 -2.022431
-3.652310 -11.821194 -2.028292
-4.297776 -13.893826 -2.040529
-5.139631 -16.586119 -2.025207
0.001622 -0.040321 -0.001012
-8.133938 -26.174335 -1.916703
-9.898838 -31.804924 -1.554695
0.001622 -0.040321 -0.001012
0.001622 -0.040321 -0.001012
-13.827576 -44.274540 1.072096
-13.883014 -44.397648 2.163610
-12.906487 -41.252876 3.016187
-12.670537 -40.450317 3.947407
-12.897430 -41.123825 5.031896
-12.987162 -41.384525 6.086776
-13.474968 -42.885143 7.375262
-22.368671 -71.073685 14.025538
0.001633 -0.040146 -0.001009
-0.170525 -0.583677 -0.321397
-0.190402 -0.646148 -0.339067
-0.203773 -0.687516 -0.342058
-0.221107 -0.741336 -0.349308
-0.244661 -0.814974 -0.363053
-0.264758 -0.877204 -0.367984
-0.295840 -0.973818 -0.383722
-1.633760 -5.170092 -1.961117
-1.763590 -5.570676 -1.963043
-1.921961 -6.059625 -1.973329
-2.100362 -6.614001 -1.980510
-2.329034 -7.320457 -2.002673
-2.585577 -8.116940 -2.011085
-2.891084 -9.059892 -2.015008
-3.278439 -10.255562 -2.023160
-3.717035 -11.790394 -2.026656
-4.373210 -13.855465 -2.038563
-5.226922 -16.531471 -2.022171
-6.283525 -19.840195 -1.940389
-8.264162 -26.064192 -1.912070
-10.120705 -31.871033 -1.560729
0.001633 -0.040146 -0.001009
0.001633 -0.040146 -0.001009
-14.033145 -44.041695 1.068433
-13.595759 -42.619274 2.080655
-14.178674 -44.418087 3.253884
-12.849936 -40.211575 3.931292
-13.111059 -40.978783 5.023343
-13.233779 -41.337250 6.090987
-13.372621 -41.720570 7.187961
-22.818281 -71.072784 14.051144
0.001616 -0.039959 -0.001004
-0.174176 -0.584162 -0.322373
-0.194974 -0.648212 -0.340941
-0.206938 -0.684446 -0.341156
-0.226807 -0.745024 -0.351871
-0.248110 -0.809850 -0.361422
-0.270132 -0.877233 -0.368751
-0.300057 -0.968367 -0.382262
-1.664146 -5.160128 -1.961107
-1.794205 -5.556647 -1.961753
-1.955948 -6.046472 -1.972724
-2.136909 -6.593936 -1.978294
-2.369070 -7.301234 -2.001143
-2.632789 -8.099437 -2.010613
-2.942646 -9.036839 -2.013749
-3.333409 -10.218957 -2.019814
-3.783936 -11.766760 -2.026318
-4.449502 -13.812162 -2.036042
-5.314946 -16.480160 -2.019601
-6.443292 -19.945635 -1.954312
-8.403450 -25.969028 -1.908693
-10.346762 -31.945133 -1.567228
-19.543020 -60.226959 -1.474062
-18.822273 -57.938831 -0.004716
-14.208010 -43.720509 1.062638
-14.665725 -45.074291 2.204815
-13.246387 -40.668407 2.984620
-13.124822 -40.248119 3.942469
0.001616 -0.039959 -0.001004
-13.395758 -41.005665 6.053743
-13.589862 -41.550388 7.172440
-23.054420 -70.415352 13.947180
0.001598 -0.039772 -0.000998
-0.179578 -0.589553 -0.326288
-0.196385 -0.640140 -0.337179
-0.213006 -0.689803 -0.344741
-0.229181 -0.738357 -0.349298
-0.253699 -0.811682 -0.363043
-0.274525 -0.873670 -0.367974
-0.303667 -0.961115 -0.380073
-1.692387 -5.146714 -1.959730
-1.825913 -5.546045 -1.961744
-1.989877 -6.033115 -1.972118
-2.175772 -6.585002 -1.979388
-2.410192 -7.285462 -2.000626
-2.677870 -8.080280 -2.009679
-2.991540 -9.016390 -2.012906
-3.390139 -10.200014 -2.019801
-3.848441 -11.728939 -2.023708
-4.522462 -13.767334 -2.033241
-5.406680 -16.431208 -2.017494
-6.608587 -20.050629 -1.968421
-8.541799 -25.887871 -1.906293
-10.611583 -32.112572 -1.578485
-19.817186 -59.896992 -1.468702
0.001598 -0.039772 -0.000998
-15.000022 -45.242699 1.101895
-15.090061 -45.487663 2.229328
-13.234974 -39.854893 2.930433
-13.391590 -40.302593 3.955132
-13.581063 -40.824879 5.023418
-13.653662 -40.995399 6.063796
-13.817383 -41.462528 7.170533
-23.509829 -70.434258 13.977598
0.001610 -0.039594 -0.000995
-0.182098 -0.586697 -0.325303
-0.201982 -0.645542 -0.340930
-0.218348 -0.693495 -0.347428
-0.234344 -0.740269 -0.351005
-0.257562 -0.808287 -0.362224
-0.280935 -0.877188 -0.370283
-0.313129 -0.971522 -0.385161
-1.720528 -5.133148 -1.958354
-1.860574 -5.544245 -1.964938
-2.022486 -6.015955 -1.970321
-2.214628 -6.575825 -1.980481
-2.450574 -7.267631 -1.999603
-2.724699 -8.066396 -2.010130
-3.042809 -8.992750 -2.011645
-3.442067 -10.155368 -2.014972
-3.910423 -11.697753 -2.022073
-4.595027 -13.722138 -2.030441
-5.491032 -16.379904 -2.014924
-6.774079 -20.173693 -1.984201
-8.689679 -25.836241 -1.906128
-10.797918 -32.075432 -1.579576
-20.771685 -61.591068 -1.513096
0.001610 -0.039594 -0.000995
-14.529539 -43.021557 1.049707
-15.251253 -45.104736 2.214853
-13.616762 -40.229542 2.963785
-13.493016 -39.818790 3.915436
-13.607872 -40.134563 4.947995
-13.939302 -41.064152 6.085814
-14.042900 -41.321804 7.160525
-23.983292 -70.500511 14.018011
0.001593 -0.039407 -0.000990
-0.187601 -0.592014 -0.329217
-0.202723 -0.635786 -0.336229
-0.221060 -0.688618 -0.345629
-0.239669 -0.742096 -0.352711
-0.261966 -0.806608 -0.362221
-0.286507 -0.877059 -0.371048
-0.319258 -0.971222 -0.385884
-1.751635 -5.128307 -1.960397
-1.891312 -5.527558 -1.963008
-2.057865 -6.003677 -1.970312
-2.249669 -6.555528 -1.978266
-2.491489 -7.247297 -1.998071
-2.771445 -8.052248 -2.010581
-3.092965 -8.971222 -2.010803
-3.498242 -10.129652 -2.013849
-3.978158 -11.670453 -2.021410
-4.667867 -13.678433 -2.027919
-5.581325 -16.328096 -2.012586
-6.930093 -20.240376 -1.994778
-8.828148 -25.757357 -1.904010
-11.033669 -32.144833 -1.586167
-21.221935 -61.716282 -1.519184
-16.812881 -48.875828 -0.004021
-14.763769 -42.875919 1.048311
-14.548935 -42.205105 2.076530
-14.614071 -42.370068 3.127891
-13.774914 -39.894669 3.930698
-13.904340 -40.223858 4.969162
-14.138065 -40.876438 6.069992
-14.337588 -41.406136 7.189409
0.001593 -0.039407 -0.000990
0.001575 -0.039220 -0.000985
-0.193653 -0.598965 -0.334111
-0.210227 -0.646087 -0.342798
-0.224216 -0.685452 -0.344726
-0.241350 -0.733679 -0.349282
-0.267611 -0.808337 -0.363841
-0.291333 -0.875198 -0.371043
-0.327711 -0.977965 -0.389516
-1.779006 -5.112640 -1.958337
-1.921613 -5.512816 -1.961717
-2.090245 -5.986147 -1.968515
-2.285192 -6.536851 -1.976602
-2.530968 -7.227189 -1.996542
-2.813625 -8.024964 -2.007801
-3.140367 -8.942030 -2.008296
-3.550971 -10.094352 -2.010874
-4.038486 -11.628563 -2.018153
-4.740369 -13.634344 -2.025397
-5.665757 -16.269279 -2.009318
-7.061945 -20.245108 -1.999217
-8.969344 -25.687130 -1.902587
-11.192357 -32.007133 -1.582500
-21.658951 -61.828888 -1.524947
-14.874566 -42.451996 -0.003590
-14.854845 -42.348679 1.037514
-14.757410 -42.024414 2.071823
-14.084070 -40.086823 2.965114
-14.032311 -39.895378 3.938717
-14.840508 -42.143925 5.217173
-15.207994 -43.162613 6.422827
-14.543043 -41.231609 7.173563
-25.230785 -71.421638 14.259130
0.001586 -0.039045 -0.000982
-0.197467 -0.599291 -0.335086
-0.211341 -0.638026 -0.339038
-0.228536 -0.685646 -0.345618
-0.247146 -0.737205 -0.351846
-0.271554 -0.804822 -0.363023
-0.294888 -0.869848 -0.369496
-0.336237 -0.984646 -0.393149
-1.807797 -5.098274 -1.956959
-1.953695 -5.503273 -1.962349
-2.128261 -5.984629 -1.972082
-2.323684 -6.522995 -1.976591
-2.569648 -7.205042 -1.994506
-2.862198 -8.011634 -2.008714
-3.193751 -8.924910 -2.008699
-3.607860 -10.065536 -2.009377
-4.103095 -11.599375 -2.017166
-4.816189 -13.592770 -2.023434
-5.755667 -16.226885 -2.008141
-7.127923 -20.063278 -1.985255
-9.112438 -25.608921 -1.900748
-11.490786 -32.263817 -1.598420
-15.100780 -42.339764 -1.046363
-15.126978 -42.366684 -0.003550
-17.543247 -49.100323 1.205741
-16.097574 -45.008343 2.223724
-15.765644 -44.033001 3.264301
-15.582969 -43.475731 4.301740
-15.589826 -43.471142 5.392747
-14.404287 -40.124794 5.982982
-14.924505 -41.527065 7.240374
-25.730068 -71.522949 14.308796
0.001568 -0.038859 -0.000977
-0.197226 -0.588084 -0.329202
-0.215501 -0.638232 -0.339971
-0.230532 -0.679050 -0.342921
-0.251921 -0.737227 -0.352695
-0.278573 -0.809885 -0.366273
-0.301714 -0.873095 -0.371804
-0.338007 -0.971949 -0.388779
-1.837106 -5.085515 -1.956266
-1.984104 -5.486067 -1.960419
-2.164125 -5.973515 -1.972668
-2.361387 -6.507128 -1.976031
-2.609434 -7.182223 -1.992468
-2.907391 -7.988860 -2.007319
-3.244319 -8.900136 -2.007440
-3.663812 -10.034576 -2.007514
-4.165493 -11.557965 -2.014233
-4.888324 -13.541456 -2.020077
-5.844719 -16.173632 -2.005803
-7.236273 -19.992420 -1.982446
-9.244060 -25.499897 -1.896672
-11.735421 -32.343323 -1.605759
0.001568 -0.038859 -0.000977
0.001568 -0.038859 -0.000977
0.001568 -0.038859 -0.000977
-15.449244 -42.404427 2.099445
-15.561440 -42.666080 3.169688
-15.468210 -42.364960 4.200775
-14.618189 -40.017780 4.974614
-14.586407 -39.887894 5.960482
-15.458012 -42.223400 7.377843
-26.239111 -71.603394 14.355874
0.001553 -0.038668 -0.000971
-0.202724 -0.593316 -0.333115
-0.218855 -0.636822 -0.339966
-0.235344 -0.680912 -0.344711
-0.255819 -0.735614 -0.352690
-0.281479 -0.804743 -0.364640
-0.307649 -0.874662 -0.373340
-0.347097 -0.980334 -0.393139
-1.865004 -5.077085 -1.956941
-2.015108 -5.476503 -1.961051
-2.195185 -5.955796 -1.970872
-2.396987 -6.495876 -1.976572
-2.648557 -7.165555 -1.991951
-2.946907 -7.963727 -2.005002
-3.290801 -8.878613 -2.006595
-3.715029 -10.007069 -2.006019
-4.226940 -11.526957 -2.012922
-4.957779 -13.505367 -2.018669
-5.932546 -16.135002 -2.005089
-7.317798 -19.871225 -1.974431
-9.369003 -25.415718 -1.894135
-11.952102 -32.376495 -1.610671
-22.970797 -62.118679 -1.541490
-21.281597 -57.523212 -0.004383
0.001553 -0.038668 -0.000971
-16.373241 -44.171768 2.191607
-16.190725 -43.656693 3.249883
-14.934951 -40.231026 3.996945
-14.882449 -40.047157 4.988582
-14.985196 -40.302071 6.034527
-26.409330 -70.918648 12.422017
-26.454351 -70.964081 14.257094
0.001565 -0.038490 -0.000968
-0.205899 -0.591955 -0.333111
-0.222288 -0.635364 -0.339961
-0.240921 -0.684380 -0.347399
-0.261096 -0.737329 -0.354397
-0.286670 -0.804578 -0.365448
-0.312458 -0.872689 -0.373335
-0.350557 -0.972893 -0.390950
-1.892833 -5.060486 -1.954881
-2.045012 -5.461090 -1.959762
-2.227858 -5.939301 -1.969669
-2.432481 -6.474183 -1.974357
-2.689512 -7.150013 -1.991940
-2.991058 -7.938658 -2.003146
-3.340354 -8.851449 -2.004920
-3.771920 -9.979190 -2.004896
-4.291555 -11.498570 -2.012259
-5.034706 -13.468146 -2.017540
-6.014548 -16.072531 -2.001591
-7.410720 -19.772703 -1.968834
-9.522738 -25.368898 -1.894807
-12.198367 -32.467850 -1.618663
-23.181570 -61.598030 -1.531802
0.001565 -0.038490 -0.000968
-17.729361 -47.046200 1.162711
-16.659969 -44.164520 2.196023
-15.236277 -40.351688 3.010288
-15.303199 -40.486206 4.031331
-15.160092 -40.087059 5.004407
-15.286002 -40.377193 6.059330
-26.928246 -71.022751 12.468104
-26.954536 -71.054977 14.306391
0.001547 -0.038303 -0.000963
-0.209182 -0.590535 -0.333106
-0.226477 -0.635486 -0.340894
-0.242203 -0.676068 -0.343804
-0.262525 -0.728873 -0.350969
-0.290426 -0.801017 -0.364630
-0.316752 -0.868902 -0.372558
-0.360589 -0.982852 -0.396039
-1.921688 -5.049326 -1.954872
-2.076184 -5.449045 -1.959752
-2.261053 -5.924430 -1.969066
-2.468091 -6.456303 -1.973244
-2.728279 -7.128823 -1.990410
-3.031567 -7.908415 -1.999906
-3.388733 -8.830679 -2.004494
-3.823075 -9.946800 -2.002660
-4.349540 -11.446939 -2.007705
-5.104116 -13.418419 -2.014460
-6.098137 -16.006721 -1.997859
-7.509050 -19.679892 -1.963979
-8.912571 -23.338322 -1.746785
-12.442469 -32.531010 -1.625441
0.001547 -0.038303 -0.000963
0.001547 -0.038303 -0.000963
-18.927881 -49.336826 1.222222
0.001547 -0.038303 -0.000963
-15.399846 -40.086288 2.997083
-15.346175 -39.926117 3.984021
-15.440876 -40.130615 5.020931
0.001547 -0.038303 -0.000963
-27.425230 -71.134590 12.514518
-27.841846 -72.139839 14.557078
0.001530 -0.038116 -0.000958
-0.214159 -0.594045 -0.336041
-0.229158 -0.632384 -0.339951
-0.245762 -0.674517 -0.343799
-0.270433 -0.737268 -0.356099
-0.296149 -0.802544 -0.366251
-0.323387 -0.872096 -0.374867
-0.366029 -0.980566 -0.396033
0.001530 -0.038116 -0.000958
-2.101069 -5.420938 -1.953980
-2.291401 -5.902244 -1.966077
-2.502165 -6.434649 -1.971029
-2.765496 -7.103813 -1.987867
-3.070371 -7.874363 -1.995745
-3.440068 -8.808433 -2.004066
-3.876700 -9.910978 -2.000054
-4.410252 -11.414950 -2.006393
-5.173806 -13.370193 -2.011661
-6.180603 -15.955620 -1.995754
-7.591026 -19.567003 -1.956896
-9.078261 -23.368298 -1.752904
-12.668417 -32.576351 -1.631193
-12.777246 -32.822121 -0.819764
-22.381895 -57.403896 -0.004244
-17.207253 -44.119450 1.095176
-16.641359 -42.626110 2.128914
-16.911318 -43.272579 3.242894
-15.593852 -39.863964 3.987028
-15.768994 -40.290665 5.052313
0.001530 -0.038116 -0.000958
-27.970058 -71.286613 12.570332
-28.355175 -72.230804 14.608228
0.001540 -0.037941 -0.000955
-0.216193 -0.589323 -0.334075
-0.235282 -0.637390 -0.343702
-0.252167 -0.679504 -0.347384
-0.273254 -0.732097 -0.354382
-0.301890 -0.804038 -0.367873
-0.329679 -0.873410 -0.376404
-0.377789 -0.993776 -0.402577
-1.975744 -5.017779 -1.951435
-2.135714 -5.415258 -1.956534
-2.325421 -5.886594 -1.965471
-2.537478 -6.416400 -1.969917
-2.803722 -7.078137 -1.985325
-3.113246 -7.850956 -1.994350
-3.486095 -8.777412 -2.001559
-3.935588 -9.893813 -2.001154
-4.470361 -11.370066 -2.003135
-5.245298 -13.327140 -2.009697
-6.267529 -15.900048 -1.993415
-7.684659 -19.465931 -1.951298
-9.254872 -23.423109 -1.760979
-12.924293 -32.660259 -1.639183
-13.034696 -32.905476 -0.823732
-22.743881 -57.355843 -0.004198
-17.378857 -43.791672 1.089614
-16.935497 -42.632378 2.134258
-15.927289 -40.076694 3.009983
-15.687081 -39.433014 3.952901
-16.269855 -40.855080 5.135247
0.001540 -0.037941 -0.000955
-28.496414 -71.417641 12.622255
-28.673767 -71.789375 14.553135
0.001523 -0.037754 -0.000950
-0.219365 -0.587880 -0.334070
-0.237408 -0.632560 -0.341820
-0.249852 -0.662931 -0.339302
-0.277248 -0.730320 -0.354377
-0.305614 -0.800403 -0.367055
-0.332418 -0.866171 -0.374086
-0.383288 -0.991397 -0.402571
-2.002934 -5.002665 -1.950059
-2.164476 -5.397425 -1.954604
-2.359022 -5.872938 -1.965462
-2.577025 -6.408631 -1.972112
-2.842734 -7.058112 -1.984300
-3.158131 -7.832733 -1.994339
-3.538519 -8.762464 -2.002795
-3.992962 -9.872644 -2.001511
-4.531031 -11.333002 -2.001177
-5.317214 -13.285538 -2.008011
-6.355671 -15.856188 -1.992471
-7.779159 -19.378742 -1.947003
-9.413789 -23.430389 -1.765563
-12.896671 -32.051517 -1.612290
-13.284807 -32.981846 -0.827518
-23.108318 -57.311073 -0.004151
-17.550058 -43.492443 1.084698
-17.525385 -43.387951 2.177199
-16.197672 -40.084118 3.017547
-16.041183 -39.657589 3.984688
-16.434917 -40.589432 5.113689
0.001523 -0.037754 -0.000950
-29.034864 -71.568733 12.678395
-29.125126 -71.719597 14.572816
-0.160868 -0.435780 -0.256014
-0.223844 -0.589646 -0.336025
-0.238846 -0.626082 -0.338997
-0.255496 -0.666247 -0.341988
-0.279850 -0.725183 -0.352661
-0.310692 -0.800134 -0.367864
-0.337897 -0.865758 -0.374851
-0.394427 -1.002774 -0.408387
-2.036480 -5.003032 -1.954838
-2.201055 -5.398711 -1.959716
-2.398370 -5.873203 -1.970218
-2.620924 -6.411303 -1.977617
-2.886017 -7.048611 -1.986316
-3.205864 -7.821455 -1.996174
-3.584156 -8.730937 -2.000288
-4.041948 -9.831165 -1.997796
-4.586987 -11.284634 -1.997271
-5.385848 -13.236206 -2.005211
-6.441281 -15.806315 -1.990829
-7.873682 -19.292944 -1.942893
-9.530048 -23.331352 -1.762188
-13.140398 -32.122677 -1.619628
-13.544603 -33.076756 -0.831812
-23.454000 -57.217758 -0.004102
-19.610245 -47.800087 1.195163
-17.703777 -43.114399 2.168584
-16.297956 -39.674583 2.993745
-16.289234 -39.614212 3.989739
-16.733692 -40.653843 5.133928
0.001507 -0.037564 -0.000944
-29.569206 -71.699570 12.731618
-29.664438 -71.859543 14.635816
-0.172399 -0.456897 -0.270292
-0.224340 -0.581721 -0.332102
-0.245595 -0.632672 -0.343688
-0.261846 -0.671184 -0.345574
-0.286590 -0.730044 -0.356079
-0.314364 -0.796459 -0.367046
-0.344796 -0.868714 -0.377158
-0.403572 -1.008891 -0.412019
-2.065006 -4.991049 -1.954829
-2.231837 -5.385783 -1.959709
-2.434817 -5.866181 -1.972594
-2.657545 -6.395933 -1.977607
-2.925523 -7.029933 -1.985801
-3.246083 -7.791926 -1.993395
-3.631848 -8.704569 -1.999028
-4.095924 -9.802134 -1.996672
-4.646317 -11.245110 -1.994986
-5.453308 -13.184709 -2.002133
-6.525005 -15.752310 -1.988723
-7.973593 -19.221409 -1.940270
-9.604869 -23.134125 -1.751414
-13.378448 -32.175495 -1.626126
-13.808975 -33.177158 -0.836294
-20.766932 -49.849205 -0.003657
-20.199568 -48.441017 1.214152
-17.817209 -42.690929 2.152430
-16.928793 -40.544598 3.066834
-16.757891 -40.096527 4.048080
0.001518 -0.037389 -0.000941
0.001518 -0.037389 -0.000941
-30.109802 -71.835732 12.786459
-30.226078 -72.042755 14.708437
-0.180133 -0.468399 -0.278451
-0.230178 -0.586661 -0.336017
-0.246988 -0.626164 -0.340865
-0.264815 -0.667821 -0.344670
-0.289892 -0.726521 -0.355217
-0.319590 -0.796070 -0.367853
-0.349577 -0.866527 -0.377153
-0.416437 -1.023515 -0.419289
-2.096523 -4.983730 -1.956874
-2.262569 -5.372667 -1.959700
-2.472038 -5.860675 -1.975564
-2.696699 -6.383418 -1.978700
-2.958882 -6.996778 -1.981231
-3.285890 -7.758037 -1.989694
-3.677768 -8.670112 -1.996105
-4.149876 -9.768457 -1.994807
-4.706861 -11.208926 -1.993351
-5.521902 -13.130068 -1.998775
-6.606787 -15.694201 -1.986153
-8.072160 -19.147535 -1.937462
-9.686368 -22.946157 -1.741479
-13.629984 -32.256081 -1.634117
-14.065603 -33.253513 -0.840218
-24.180159 -57.081409 -0.004007
-20.015423 -47.234135 1.186773
-18.154337 -42.804569 2.163451
-17.254349 -40.645367 3.082207
-17.469643 -41.112316 4.161200
0.001500 -0.037202 -0.000936
0.001500 -0.037202 -0.000936
-30.621405 -71.859184 12.822828
-31.156353 -73.078789 14.956539
-0.194904 -0.495587 -0.296809
-0.232758 -0.583487 -0.335031
-0.249079 -0.621258 -0.338982
-0.267832 -0.664415 -0.343769
-0.293847 -0.724657 -0.355212
-0.326113 -0.799066 -0.370289
-0.356678 -0.869336 -0.379461
-0.423574 -1.024335 -0.420739
-2.123453 -4.967950 -1.955497
-2.296225 -5.366336 -1.962252
-2.500217 -5.833897 -1.971383
-2.730107 -6.360557 -1.976485
-2.995037 -6.970574 -1.978688
-3.328701 -7.735250 -1.988761
-3.718091 -8.631327 -1.991935
-4.201740 -9.739562 -1.993683
-4.768312 -11.169769 -1.991392
-5.590856 -13.083349 -1.996534
-6.693201 -15.639975 -1.984278
-8.176625 -19.079048 -1.935397
-9.810879 -22.873383 -1.740198
-13.886176 -32.326889 -1.641827
-14.340974 -33.368397 -0.845163
-24.546553 -57.031239 -0.003962
-20.715071 -48.089481 1.211415
-18.483065 -42.891888 2.173263
-21.222681 -49.196438 3.740706
-21.339470 -49.443478 5.017438
0.001483 -0.037015 -0.000931
0.001483 -0.037015 -0.000931
-31.139843 -71.960579 12.871837
0.001483 -0.037015 -0.000931
-0.191295 -0.480102 -0.287622
-0.235806 -0.581990 -0.335027
-0.254445 -0.624530 -0.341795
-0.275637 -0.672542 -0.349147
-0.300698 -0.729390 -0.358630
-0.331844 -0.800386 -0.371910
-0.362783 -0.870532 -0.380999
-0.429992 -1.023403 -0.421462
-2.153934 -4.962729 -1.958225
-2.339002 -5.380622 -1.972489
-2.535805 -5.824484 -1.973162
-2.759163 -6.330956 -1.972064
-3.033319 -6.949500 -1.977664
-3.359828 -7.689658 -1.981833
-3.764312 -8.602445 -1.990259
-4.253525 -9.706051 -1.991818
-4.827968 -11.137386 -1.990405
-5.657997 -13.039069 -1.994569
-6.772956 -15.585836 -1.982173
-8.272333 -19.009241 -1.932961
-9.906152 -22.744986 -1.734592
-14.126806 -32.387897 -1.648883
0.001493 -0.036840 -0.000928
-24.898457 -56.972076 -0.003915
0.001493 -0.036840 -0.000928
-20.957401 -47.869930 2.431947
-21.694319 -49.528473 3.775186
0.001493 -0.036840 -0.000928
0.001493 -0.036840 -0.000928
0.001493 -0.036840 -0.000928
-31.695173 -72.103485 12.929923
-32.021286 -72.776367 14.969254
-0.210519 -0.516572 -0.312104
-0.237530 -0.577247 -0.333062
-0.257821 -0.622868 -0.341790
-0.276383 -0.664225 -0.345554
-0.302474 -0.722503 -0.356059
-0.333269 -0.791593 -0.368651
-0.369074 -0.871617 -0.382536
-2.036815 -4.624982 -1.961713
-2.188340 -4.963809 -1.963690
-2.367412 -5.361689 -1.970557
-2.569843 -5.811353 -1.973748
-2.792970 -6.309526 -1.970400
-3.068294 -6.921150 -1.974615
-3.399820 -7.661137 -1.979517
-3.811924 -8.576894 -1.989416
-4.304245 -9.670481 -1.989584
-4.884544 -11.093005 -1.987473
-5.719078 -12.975329 -1.989820
-6.856642 -15.533722 -1.980532
-8.370826 -18.937496 -1.930525
-9.996980 -22.598074 -1.727728
0.001476 -0.036654 -0.000922
0.001476 -0.036654 -0.000922
-25.272564 -56.933769 -0.003870
0.001476 -0.036654 -0.000922
-21.313349 -47.930954 2.441296
-21.548470 -48.436710 3.701338
0.001476 -0.036654 -0.000922
0.001476 -0.036654 -0.000922
0.001476 -0.036654 -0.000922
-32.270885 -72.282013 12.995140
-32.494431 -72.714622 14.994864
-0.204208 -0.494722 -0.298836
-0.240757 -0.575625 -0.333056
-0.260592 -0.619517 -0.340845
-0.280111 -0.662378 -0.345548
-0.306536 -0.720504 -0.356054
-0.340735 -0.796079 -0.371901
-0.372512 -0.865851 -0.380988
-2.066267 -4.617736 -1.963888
-2.220607 -4.957411 -1.966417
-2.416852 -5.387095 -1.985277
-2.602445 -5.792350 -1.972547
-2.831660 -6.296186 -1.971494
-3.103446 -6.890322 -1.971058
-3.436928 -7.622931 -1.974892
-3.808324 -8.434598 -1.961537
-4.362885 -9.648192 -1.990312
-4.941086 -11.043872 -1.983891
-5.789138 -12.926575 -1.987578
-6.934491 -15.461832 -1.976570
-8.476963 -18.874657 -1.929203
-10.047758 -22.354507 -1.713604
0.001462 -0.036460 -0.000917
0.001462 -0.036460 -0.000917
0.001462 -0.036460 -0.000917
-22.851421 -50.625275 1.285302
-21.162159 -46.842468 2.392198
-20.658165 -45.706718 3.501874
0.001462 -0.036460 -0.000917
0.001462 -0.036460 -0.000917
0.001462 -0.036460 -0.000917
-32.865566 -72.457741 13.061654
0.001462 -0.036460 -0.000917
-0.211140 -0.502734 -0.304952
-0.246750 -0.580388 -0.336971
-0.263952 -0.617817 -0.340840
-0.284461 -0.662188 -0.346440
-0.309732 -0.716891 -0.355192
-0.344342 -0.792255 -0.371083
-0.380348 -0.870217 -0.384067
-2.090265 -4.600502 -1.961697
-2.250430 -4.947790 -1.967778
-2.444445 -5.366024 -1.982706
-2.631526 -5.768426 -1.969559
-2.862004 -6.267379 -1.967625
-3.084601 -6.745614 -1.934574
-3.162409 -6.911605 -1.794550
-3.529995 -7.703412 -1.795578
-4.418927 -9.624535 -1.990670
-5.001856 -11.009696 -1.982905
-5.853322 -12.871255 -1.984221
-7.016514 -15.407044 -1.974695
-8.584329 -18.823597 -1.928997
-10.248947 -22.455843 -1.725867
-14.910388 -32.621284 -1.673690
-19.454414 -42.511780 -1.087742
0.001472 -0.036285 -0.000914
-21.847372 -47.670414 1.213396
-21.328468 -46.496475 2.380793
-20.859657 -45.454620 3.491737
0.001472 -0.036285 -0.000914
0.001472 -0.036285 -0.000914
0.001472 -0.036285 -0.000914
-33.452450 -72.638390 13.128817
-33.873352 -73.484612 15.234522
-0.223915 -0.523185 -0.319232
-0.249878 -0.578769 -0.336966
-0.268037 -0.617701 -0.341774
-0.289572 -0.663592 -0.348230
-0.316682 -0.721471 -0.358611
-0.351005 -0.795039 -0.373518
-0.385169 -0.867816 -0.384060
-2.113322 -4.581470 -1.958779
-2.274699 -4.926051 -1.964347
-2.472646 -5.346541 -1.980778
-2.661211 -5.746092 -1.967167
-2.889673 -6.233204 -1.962102
-2.934863 -6.324368 -1.818048
-3.192844 -6.873718 -1.789466
-3.563275 -7.659752 -1.790160
-3.977454 -8.537843 -1.769904
-5.060754 -10.971599 -1.981269
-5.921223 -12.824608 -1.982257
-7.091432 -15.337412 -1.970966
-8.677978 -18.743027 -1.925818
-10.469271 -22.593597 -1.741061
-15.150561 -32.648956 -1.679535
-19.759922 -42.531349 -1.091098
-23.025721 -49.531734 -0.003369
-22.208729 -47.732304 1.218258
-21.409611 -45.974487 2.360358
-21.808533 -46.809219 3.605549
0.001455 -0.036098 -0.000909
0.001455 -0.036098 -0.000909
0.001455 -0.036098 -0.000909
-34.042519 -72.814667 13.195980
-34.280186 -73.256355 15.227922
-0.223793 -0.515471 -0.315146
-0.252999 -0.577136 -0.336961
-0.273639 -0.620753 -0.344587
-0.292421 -0.660107 -0.347328
-0.317559 -0.712900 -0.355182
-0.352247 -0.786210 -0.370259
-0.390734 -0.867065 -0.384826
-2.143429 -4.577464 -1.962408
-2.299579 -4.905899 -1.961602
-2.520167 -5.368012 -1.994215
-2.695657 -5.733950 -1.968349
-2.859448 -6.077288 -1.917983
-2.919608 -6.198796 -1.786630
-3.219606 -6.828682 -1.782538
-3.607054 -7.638948 -1.790150
0.001465 -0.035923 -0.000906
-5.115171 -10.924266 -1.978012
-5.984557 -12.768649 -1.978902
-7.174242 -15.285403 -1.969556
-8.781175 -18.683617 -1.924869
-10.690669 -22.727749 -1.756115
-15.340438 -32.566513 -1.679782
-20.117508 -42.657295 -1.097244
0.001465 -0.035923 -0.000906
-22.868027 -48.418869 1.239199
-21.908415 -46.347038 2.385998
-22.003757 -46.527752 3.593601
0.001465 -0.035923 -0.000906
0.001465 -0.035923 -0.000906
0.001465 -0.035923 -0.000906
-34.634045 -72.982948 13.262498
-34.876148 -73.427048 15.304991
-0.234725 -0.531053 -0.326363
-0.254627 -0.572326 -0.334996
-0.274712 -0.614203 -0.341765
-0.295233 -0.656617 -0.346426
-0.322218 -0.712506 -0.356034
-0.357492 -0.785562 -0.371067
-0.397888 -0.869617 -0.387135
-2.159859 -4.544711 -1.953669
-2.323515 -4.881837 -1.957490
-2.556534 -5.365200 -1.998688
-2.737489 -5.737089 -1.974893
0.001448 -0.035736 -0.000901
-2.950826 -6.172991 -1.784087
-3.263180 -6.816309 -1.784373
-3.654618 -7.622530 -1.791386
-4.055967 -8.447956 -1.760992
-5.175152 -10.889136 -1.977027
-6.047108 -12.705964 -1.974710
-7.249842 -15.218610 -1.966291
-8.879694 -18.614651 -1.922990
-10.930021 -22.883371 -1.773121
-15.414265 -32.241512 -1.667536
-20.477179 -42.780548 -1.103391
0.001448 -0.035736 -0.000901
-23.393217 -48.801960 1.252493
-21.931381 -45.714008 2.359884
-22.564053 -46.989784 3.639655
0.001448 -0.035736 -0.000901
0.001448 -0.035736 -0.000901
0.001448 -0.035736 -0.000901
-35.249916 -73.158478 13.332256
0.001448 -0.035736 -0.000901
-0.231649 -0.517084 -0.318197
-0.259326 -0.573758 -0.336951
-0.278146 -0.612369 -0.341760
-0.299685 -0.656277 -0.347319
-0.328501 -0.715320 -0.358594
-0.363396 -0.786592 -0.372689
-0.406877 -0.875346 -0.390984
-2.186559 -4.533711 -1.954389
-2.350525 -4.866520 -1.956798
-2.602080 -5.380880 -2.010206
-2.755163 -5.690179 -1.964160
-2.721578 -5.616344 -1.781779
0.001430 -0.035549 -0.000895
-3.291027 -6.774506 -1.778367
-3.686552 -7.580757 -1.786385
-4.089868 -8.398536 -1.755425
-5.243693 -10.866967 -1.978634
-6.116414 -12.663668 -1.973582
-7.328397 -15.151970 -1.963259
-8.977460 -18.536438 -1.920368
-11.498680 -23.720919 -1.843177
-15.487808 -31.908640 -1.655009
-20.831070 -42.884861 -1.109118
0.001430 -0.035549 -0.000895
-24.010082 -49.336403 1.269914
-22.428232 -46.068264 2.384871
-22.848581 -46.889530 3.642069
0.001430 -0.035549 -0.000895
0.001430 -0.035549 -0.000895
0.001430 -0.035549 -0.000895
0.001430 -0.035549 -0.000895
0.001430 -0.035549 -0.000895
-0.237382 -0.521765 -0.322272
-0.260773 -0.568990 -0.334988
-0.282142 -0.612205 -0.342694
-0.306324 -0.660811 -0.350903
-0.328408 -0.705126 -0.354312
-0.366919 -0.782654 -0.371870
-0.414004 -0.877839 -0.393292
-2.210763 -4.517522 -1.952925
-2.373294 -4.842615 -1.952684
-2.688187 -5.477746 -2.052458
-2.640363 -5.376289 -1.860477
-2.744252 -5.581455 -1.775705
0.001443 -0.035371 -0.000892
-3.324559 -6.744816 -1.775589
-3.719898 -7.535809 -1.780967
-4.123622 -8.342278 -1.748747
-5.291835 -10.812570 -1.974080
-6.183709 -12.617425 -1.971896
-7.400325 -15.085717 -1.959993
-9.075217 -18.475178 -1.919233
-11.587985 -23.559353 -1.835754
-15.570811 -31.629843 -1.645000
-21.162941 -42.938107 -1.113590
-43.655167 -88.455017 -0.005043
-24.026064 -48.678089 1.256429
-22.372072 -45.290020 2.351218
-23.553879 -47.638744 3.710850
0.001443 -0.035371 -0.000892
0.001443 -0.035371 -0.000892
0.001443 -0.035371 -0.000892
0.001443 -0.035371 -0.000892
0.001443 -0.035371 -0.000892
-0.254082 -0.547871 -0.340632
-0.264727 -0.568799 -0.335962
-0.285559 -0.610333 -0.342689
-0.309218 -0.657201 -0.350001
-0.335610 -0.709445 -0.357729
-0.374472 -0.786882 -0.375120
-0.421477 -0.880129 -0.395599
-2.230621 -4.490828 -1.947096
-2.398377 -4.823659 -1.950623
-2.654985 -5.331125 -2.003144
-2.586309 -5.189738 -1.800885
-2.770068 -5.553368 -1.771837
-3.050386 -6.106244 -1.780006
-3.357851 -6.714960 -1.772812
-3.742756 -7.473909 -1.771390
-4.161602 -8.298932 -1.744661
-5.347680 -10.764942 -1.971148
-6.254212 -12.577913 -1.971324
-7.488499 -15.039634 -1.959743
-9.171867 -18.395952 -1.916612
-11.672228 -23.390415 -1.827774
-15.707700 -31.436779 -1.639747
-26.631252 -53.226112 -1.384437
-43.844059 -87.565704 -0.004936
-23.186548 -46.286129 1.198179
-22.741081 -45.358253 2.361778
-24.813633 -49.467266 3.864545
0.001425 -0.035184 -0.000887
0.001425 -0.035184 -0.000887
0.001425 -0.035184 -0.000887
0.001425 -0.035184 -0.000887
0.001425 -0.035184 -0.000887
-0.250041 -0.532394 -0.331445
-0.267807 -0.567072 -0.335956
-0.290466 -0.611640 -0.344562
-0.311994 -0.653627 -0.349098
-0.341945 -0.712148 -0.360291
-0.379616 -0.786157 -0.375929
-0.427173 -0.879144 -0.396365
-2.253680 -4.472754 -1.944906
-2.422485 -4.802894 -1.947878
0.001408 -0.034997 -0.000882
-2.575194 -5.094629 -1.772873
-2.807878 -5.549145 -1.775687
-3.079099 -6.076346 -1.776451
-3.369670 -6.643351 -1.758967
-3.763250 -7.408513 -1.760982
-4.203719 -8.264162 -1.742427
-5.403070 -10.721492 -1.968864
-6.319092 -12.527414 -1.969082
-7.563886 -14.974868 -1.956943
-9.262012 -18.312515 -1.913432
-11.758529 -23.228403 -1.820352
-15.732524 -31.039312 -1.623679
0.001408 -0.034997 -0.000882
-23.406172 -46.101048 -0.002982
0.001408 -0.034997 -0.000882
-24.928980 -49.013554 2.559814
-23.256948 -45.709091 3.581125
0.001408 -0.034997 -0.000882
0.001408 -0.034997 -0.000882
0.001408 -0.034997 -0.000882
0.001408 -0.034997 -0.000882
0.001408 -0.034997 -0.000882
-0.262316 -0.549129 -0.343684
-0.270069 -0.563784 -0.334972
-0.292176 -0.606627 -0.342679
-0.315555 -0.651628 -0.349093
-0.343372 -0.705153 -0.357719
-0.384778 -0.785396 -0.376737
-0.434565 -0.881403 -0.398672
-2.273180 -4.447945 -1.939806
-2.447288 -4.783682 -1.945817
-2.462889 -4.809886 -1.816796
-2.595516 -5.062572 -1.766904
-2.836889 -5.527597 -1.774024
-3.100490 -6.032564 -1.768842
-3.387068 -6.583914 -1.748349
-3.784008 -7.344866 -1.750990
-4.241014 -8.220475 -1.738342
-5.456317 -10.674261 -1.965934
-6.393545 -12.495969 -1.969903
-7.644243 -14.920327 -1.955534
-9.353321 -18.232193 -1.910625
-11.856127 -23.091022 -1.814885
-15.842894 -30.816696 -1.616749
0.001418 -0.034822 -0.000879
-44.220242 -85.837502 -0.004730
-25.092817 -48.683262 1.267823
0.001418 -0.034822 -0.000879
-23.640072 -45.808392 3.599572
0.001418 -0.034822 -0.000879
0.001418 -0.034822 -0.000879
0.001418 -0.034822 -0.000879
0.001418 -0.034822 -0.000879
0.001418 -0.034822 -0.000879
-0.261311 -0.539791 -0.338577
-0.275538 -0.566668 -0.337906
-0.295457 -0.604748 -0.342675
-0.320756 -0.652781 -0.350883
-0.348883 -0.706189 -0.359426
-0.388391 -0.781284 -0.375918
-0.447128 -0.893423 -0.405605
-2.297662 -4.432961 -1.939070
-2.465788 -4.750597 -1.938285
0.001401 -0.034635 -0.000874
-2.626163 -5.050757 -1.768088
-2.864050 -5.500281 -1.770707
-3.130421 -6.005885 -1.766301
-3.420384 -6.553205 -1.745573
-3.815418 -7.299619 -1.745574
-4.289452 -8.195011 -1.738331
-5.502853 -10.614500 -1.960731
-6.465443 -12.454165 -1.969331
-7.727883 -14.872410 -1.955053
-9.439409 -18.142597 -1.906888
-11.903030 -22.848591 -1.801320
-15.972507 -30.634565 -1.611964
-27.824562 -53.293385 -1.398336
-44.422985 -84.990692 -0.004628
-25.493587 -48.770046 1.273938
-23.993145 -45.863033 2.409472
-24.022938 -45.881153 3.616486
0.001401 -0.034635 -0.000874
0.001401 -0.034635 -0.000874
0.001401 -0.034635 -0.000874
0.001401 -0.034635 -0.000874
0.001401 -0.034635 -0.000874
-0.266722 -0.542601 -0.341633
-0.279485 -0.566384 -0.338882
-0.299684 -0.604349 -0.343608
-0.324408 -0.650684 -0.350879
-0.354547 -0.707117 -0.361133
-0.393664 -0.780395 -0.376726
-0.444430 -0.875895 -0.398663
-2.319344 -4.410843 -1.935423
-2.436431 -4.627811 -1.893809
-2.455397 -4.661609 -1.771318
-2.653148 -5.029863 -1.766292
-2.882859 -5.457559 -1.762427
-3.143046 -5.944336 -1.753626
-3.448887 -6.513741 -1.740490
-3.835406 -7.233531 -1.735165
-4.325732 -8.146709 -1.733503
-5.538733 -10.530906 -1.951313
-6.531513 -12.401443 -1.967090
-7.813821 -14.822658 -1.954572
-9.537228 -18.068562 -1.905010
-12.059459 -22.818035 -1.804508
-16.070333 -30.382067 -1.603636
0.001385 -0.034445 -0.000868
-44.651917 -84.209885 -0.004530
-25.774427 -48.603817 1.273613
-24.228647 -45.652828 2.405976
-24.537663 -46.195850 3.652783
0.001385 -0.034445 -0.000868
0.001385 -0.034445 -0.000868
0.001385 -0.034445 -0.000868
0.001385 -0.034445 -0.000868
0.001385 -0.034445 -0.000868
-0.271267 -0.543900 -0.343668
-0.280101 -0.559953 -0.335936
-0.301284 -0.599313 -0.341725
-0.326266 -0.645463 -0.349079
-0.362689 -0.712835 -0.365407
-0.400434 -0.782816 -0.379161
-0.460625 -0.894262 -0.408679
-2.345354 -4.398885 -1.936143
-2.402377 -4.503061 -1.847964
-2.472986 -4.630540 -1.764906
-2.668246 -4.989125 -1.757347
-2.921273 -5.456439 -1.767380
-3.168717 -5.910645 -1.749058
-3.475749 -6.477078 -1.735867
-3.859683 -7.182584 -1.728085
-4.351255 -8.085969 -1.725716
-5.575733 -10.455185 -1.943191
-6.594773 -12.354159 -1.965404
-7.887491 -14.756272 -1.951770
-9.629501 -17.992161 -1.902760
-12.128779 -22.643003 -1.795970
-16.187895 -30.183348 -1.598011
0.001397 -0.034267 -0.000865
0.001397 -0.034267 -0.000865
0.001397 -0.034267 -0.000865
-24.649731 -45.808056 2.421658
-24.853350 -46.167011 3.661469
0.001397 -0.034267 -0.000865
0.001397 -0.034267 -0.000865
0.001397 -0.034267 -0.000865
0.001397 -0.034267 -0.000865
0.001397 -0.034267 -0.000865
-0.275029 -0.543647 -0.344683
-0.283951 -0.559679 -0.336912
-0.306228 -0.600479 -0.343598
-0.328941 -0.641813 -0.348176
-0.363136 -0.704199 -0.361979
-0.401236 -0.773897 -0.375902
-0.466445 -0.893031 -0.409445
-2.365953 -4.376962 -1.932498
-2.362347 -4.368541 -1.798017
-2.501217 -4.619370 -1.766178
-2.712289 -5.001980 -1.767466
-2.950567 -5.435985 -1.766268
-3.195029 -5.878561 -1.744996
-3.499647 -6.432906 -1.729402
-3.884772 -7.130903 -1.721004
-4.421122 -8.103707 -1.734963
-5.623340 -10.400209 -1.938962
-6.651343 -12.289732 -1.961214
-7.965397 -14.698256 -1.950129
-9.710743 -17.896059 -1.898466
-12.226210 -22.513090 -1.791200
-16.303698 -29.984282 -1.592387
0.001380 -0.034080 -0.000860
-33.857655 -62.151409 -0.003475
0.001380 -0.034080 -0.000860
0.001380 -0.034080 -0.000860
0.001380 -0.034080 -0.000860
0.001380 -0.034080 -0.000860
