# This PCD file was generated using the MATLAB® pcwrite function
# from Computer Vision Toolbox®.
# .PCD v.7 - Point Cloud Data file format
VERSION .7
FIELDS x y z
SIZE 4 4 4
TYPE F F F
COUNT 1 1 1
WIDTH 1651
HEIGHT 1
VIEWPOINT 0 0 0 1 0 0 0
POINTS 1651
DATA ascii
-1.373451 5.955796 -1.646817
-1.493041 6.491055 -1.621492
-1.636073 7.137068 -1.596386
-1.801956 7.886908 -1.561042
-1.705935 7.314364 -1.266811
-1.686751 7.236994 -1.073624
-1.687400 7.252200 -0.895165
-1.682670 7.243795 -0.716049
-1.687589 7.271825 -0.540795
-1.681442 7.257245 -0.362722
-1.696120 7.334182 -0.186659
-1.965482 8.526277 -0.009033
0.005915 -0.150585 -0.004771
0.005915 -0.150585 -0.004771
0.005915 -0.150585 -0.004771
0.005915 -0.150585 -0.004771
0.005915 -0.150585 -0.004771
0.005915 -0.150585 -0.004771
0.005915 -0.150585 -0.004771
-12.702863 56.452904 10.896518
-0.119873 0.411817 -0.346804
-0.126321 0.441635 -0.345984
-0.136731 0.488858 -0.353428
-0.153783 0.566465 -0.373945
-0.199649 0.774045 -0.453588
-0.383922 1.604295 -0.806087
-0.443934 1.877912 -0.873737
-0.935837 4.103340 -1.708435
-0.999726 4.396002 -1.702061
-1.067982 4.712951 -1.690341
-1.146330 5.076738 -1.677827
-1.236068 5.488925 -1.663579
-1.336253 5.954363 -1.644291
-1.454404 6.497840 -1.621043
-1.593304 7.142745 -1.595567
-1.755714 7.897349 -1.561059
0.005901 -0.150401 -0.004765
-1.644232 7.246777 -1.073640
-1.647844 7.275572 -0.896810
-1.640124 7.253561 -0.716065
-1.648785 7.299148 -0.542075
-1.640117 7.272854 -0.363019
-1.685039 7.488488 -0.190181
0.005901 -0.150401 -0.004765
0.005901 -0.150401 -0.004765
0.005901 -0.150401 -0.004765
0.005901 -0.150401 -0.004765
0.005901 -0.150401 -0.004765
0.005901 -0.150401 -0.004765
0.005901 -0.150401 -0.004765
-13.058221 59.538403 10.003580
0.005901 -0.150401 -0.004765
-0.116290 0.411032 -0.345778
-0.121065 0.434041 -0.341078
-0.132693 0.488119 -0.352484
-1.454572 6.589119 -3.471126
-0.194725 0.777155 -0.454441
-0.375447 1.615676 -0.810159
-0.433042 1.884248 -0.875281
-0.911749 4.110678 -1.709170
-0.973572 4.405735 -1.703437
-1.039191 4.715506 -1.689067
-1.117845 5.090913 -1.680223
-1.202631 5.496354 -1.663590
-1.301520 5.964038 -1.644811
-1.416210 6.512260 -1.622443
-1.550474 7.154179 -1.595999
-1.706765 7.902048 -1.559963
-1.624165 7.353194 -1.270094
-1.603314 7.270146 -1.075611
-1.604677 7.283185 -0.896594
-1.598356 7.266967 -0.716454
-1.602943 7.301201 -0.541528
-1.596573 7.278472 -0.362846
-1.639835 7.492400 -0.190054
0.005885 -0.150221 -0.004759
0.005885 -0.150221 -0.004759
0.005885 -0.150221 -0.004759
0.005885 -0.150221 -0.004759
0.005885 -0.150221 -0.004759
0.005885 -0.150221 -0.004759
0.005885 -0.150221 -0.004759
-12.729020 59.730793 10.022811
-11.234511 52.752285 10.157884
-0.115096 0.422014 -0.351901
-0.118684 0.440074 -0.344016
-0.129642 0.492559 -0.354360
-0.144665 0.565130 -0.372142
-0.188853 0.776734 -0.453582
-0.365654 1.619793 -0.810974
-0.422882 1.896019 -0.879140
-0.887648 4.121688 -1.711361
-0.946204 4.405950 -1.701390
-1.009194 4.716228 -1.687152
-1.083660 5.082701 -1.675459
-1.169359 5.499623 -1.662495
-1.265269 5.971849 -1.644823
-1.378278 6.522410 -1.622917
-1.507236 7.157423 -1.594765
-1.660816 7.913856 -1.560352
-1.573981 7.335863 -1.265557
-1.558595 7.269770 -1.074228
-1.558987 7.285006 -0.895677
-1.553156 7.270669 -0.715910
-1.560889 7.314410 -0.541825
-1.549256 7.272366 -0.362109
-1.596168 7.510026 -0.190260
-1.608258 7.575117 -0.008600
0.005869 -0.150041 -0.004753
-19.772629 94.851692 4.473128
0.005869 -0.150041 -0.004753
0.005869 -0.150041 -0.004753
0.005869 -0.150041 -0.004753
0.005869 -0.150041 -0.004753
-11.343915 54.768143 9.180515
-11.796168 57.061005 10.971772
-0.112170 0.424565 -0.352917
-0.113555 0.432426 -0.339109
-0.125231 0.490043 -0.352477
-0.138782 0.557415 -0.367646
-0.182443 0.772699 -0.451010
-0.356592 1.627459 -0.813414
-0.411463 1.900424 -0.879913
-0.860459 4.114145 -1.706269
-0.920746 4.415208 -1.702766
-0.981575 4.724019 -1.687800
-1.055439 5.098407 -1.678452
-1.137214 5.508333 -1.663059
-1.231586 5.986824 -1.646863
-1.337959 6.520890 -1.620620
-1.465574 7.168097 -1.595196
-1.614417 7.923481 -1.560368
-1.538452 7.381734 -1.271750
-1.517891 7.288518 -1.075640
-1.516591 7.295994 -0.895926
-1.510865 7.281644 -0.716111
-1.516747 7.317606 -0.541418
-1.506564 7.281367 -0.362123
-1.552502 7.521246 -0.190323
-1.565008 7.590324 -0.008619
0.005880 -0.149873 -0.004748
0.005880 -0.149873 -0.004748
0.005880 -0.149873 -0.004748
0.005880 -0.149873 -0.004748
-14.673483 72.790939 8.659116
0.005880 -0.149873 -0.004748
0.005880 -0.149873 -0.004748
0.005880 -0.149873 -0.004748
-0.107520 0.418664 -0.348829
-0.111573 0.440114 -0.343027
-0.121555 0.490959 -0.352474
-0.135745 0.563661 -0.370339
-0.177495 0.775718 -0.451863
-0.347427 1.635058 -0.815857
-0.402529 1.917446 -0.886087
-0.837005 4.124714 -1.708461
-0.893752 4.416947 -1.701403
-0.952788 4.726064 -1.686527
-1.024137 5.098979 -1.676670
-1.104678 5.514998 -1.663067
-1.194783 5.986414 -1.644845
-1.299206 6.526774 -1.620170
-1.422360 7.170859 -1.593959
-1.567975 7.932840 -1.560384
-1.491252 7.371305 -1.268514
-1.472762 7.285675 -1.073980
-1.473754 7.304801 -0.895940
-1.468489 7.292368 -0.716313
-1.474554 7.330323 -0.541715
-1.464958 7.295993 -0.362421
-1.511065 7.543985 -0.190671
-1.520485 7.599411 -0.008634
0.005864 -0.149693 -0.004742
0.005864 -0.149693 -0.004742
-16.292011 82.991997 5.877755
0.005864 -0.149693 -0.004742
0.005864 -0.149693 -0.004742
-12.119205 62.004772 8.863285
-10.794250 55.319717 9.251023
-11.058760 56.788155 10.893912
-0.105222 0.424538 -0.351889
-0.108172 0.440949 -0.343024
-0.118540 0.495323 -0.354350
-0.130974 0.561131 -0.368539
-0.173560 0.784041 -0.455285
-0.338537 1.644410 -0.819115
-0.392400 1.929008 -0.889944
-0.810667 4.120516 -1.704824
-0.868525 4.427747 -1.703466
-0.925812 4.737258 -1.688457
-0.994307 5.106866 -1.677275
-1.069925 5.510130 -1.659764
-1.159112 5.991486 -1.644349
-1.261877 6.540075 -1.621569
-1.379880 7.177201 -1.593556
-1.521487 7.941937 -1.560399
-1.446504 7.372222 -1.267226
-1.433353 7.311727 -1.076509
-1.433141 7.325077 -0.897351
-1.425679 7.300901 -0.716327
-1.431525 7.338892 -0.541729
-1.422888 7.308434 -0.362623
-1.466430 7.550793 -0.190638
-1.475914 7.608241 -0.008648
0.005848 -0.149512 -0.004737
0.005848 -0.149512 -0.004737
0.005848 -0.149512 -0.004737
0.005848 -0.149512 -0.004737
-13.749072 72.508347 8.605762
-11.735853 61.937431 8.843709
0.005848 -0.149512 -0.004737
0.005848 -0.149512 -0.004737
-0.100664 0.418588 -0.347801
-0.102852 0.431490 -0.337137
-0.114520 0.494475 -0.353405
-0.125907 0.556810 -0.365840
-0.165201 0.769234 -0.447574
-0.328211 1.646532 -0.819114
-0.381101 1.935058 -0.891489
-0.786439 4.127147 -1.705559
-0.841507 4.429180 -1.702102
-0.896660 4.737118 -1.686541
-0.963011 5.107065 -1.675495
-1.038754 5.523957 -1.661983
-1.123787 5.998261 -1.644359
-1.223403 6.547438 -1.621580
-1.338059 7.187138 -1.593988
-1.475985 7.956556 -1.561530
-1.414117 7.438818 -1.276998
-1.388258 7.308380 -1.074846
-1.388676 7.325590 -0.896434
-1.383536 7.313093 -0.716716
-1.389182 7.351137 -0.542024
0.005860 -0.149345 -0.004732
0.005860 -0.149345 -0.004732
-1.431267 7.616801 -0.008665
0.005860 -0.149345 -0.004732
0.005860 -0.149345 -0.004732
0.005860 -0.149345 -0.004732
0.005860 -0.149345 -0.004732
0.005860 -0.149345 -0.004732
0.005860 -0.149345 -0.004732
-10.492460 57.283157 9.557508
-10.437138 57.097672 10.929074
-0.098023 0.422753 -0.349839
-0.102332 0.447726 -0.345957
-0.111775 0.500547 -0.356221
-0.123446 0.566527 -0.370328
-0.158330 0.761493 -0.443288
-0.315650 1.637878 -0.814226
-0.370414 1.944685 -0.894576
-0.762173 4.133642 -1.706293
-0.813689 4.430589 -1.700740
-0.868213 4.740537 -1.685907
-0.931765 5.107086 -1.673713
-1.004437 5.526430 -1.660889
-1.087724 6.001012 -1.643356
-1.183007 6.550935 -1.620670
-1.293905 7.191306 -1.593168
-1.425869 7.953752 -1.559319
-1.373979 7.466447 -1.280265
-1.344039 7.316679 -1.074862
-1.347437 7.343432 -0.897613
-1.340958 7.323098 -0.716917
-1.344722 7.359445 -0.542039
0.005844 -0.149164 -0.004726
-1.779717 9.809188 -0.244681
-1.387017 7.635211 -0.008684
0.005844 -0.149164 -0.004726
0.005844 -0.149164 -0.004726
0.005844 -0.149164 -0.004726
-12.311198 69.196922 6.530589
0.005844 -0.149164 -0.004726
0.005844 -0.149164 -0.004726
-10.187387 57.544743 9.590652
-9.238373 52.230637 9.989016
-0.095814 0.430301 -0.353920
-0.098202 0.445102 -0.343992
-0.107311 0.497926 -0.354338
-0.119812 0.570974 -0.372121
-0.151225 0.751909 -0.438146
-0.304107 1.632666 -0.810969
-0.360210 1.959776 -0.899980
-0.737210 4.136323 -1.705570
-0.787682 4.437259 -1.701431
-0.841053 4.751260 -1.687838
-0.902513 5.118215 -1.675510
-0.971466 5.530429 -1.660346
-1.052674 6.009282 -1.643874
-1.145784 6.565510 -1.622530
-1.253265 7.200529 -1.593599
-1.380332 7.959846 -1.558963
-1.325755 7.457160 -1.277354
-1.302110 7.330345 -1.075714
-1.302339 7.347578 -0.897162
-1.297370 7.335056 -0.717304
-1.302206 7.371195 -0.542334
-1.293764 7.338635 -0.362948
-1.337494 7.599217 -0.191252
0.005828 -0.148984 -0.004720
0.005828 -0.148984 -0.004720
0.005828 -0.148984 -0.004720
-12.524146 72.673065 5.124927
-11.919961 69.239197 6.528017
-9.810752 57.091038 6.757115
-9.716152 56.662849 8.066099
0.005828 -0.148984 -0.004720
-8.930783 52.246319 9.981868
-0.092029 0.427654 -0.351873
-0.093710 0.438964 -0.340067
-0.103117 0.495238 -0.352455
-0.114924 0.566560 -0.369422
-0.152043 0.788615 -0.455274
-0.293265 1.630997 -0.809338
-0.348466 1.961968 -0.899978
-0.712247 4.138862 -1.704847
-0.761293 4.441920 -1.701437
-0.811624 4.748752 -1.685280
-0.872837 5.127294 -1.676712
-0.939748 5.541825 -1.662011
-1.017580 6.017357 -1.644391
-1.107155 6.572196 -1.622542
-1.209082 7.204186 -1.592778
-1.332282 7.968099 -1.558978
-1.304080 7.587221 -1.297857
-1.259741 7.341824 -1.076287
-1.262171 7.364723 -0.898341
-1.256279 7.346306 -0.717691
-1.260933 7.390572 -0.543191
-1.253320 7.353821 -0.363338
-1.295221 7.620790 -0.191599
0.005839 -0.148817 -0.004716
0.005839 -0.148817 -0.004716
-13.068657 78.367424 3.666870
0.005839 -0.148817 -0.004716
0.005839 -0.148817 -0.004716
0.005839 -0.148817 -0.004716
-9.947549 60.096790 8.545483
-10.181996 61.654671 10.253654
-9.032695 54.746616 10.448174
-0.088045 0.424997 -0.349828
-0.090242 0.439725 -0.340062
-0.098745 0.492567 -0.350571
-0.111827 0.574489 -0.373012
-0.142442 0.764734 -0.443279
-0.282427 1.629248 -0.807710
-0.336845 1.969670 -0.902294
-0.687142 4.145058 -1.705581
-0.733984 4.440864 -1.699389
-0.782269 4.751802 -1.684648
-0.840030 5.123146 -1.673738
-0.906396 5.543542 -1.660916
-0.980409 6.019662 -1.643387
-1.068496 6.578662 -1.622553
-1.167379 7.215078 -1.593626
-1.285268 7.973886 -1.558623
-1.258873 7.598924 -1.298522
-1.217283 7.353059 -1.076859
-1.219233 7.382085 -0.899520
-1.212157 7.355786 -0.717893
-1.217241 7.395939 -0.543065
-1.208835 7.361320 -0.363354
-1.249167 7.628537 -0.191615
-1.412925 8.653760 -0.009242
0.005823 -0.148636 -0.004710
0.005823 -0.148636 -0.004710
0.005823 -0.148636 -0.004710
-11.166602 69.733955 6.561478
-9.093317 56.898041 6.720975
-9.317110 58.371311 8.292682
0.005823 -0.148636 -0.004710
0.005823 -0.148636 -0.004710
-0.083963 0.420616 -0.346760
-0.088227 0.449054 -0.344961
-0.097264 0.507291 -0.358085
-0.106306 0.566510 -0.368516
-0.140838 0.788969 -0.454411
-0.271931 1.629251 -0.806894
-0.325792 1.979069 -0.905381
-0.661854 4.145459 -1.704130
-0.707003 4.441500 -1.698025
-0.754074 4.756425 -1.684655
-0.810880 5.135649 -1.676132
-0.873356 5.546968 -1.660372
-0.945211 6.027313 -1.643905
-1.030082 6.586822 -1.623027
-1.124417 7.218007 -1.592806
-1.239735 7.989123 -1.560123
-1.197126 7.497077 -1.280322
-1.173827 7.358191 -1.076593
-1.174688 7.381333 -0.898601
-1.168086 7.356949 -0.717345
-1.173831 7.403020 -0.543079
-1.168418 7.386127 -0.364214
-1.205062 7.639761 -0.191723
-1.356467 8.624402 -0.009239
0.005807 -0.148456 -0.004704
0.005807 -0.148456 -0.004704
-10.860411 70.250481 4.939774
-10.748516 69.692917 6.551514
-9.666409 62.816704 7.411916
0.005807 -0.148456 -0.004704
0.005807 -0.148456 -0.004704
-8.246450 53.900570 10.267683
-0.082240 0.431500 -0.352882
-0.083489 0.441148 -0.340054
-0.093492 0.508052 -0.358081
-0.103266 0.574391 -0.372106
-0.133831 0.779250 -0.449268
-0.259759 1.620202 -0.802007
-0.315748 1.995720 -0.911555
-0.637417 4.151241 -1.704865
-0.679230 4.442096 -1.696662
-0.725881 4.760899 -1.684660
-0.779649 5.134775 -1.674349
-0.839320 5.550356 -1.659829
-0.909967 6.034774 -1.644422
-0.989011 6.585312 -1.621192
-1.081055 7.226695 -1.593235
-1.191214 7.994593 -1.559767
-1.166422 7.591835 -1.294974
-1.130226 7.371102 -1.077445
-1.133436 7.401920 -0.900246
-1.125781 7.369653 -0.717920
-1.130571 7.419925 -0.543795
-1.130690 7.430464 -0.366018
-1.159078 7.638865 -0.191547
-1.303294 8.624589 -0.009251
0.005793 -0.148272 -0.004698
0.005793 -0.148272 -0.004698
0.005793 -0.148272 -0.004698
-8.521980 57.502132 5.402129
-8.373719 56.572845 6.670513
-8.399985 56.893265 8.068311
0.005793 -0.148272 -0.004698
-7.799966 53.023571 10.092140
-0.077554 0.423672 -0.347774
-0.080747 0.447015 -0.342992
-0.088585 0.501812 -0.354319
-0.098458 0.571654 -0.370307
-0.119196 0.715828 -0.418427
-0.251698 1.636346 -0.808520
-0.303569 2.001415 -0.913098
-0.612682 4.155045 -1.704870
-0.654176 4.455441 -1.700092
-0.697089 4.761445 -1.683385
-0.748708 5.135594 -1.673164
-0.807347 5.561003 -1.661495
-0.875213 6.045856 -1.645955
-0.950567 6.593032 -1.621663
-1.039922 7.232816 -1.593247
-1.145779 8.001310 -1.559782
0.005805 -0.148104 -0.004694
-1.088376 7.387476 -1.078856
-1.089253 7.412646 -0.900726
-1.082078 7.382313 -0.718494
0.005805 -0.148104 -0.004694
-1.083214 7.419446 -0.365184
-1.116829 7.663414 -0.191989
-1.253401 8.636110 -0.009270
0.005805 -0.148104 -0.004694
0.005805 -0.148104 -0.004694
0.005805 -0.148104 -0.004694
-8.707140 61.111671 5.735850
-8.918247 62.758945 7.392187
-7.867094 55.493530 7.863513
0.005805 -0.148104 -0.004694
-7.299616 51.687798 9.830189
-0.074139 0.422603 -0.346748
-0.076709 0.442486 -0.340046
-0.086450 0.513002 -0.359953
-0.092989 0.561790 -0.364912
-0.094345 0.573491 -0.349897
-0.241483 1.636113 -0.807705
-0.291336 2.001454 -0.912326
-0.587686 4.156863 -1.704146
-0.627725 4.453638 -1.698042
-0.669095 4.767452 -1.684034
-0.718310 5.140015 -1.673171
-0.775250 5.563718 -1.660950
-0.838807 6.045247 -1.644441
-0.912441 6.594579 -1.620750
-0.997988 7.242761 -1.594093
-1.098630 8.006021 -1.559425
-1.266007 8.955644 -1.519756
-1.046622 7.395601 -1.079147
-1.048172 7.426677 -0.901671
-1.041458 7.398307 -0.719440
-1.045056 7.434637 -0.543962
-1.038288 7.405796 -0.364254
-1.071643 7.667947 -0.191954
-1.207943 8.668924 -0.009299
0.005788 -0.147924 -0.004688
0.005788 -0.147924 -0.004688
-7.968027 58.167858 4.080423
0.005788 -0.147924 -0.004688
-8.520246 62.543674 7.360816
0.005788 -0.147924 -0.004688
0.005788 -0.147924 -0.004688
-6.990919 51.651218 9.815295
-0.071323 0.426639 -0.348786
-0.074710 0.453493 -0.345926
-0.082397 0.511936 -0.359011
-0.087737 0.553668 -0.360416
-0.086628 0.547358 -0.337044
0.005772 -0.147744 -0.004682
-0.279687 2.008785 -0.914642
-0.562178 4.154834 -1.701966
-0.600686 4.459345 -1.698734
-0.641072 4.773302 -1.684681
-0.688149 5.146165 -1.673775
-0.740873 5.564598 -1.659856
-0.802926 6.048254 -1.643944
-0.872719 6.602001 -1.621224
-0.954934 7.254569 -1.595357
-1.050827 8.016505 -1.560181
-1.213124 8.959073 -1.519122
-1.002176 7.403844 -1.079440
-1.003561 7.424916 -0.900751
-0.998817 7.410291 -0.720014
-1.000887 7.446832 -0.544398
-0.998507 7.439578 -0.365586
-1.027996 7.684103 -0.192205
-1.158307 8.695971 -0.009326
0.005772 -0.147744 -0.004682
-7.685893 58.535423 2.724463
0.005772 -0.147744 -0.004682
-7.360265 56.367516 5.282559
0.005772 -0.147744 -0.004682
-8.366947 64.366699 9.103674
0.005772 -0.147744 -0.004682
-6.961027 53.764973 10.208089
-0.069451 0.439200 -0.355930
-0.070478 0.448944 -0.342981
-0.078492 0.512622 -0.359007
-0.082228 0.543747 -0.355023
-0.081383 0.539109 -0.332757
-0.084926 0.568232 -0.326377
-0.267839 2.017936 -0.917729
-0.536463 4.156457 -1.701242
-0.573730 4.459208 -1.697369
-0.611207 4.771591 -1.682763
-0.656290 5.146565 -1.672589
-0.708500 5.572790 -1.660968
-0.766665 6.056942 -1.644970
-0.834596 6.612899 -1.622622
-0.911390 7.252379 -1.593702
-1.004331 8.026513 -1.560939
-1.159383 8.968263 -1.519465
-0.959497 7.415588 -1.080291
-0.960681 7.446698 -0.902629
-0.954550 7.420247 -0.720400
-0.957961 7.458613 -0.544832
-0.956771 7.471326 -0.366826
-0.980820 7.684310 -0.192077
-1.257178 9.893306 -0.009971
0.005784 -0.147576 -0.004678
-7.348248 58.661438 2.728100
0.005784 -0.147576 -0.004678
0.005784 -0.147576 -0.004678
-7.879303 63.376659 7.447010
0.005784 -0.147576 -0.004678
-6.765412 54.648258 9.036707
-6.322053 51.212799 9.717194
-0.065674 0.436391 -0.353883
-0.068320 0.459931 -0.348860
-0.073441 0.502769 -0.353362
-0.075226 0.519576 -0.342443
-0.076028 0.527197 -0.326757
-0.080176 0.563488 -0.323928
-0.253787 2.003124 -0.910781
-0.513794 4.170681 -1.705617
-0.548709 4.468136 -1.699429
-0.583763 4.775122 -1.682770
-0.626312 5.146558 -1.671402
-0.677049 5.580675 -1.662080
-0.731393 6.055573 -1.643455
-0.796438 6.613794 -1.621707
-0.869871 7.255602 -1.593298
-0.959478 8.026172 -1.559837
-1.106704 8.973025 -1.519156
-0.916459 7.425112 -1.080863
-0.917958 7.460196 -0.903573
-0.913287 7.433564 -0.721160
-0.914207 7.464200 -0.544845
0.005768 -0.147396 -0.004672
-0.933307 7.658098 -0.191331
0.005768 -0.147396 -0.004672
0.005768 -0.147396 -0.004672
0.005768 -0.147396 -0.004672
-8.412323 70.473587 4.931016
0.005768 -0.147396 -0.004672
0.005768 -0.147396 -0.004672
0.005768 -0.147396 -0.004672
0.005768 -0.147396 -0.004672
-6.050568 51.297184 9.726687
-0.062719 0.438646 -0.354901
-0.065269 0.462237 -0.349835
-0.068590 0.492849 -0.347720
-0.069776 0.504207 -0.334354
-0.070409 0.511665 -0.319043
-0.074742 0.551426 -0.318224
-0.240159 1.993757 -0.906150
-0.488850 4.166278 -1.702708
-0.520852 4.460210 -1.695326
-0.555868 4.782367 -1.684059
-0.596292 5.154071 -1.672603
-0.644107 5.584685 -1.662088
-0.695918 6.061803 -1.643972
-0.755929 6.614733 -1.620794
-0.825786 7.258894 -1.592893
-0.911461 8.035821 -1.560595
-1.057427 8.979075 -1.519171
-0.875135 7.438178 -1.081992
-0.876154 7.459324 -0.902887
-0.871926 7.446658 -0.721919
-0.873585 7.485247 -0.545981
0.005752 -0.147215 -0.004666
-0.895939 7.717030 -0.192624
0.005752 -0.147215 -0.004666
0.005752 -0.147215 -0.004666
0.005752 -0.147215 -0.004666
-7.966763 70.174088 4.906625
0.005752 -0.147215 -0.004666
0.005752 -0.147215 -0.004666
0.005752 -0.147215 -0.004666
0.005752 -0.147215 -0.004666
-5.709013 51.004173 9.664530
-0.058578 0.434102 -0.351834
-0.060770 0.455898 -0.345910
-0.064610 0.491700 -0.346776
-0.064254 0.490621 -0.327163
-0.065606 0.505104 -0.315613
-0.071010 0.555699 -0.319849
-0.226452 1.986170 -0.902292
-0.462927 4.173091 -1.704171
-0.494159 4.469028 -1.697386
-0.525642 4.776369 -1.680859
-0.565260 5.161508 -1.673805
-0.609913 5.586687 -1.661545
-0.659333 6.067953 -1.644488
-0.717641 6.624976 -1.622192
-0.783586 7.267612 -1.593739
-0.863994 8.051056 -1.562466
-0.952639 8.540318 -1.445348
-0.830626 7.447384 -1.082563
-0.830412 7.470665 -0.903598
-0.826447 7.459957 -0.722681
-0.829006 7.496448 -0.546416
-0.830424 7.535003 -0.369123
0.005736 -0.147035 -0.004660
0.005736 -0.147035 -0.004660
0.005736 -0.147035 -0.004660
0.005736 -0.147035 -0.004660
-7.583441 70.531731 4.928198
-7.537804 70.346138 6.571625
0.005736 -0.147035 -0.004660
-6.045685 56.696274 7.998342
-5.426318 51.053883 8.426473
-5.417051 51.142887 9.684352
-0.055075 0.432932 -0.350808
-0.057330 0.456457 -0.345905
-0.059666 0.479983 -0.340192
-0.059669 0.482303 -0.322668
-0.060565 0.493100 -0.309613
-0.066837 0.556309 -0.319846
-0.215129 1.996823 -0.906151
-0.437712 4.172189 -1.702717
-0.466234 4.466480 -1.695336
-0.497701 4.783280 -1.682148
-0.534362 5.161088 -1.672617
-0.575557 5.586589 -1.660448
-0.623781 6.073772 -1.645005
-0.677316 6.627382 -1.621740
-0.739854 7.274286 -1.594167
-0.815426 8.056247 -1.562479
-0.869430 8.227900 -1.392666
-0.786627 7.462223 -1.083974
-0.787828 7.487377 -0.905008
-0.783322 7.470743 -0.723252
-0.784314 7.507385 -0.546851
-0.787859 7.555748 -0.369891
0.005748 -0.146867 -0.004656
0.005748 -0.146867 -0.004656
0.005748 -0.146867 -0.004656
0.005748 -0.146867 -0.004656
-7.260554 71.522514 4.994075
-7.132414 70.512634 6.582913
-5.547309 54.924168 6.438220
-6.078669 60.412701 8.516188
-5.093791 50.794708 8.378523
0.005748 -0.146867 -0.004656
-0.051478 0.431748 -0.349782
-0.052393 0.443115 -0.338056
-0.055245 0.473499 -0.336430
-0.054026 0.463295 -0.312782
-0.055833 0.482854 -0.304469
-0.060338 0.531447 -0.308439
-0.061274 0.543808 -0.294859
-0.413036 4.176686 -1.703451
-0.439881 4.471160 -1.696026
-0.469726 4.790050 -1.683434
-0.503832 5.164282 -1.672623
-0.543133 5.595755 -1.662112
-0.587635 6.073612 -1.643998
-0.638169 6.629437 -1.621287
-0.698630 7.280443 -1.594596
-0.770212 8.066738 -1.563607
-0.820191 8.237044 -1.393331
-0.743443 7.472741 -1.084824
-0.743346 7.500021 -0.905954
-0.739128 7.485358 -0.724200
-0.741452 7.523895 -0.547706
-0.743380 7.572424 -0.370468
0.005732 -0.146687 -0.004650
0.005732 -0.146687 -0.004650
-0.752903 7.744897 0.175172
0.005732 -0.146687 -0.004650
-6.847933 71.559319 4.993639
0.005732 -0.146687 -0.004650
-5.621642 59.070915 6.919304
-5.369150 56.631310 7.979507
-4.817684 50.907047 8.392313
-4.862621 51.581913 9.755763
-0.048244 0.432227 -0.349779
-0.048773 0.440128 -0.336091
-0.050674 0.461709 -0.329845
-0.048323 0.438879 -0.300202
-0.051714 0.477972 -0.301895
-0.057102 0.539267 -0.311693
-0.057931 0.549861 -0.297171
-0.388350 4.181060 -1.704183
-0.413319 4.473821 -1.696031
-0.440967 4.789093 -1.682159
-0.473443 5.169194 -1.673227
-0.510086 5.598982 -1.662121
-0.552701 6.086722 -1.646546
-0.599027 6.631267 -1.620835
-0.654450 7.282715 -1.594191
-0.722236 8.079197 -1.565106
-0.772515 8.231867 -1.391718
-0.700545 7.486964 -1.086232
-0.701626 7.514149 -0.907130
-0.697300 7.497506 -0.724959
-0.698433 7.540164 -0.548561
0.005716 -0.146507 -0.004644
-0.704288 7.651015 -0.190635
0.005716 -0.146507 -0.004644
-0.711776 7.781040 0.175886
0.005716 -0.146507 -0.004644
0.005716 -0.146507 -0.004644
-6.356791 71.008965 6.621578
0.005716 -0.146507 -0.004644
0.005716 -0.146507 -0.004644
0.005716 -0.146507 -0.004644
-4.923928 55.672089 10.521839
-0.045590 0.441290 -0.354879
-0.045143 0.438877 -0.335107
-0.045398 0.442863 -0.319503
-0.045178 0.442932 -0.301994
-0.047259 0.469480 -0.297607
-0.052428 0.532527 -0.308431
-0.053822 0.550405 -0.297166
-0.362860 4.185347 -1.704916
-0.386414 4.482013 -1.698092
-0.412034 4.795601 -1.683448
-0.441774 5.170205 -1.672638
-0.475712 5.598278 -1.661024
-0.515938 6.092029 -1.647061
-0.559188 6.638786 -1.621769
-0.610734 7.290563 -1.595037
-0.671867 8.063953 -1.561406
-0.725082 8.262063 -1.395961
-0.656495 7.504999 -1.088201
-0.655718 7.512447 -0.906443
-0.652700 7.509655 -0.725717
-0.653732 7.554315 -0.549277
0.005727 -0.146339 -0.004639
0.005727 -0.146339 -0.004639
0.005727 -0.146339 -0.004639
0.005727 -0.146339 -0.004639
0.005727 -0.146339 -0.004639
0.005727 -0.146339 -0.004639
0.005727 -0.146339 -0.004639
0.005727 -0.146339 -0.004639
0.005727 -0.146339 -0.004639
-4.282415 51.808792 8.531375
-4.618469 56.008076 10.579684
-0.040518 0.421175 -0.342623
-0.041374 0.434134 -0.332160
-0.040447 0.423972 -0.309159
-0.041089 0.434494 -0.297497
-0.043847 0.471747 -0.298461
-0.047030 0.512984 -0.299469
-0.049242 0.543562 -0.294074
-0.337046 4.176421 -1.700550
-0.360000 4.476809 -1.695356
-0.383323 4.794326 -1.682170
-0.410908 5.169070 -1.671450
-0.443689 5.601056 -1.661030
-0.479749 6.091242 -1.646055
-0.522098 6.651706 -1.624089
-0.569714 7.299914 -1.596297
-0.625178 8.056025 -1.559189
-0.680718 8.315481 -1.404106
-0.615912 7.534415 -1.091843
-0.613107 7.534121 -0.908551
-0.610086 7.531351 -0.727412
-0.612077 7.573968 -0.550411
-0.618045 7.684299 -0.375217
0.005713 -0.146155 -0.004633
0.005713 -0.146155 -0.004633
0.005713 -0.146155 -0.004633
0.005713 -0.146155 -0.004633
0.005713 -0.146155 -0.004633
0.005713 -0.146155 -0.004633
0.005713 -0.146155 -0.004633
-4.304599 55.624107 7.825813
-3.968166 51.513294 8.478917
-4.017335 52.400314 9.895000
-0.036376 0.409614 -0.335469
-0.037002 0.420670 -0.324311
-0.036629 0.417355 -0.305397
-0.037612 0.433143 -0.296595
-0.039899 0.466790 -0.295887
-0.042201 0.500713 -0.293763
-0.044717 0.536674 -0.290984
-0.312479 4.182220 -1.702010
-0.333147 4.486562 -1.698102
-0.355187 4.800433 -1.683457
-0.380897 5.179169 -1.673843
-0.409915 5.607630 -1.662141
-0.443455 6.088315 -1.644541
-0.481520 6.650997 -1.623175
-0.524625 7.289713 -1.593390
-0.575865 8.049986 -1.557346
-0.681253 8.972763 -1.512123
-0.573046 7.573678 -1.096886
-0.571604 7.573387 -0.912757
-0.568754 7.572677 -0.730972
-0.569121 7.615466 -0.553095
-0.574353 7.705871 -0.376076
-2.265536 30.749914 -0.740720
0.005697 -0.145975 -0.004627
0.005697 -0.145975 -0.004627
0.005697 -0.145975 -0.004627
0.005697 -0.145975 -0.004627
0.005697 -0.145975 -0.004627
0.005697 -0.145975 -0.004627
-4.111793 57.579090 8.096582
-3.632709 51.122688 8.410941
-3.968420 56.001087 10.568743
-0.033447 0.415178 -0.338529
-0.033047 0.412394 -0.319403
-0.033319 0.417782 -0.305391
-0.034302 0.435344 -0.297490
-0.036265 0.465420 -0.295026
-0.037600 0.488389 -0.288058
-0.040451 0.533465 -0.289435
-0.287459 4.182294 -1.701285
-0.306254 4.484858 -1.696736
-0.326599 4.800707 -1.682822
-0.349608 5.171941 -1.670866
-0.376821 5.610097 -1.662148
-0.408228 6.100612 -1.647087
-0.441911 6.646094 -1.621336
-0.483011 7.290770 -1.592984
-0.530152 8.053275 -1.557358
-0.628293 8.992590 -1.514742
0.005681 -0.145794 -0.004621
0.005681 -0.145794 -0.004621
-0.964106 14.018659 -1.337004
0.005681 -0.145794 -0.004621
-1.502251 22.056292 -1.054549
-2.084585 30.714758 -0.739642
0.005681 -0.145794 -0.004621
0.005681 -0.145794 -0.004621
0.005681 -0.145794 -0.004621
0.005681 -0.145794 -0.004621
0.005681 -0.145794 -0.004621
0.005681 -0.145794 -0.004621
-4.099698 62.481850 8.781027
-3.362370 51.380669 8.449942
0.005681 -0.145794 -0.004621
-0.029882 0.408697 -0.334440
-0.028712 0.393640 -0.308612
-0.030608 0.425202 -0.309148
-0.031075 0.435738 -0.297485
-0.032761 0.465827 -0.295021
-0.035443 0.512505 -0.298642
-0.035968 0.522832 -0.284801
-0.262795 4.187799 -1.702746
-0.279399 4.483002 -1.695370
-0.298280 4.804605 -1.683468
-0.319610 5.183599 -1.673856
-0.343463 5.608527 -1.661052
-0.372302 6.103065 -1.647095
-0.402759 6.646797 -1.620881
-0.438708 7.289804 -1.592161
-0.481802 8.060402 -1.558113
-0.577345 8.996161 -1.514754
-0.654202 10.260197 -1.475814
-0.750897 11.820250 -1.411256
-0.886478 14.045874 -1.339084
0.005692 -0.145627 -0.004617
-1.380677 22.100430 -1.056286
-1.895943 30.546841 -0.735427
0.005692 -0.145627 -0.004617
0.005692 -0.145627 -0.004617
0.005692 -0.145627 -0.004617
0.005692 -0.145627 -0.004617
0.005692 -0.145627 -0.004617
0.005692 -0.145627 -0.004617
0.005692 -0.145627 -0.004617
0.005692 -0.145627 -0.004617
-3.405961 57.452320 10.833616
-0.026393 0.405636 -0.332394
-0.025830 0.399230 -0.311550
-0.026924 0.420296 -0.306324
-0.027648 0.436126 -0.297480
-0.029449 0.471635 -0.297587
-0.031063 0.501975 -0.293750
-0.031704 0.517719 -0.282481
-0.237100 4.189481 -1.702752
-0.253193 4.492242 -1.698115
-0.268940 4.806491 -1.683473
-0.287929 5.183702 -1.673265
-0.310488 5.612540 -1.661610
-0.335191 6.103447 -1.646594
-0.363460 6.645311 -1.619967
-0.396159 7.296319 -1.593005
-0.435254 8.075026 -1.560352
-0.523736 9.009480 -1.516396
-0.594230 10.262012 -1.475552
-0.680549 11.834610 -1.412443
-0.802507 14.053082 -1.339296
-0.972837 17.101969 -1.222150
-1.249959 22.128365 -1.057273
-1.716076 30.593676 -0.736345
0.005676 -0.145447 -0.004611
0.005676 -0.145447 -0.004611
0.005676 -0.145447 -0.004611
-4.568165 83.138588 5.781811
0.005676 -0.145447 -0.004611
0.005676 -0.145447 -0.004611
0.005676 -0.145447 -0.004611
0.005676 -0.145447 -0.004611
-3.028466 56.792576 10.705745
-0.023221 0.405984 -0.332390
-0.022694 0.399574 -0.311546
-0.023788 0.422419 -0.307259
-0.024400 0.438268 -0.298374
-0.025832 0.468389 -0.295870
-0.027518 0.505996 -0.295376
-0.027812 0.516262 -0.281705
-0.213126 4.194665 -1.704211
-0.226348 4.490079 -1.696748
-0.241410 4.810006 -1.684120
-0.257929 5.179713 -1.671480
-0.277658 5.620199 -1.663274
-0.300234 6.103487 -1.646095
-0.324226 6.643612 -1.619051
-0.354106 7.286902 -1.590512
-0.389405 8.077530 -1.560364
-0.471495 9.020426 -1.517711
-0.534383 10.265468 -1.475568
-0.611756 11.840519 -1.412695
-0.720446 14.049719 -1.338572
-0.873347 17.101507 -1.221758
-1.122671 22.151361 -1.058067
-1.528841 30.289455 -0.728940
0.005660 -0.145266 -0.004605
0.005660 -0.145266 -0.004605
-4.082491 82.421867 3.804785
0.005660 -0.145266 -0.004605
0.005660 -0.145266 -0.004605
0.005660 -0.145266 -0.004605
0.005660 -0.145266 -0.004605
-2.632654 54.751598 8.993814
0.005660 -0.145266 -0.004605
-0.019753 0.397722 -0.327280
-0.019581 0.398158 -0.310561
-0.020548 0.420990 -0.306314
-0.021137 0.438594 -0.298371
-0.022292 0.468728 -0.295867
-0.023697 0.504525 -0.294557
-0.024039 0.514767 -0.280929
-0.188076 4.194160 -1.703486
-0.199838 4.495257 -1.698123
-0.212758 4.807742 -1.682841
-0.227305 5.181312 -1.671486
-0.244671 5.625749 -1.664384
-0.264370 6.107244 -1.646610
-0.285251 6.647511 -1.619523
-0.310554 7.300800 -1.593025
-0.340840 8.083821 -1.561119
-0.421310 9.042841 -1.520976
-0.474231 10.262637 -1.474746
-0.545365 11.853868 -1.413880
-0.640811 14.043763 -1.337662
-0.773974 17.102467 -1.221507
-0.999409 22.181427 -1.059238
-1.309021 29.295237 -0.705138
0.005672 -0.145099 -0.004601
0.005672 -0.145099 -0.004601
0.005672 -0.145099 -0.004601
0.005672 -0.145099 -0.004601
0.005672 -0.145099 -0.004601
0.005672 -0.145099 -0.004601
0.005672 -0.145099 -0.004601
-2.316530 54.983379 9.029249
-2.492093 59.414074 11.192514
-0.016831 0.404917 -0.331360
-0.016444 0.400218 -0.311537
-0.017411 0.426603 -0.309130
-0.017702 0.438928 -0.298366
-0.018739 0.470865 -0.296719
-0.019959 0.504856 -0.294554
-0.020068 0.513264 -0.280153
-0.162298 4.193548 -1.702761
-0.172932 4.490904 -1.696072
-0.183483 4.811016 -1.683488
-0.195874 5.186583 -1.672686
-0.211256 5.621496 -1.662735
-0.227051 6.101184 -1.644587
-0.245907 6.641471 -1.617682
-0.267293 7.290935 -1.590534
-0.293649 8.089778 -1.561874
-0.367479 9.061144 -1.523595
-0.414537 10.269360 -1.475321
-0.474333 11.859076 -1.414133
-0.556263 14.035584 -1.336565
-0.673664 17.078924 -1.219570
-0.868281 22.217115 -1.060694
-1.109294 28.649374 -0.689650
0.005656 -0.144918 -0.004595
0.005656 -0.144918 -0.004595
0.005656 -0.144918 -0.004595
0.005656 -0.144918 -0.004595
0.005656 -0.144918 -0.004595
-2.598600 70.412514 8.212301
0.005656 -0.144918 -0.004595
-1.993693 54.836254 9.002967
-2.161702 60.052692 11.309804
-0.013788 0.408645 -0.333398
-0.013189 0.397028 -0.309572
-0.014057 0.425129 -0.308187
-0.014288 0.437442 -0.297463
-0.015162 0.469374 -0.295857
-0.016300 0.506997 -0.295363
-0.016603 0.522801 -0.284008
-0.137465 4.198336 -1.704222
-0.146352 4.493913 -1.696760
-0.154798 4.806512 -1.681568
-0.165351 5.191649 -1.673884
-0.178045 5.620908 -1.662188
-0.191115 6.102582 -1.644595
-0.206519 6.631309 -1.614916
-0.224610 7.294519 -1.590959
-0.246490 8.097438 -1.562998
0.005640 -0.144738 -0.004589
-0.354241 10.259905 -1.473659
-0.405569 11.869754 -1.415085
0.005640 -0.144738 -0.004589
0.005640 -0.144738 -0.004589
-0.740407 22.243902 -1.061771
-0.924443 28.071953 -0.675823
-1.335030 40.757294 -0.027438
0.005640 -0.144738 -0.004589
0.005640 -0.144738 -0.004589
0.005640 -0.144738 -0.004589
0.005640 -0.144738 -0.004589
0.005640 -0.144738 -0.004589
0.005640 -0.144738 -0.004589
-2.105824 68.840096 11.294874
-1.659647 54.910873 10.341262
-0.010578 0.407212 -0.332372
-0.010032 0.395561 -0.308587
-0.010895 0.428943 -0.310062
-0.011038 0.441290 -0.299256
-0.011667 0.471459 -0.296710
-0.012336 0.503639 -0.293731
-0.012663 0.519403 -0.282460
-0.112397 4.195543 -1.702768
-0.118963 4.498661 -1.698135
-0.126371 4.809418 -1.682214
-0.134464 5.185085 -1.671502
-0.143877 5.622068 -1.662194
-0.154794 6.088315 -1.640541
-0.166425 6.634570 -1.615387
-0.180580 7.297882 -1.591386
-0.198183 8.120572 -1.567095
-0.262450 9.094768 -1.528500
-0.292358 10.254111 -1.472558
-0.336985 11.889967 -1.417201
-0.358335 12.803388 -1.220361
0.005651 -0.144570 -0.004585
-0.611029 22.226030 -1.060774
-0.753105 27.743240 -0.667934
0.005651 -0.144570 -0.004585
0.005651 -0.144570 -0.004585
-2.143139 81.550499 3.760590
0.005651 -0.144570 -0.004585
-1.808117 70.751976 6.571770
0.005651 -0.144570 -0.004585
0.005651 -0.144570 -0.004585
-1.699524 68.950256 11.310892
0.005651 -0.144570 -0.004585
-0.007277 0.405758 -0.331346
-0.007035 0.404534 -0.313486
-0.007414 0.425672 -0.308178
-0.007655 0.445130 -0.301049
-0.008178 0.473533 -0.297562
-0.008625 0.503910 -0.293726
-0.008775 0.521521 -0.283228
-0.087498 4.200038 -1.704229
-0.092105 4.491961 -1.695398
-0.097918 4.812164 -1.682860
-0.103875 5.189788 -1.672701
-0.110557 5.615315 -1.659991
-0.118841 6.083513 -1.639024
-0.127274 6.627833 -1.613546
-0.139269 7.308756 -1.593479
-0.152229 8.129601 -1.568592
-0.207475 9.086505 -1.526887
-0.232718 10.263738 -1.473692
-0.265866 11.899906 -1.418152
-0.282193 12.831372 -1.222811
0.005635 -0.144390 -0.004579
-0.478476 22.229465 -1.060814
-0.593327 27.775301 -0.668649
-0.868184 41.282394 -0.027882
0.005635 -0.144390 -0.004579
-1.666487 81.228127 3.745063
-1.657147 82.214920 5.709135
-1.412333 70.737297 6.569426
0.005635 -0.144390 -0.004579
-1.305225 67.826286 9.510816
-1.276612 66.987495 10.987961
0.005635 -0.144390 -0.004579
-0.004123 0.400840 -0.328278
-0.003890 0.399544 -0.310539
-0.004167 0.420626 -0.305353
-0.004283 0.440010 -0.298349
-0.004639 0.468351 -0.294989
-0.005070 0.507808 -0.295351
-0.004994 0.518072 -0.281681
-0.063182 4.193225 -1.701316
-0.066300 4.496358 -1.696772
-0.070268 4.810948 -1.682222
-0.074213 5.194315 -1.673898
-0.078367 5.612195 -1.658893
-0.084114 6.084282 -1.639031
-0.089596 6.634484 -1.614940
-0.097637 7.305705 -1.592655
-0.105994 8.122675 -1.567116
-0.156049 9.089701 -1.527224
-0.174614 10.261119 -1.473147
-0.198422 11.885514 -1.416305
-0.228714 13.969797 -1.329554
-0.277585 17.104660 -1.220669
-0.352719 22.170069 -1.057928
-0.440036 27.930313 -0.672311
-0.641203 41.546761 -0.028101
0.005619 -0.144210 -0.004573
-1.215181 81.400162 3.752462
-1.194823 82.011620 5.694317
0.005619 -0.144210 -0.004573
0.005619 -0.144210 -0.004573
-0.907815 66.489944 9.322733
0.005619 -0.144210 -0.004573
0.005619 -0.144210 -0.004573
-0.000945 0.406216 -0.331339
-0.000754 0.406739 -0.314458
-0.000873 0.426144 -0.308169
-0.000777 0.436660 -0.296549
-0.000898 0.466779 -0.294127
-0.001245 0.509871 -0.296160
-0.001118 0.521995 -0.283220
-0.036780 4.201184 -1.704235
-0.038783 4.494998 -1.696091
-0.040037 4.813380 -1.682869
-0.041681 5.198696 -1.675097
-0.044269 5.612776 -1.658898
-0.046086 6.081017 -1.638023
-0.049408 6.633155 -1.614486
-0.052289 7.318107 -1.595166
-0.055618 8.129274 -1.568241
-0.101292 9.088689 -1.526913
-0.113048 10.270099 -1.474281
-0.126951 11.866838 -1.413991
-0.145185 13.979084 -1.330323
-0.175348 17.102228 -1.220416
-0.219835 22.106049 -1.054855
-0.270483 28.104635 -0.676453
0.005605 -0.144026 -0.004567
-0.681735 74.323715 1.682225
0.005605 -0.144026 -0.004567
-0.723176 83.759232 5.814965
0.005605 -0.144026 -0.004567
0.005605 -0.144026 -0.004567
-0.511797 66.335945 9.300427
-0.490174 66.641052 10.929222
0.005605 -0.144026 -0.004567
0.002231 0.399554 -0.327248
0.002442 0.401713 -0.311512
0.002407 0.424582 -0.307225
0.002516 0.442228 -0.299239
0.002597 0.468791 -0.294979
0.002638 0.508245 -0.295342
0.002710 0.516673 -0.280899
-0.011772 4.192224 -1.700594
-0.011309 4.495361 -1.696094
-0.011567 4.819425 -1.684796
-0.010925 5.187601 -1.671521
-0.010152 5.609300 -1.657799
-0.010295 6.081391 -1.638029
-0.009281 6.643269 -1.616805
-0.008082 7.322403 -1.596009
-0.006614 8.131639 -1.568623
-0.048307 9.105122 -1.529527
-0.051552 10.308420 -1.479606
-0.057757 11.847702 -1.411679
-0.063950 13.979883 -1.330346
-0.073195 17.111143 -1.221008
-0.091704 22.063215 -1.052817
-0.108125 28.125933 -0.676976
0.005616 -0.143858 -0.004563
-0.253247 74.254631 1.680457
0.005616 -0.143858 -0.004563
0.005616 -0.143858 -0.004563
0.005616 -0.143858 -0.004563
0.005616 -0.143858 -0.004563
0.005616 -0.143858 -0.004563
0.005616 -0.143858 -0.004563
0.005616 -0.143858 -0.004563
0.005460 0.404893 -0.330308
0.005664 0.396671 -0.308565
0.005754 0.421243 -0.305339
0.005982 0.442412 -0.299234
0.006099 0.468980 -0.294974
0.006381 0.504775 -0.293709
0.006620 0.518696 -0.281667
0.013196 4.199864 -1.703512
0.015374 4.495553 -1.696097
0.016970 4.817724 -1.684159
0.019726 5.178228 -1.668543
0.022902 5.603708 -1.656147
0.025528 6.087352 -1.639559
0.029732 6.639523 -1.615888
0.033603 7.338189 -1.599353
0.039536 8.129778 -1.568262
0.006491 9.103479 -1.529214
0.008556 10.316670 -1.480738
0.013280 11.828177 -1.409366
0.019727 13.978233 -1.330181
0.026135 17.185301 -1.226240
0.039805 22.021614 -1.050875
0.060813 31.807241 -0.764585
0.005600 -0.143678 -0.004557
0.187799 74.343002 1.682308
0.005600 -0.143678 -0.004557
0.005600 -0.143678 -0.004557
0.211433 64.707832 6.008492
0.005600 -0.143678 -0.004557
0.005600 -0.143678 -0.004557
0.005600 -0.143678 -0.004557
0.005600 -0.143678 -0.004557
0.008481 0.401627 -0.328260
0.008719 0.405552 -0.313464
0.008926 0.424935 -0.307216
0.009230 0.440790 -0.298332
0.009605 0.467337 -0.294113
0.009974 0.504942 -0.293704
0.010357 0.522538 -0.283208
0.038180 4.201787 -1.704243
0.041218 4.493725 -1.695415
0.045558 4.825327 -1.686728
0.050235 5.168698 -1.665562
0.055048 5.613296 -1.658914
0.061358 6.087306 -1.639565
0.067595 6.643348 -1.616819
0.005584 -0.143497 -0.004551
0.087152 8.133552 -1.569015
0.058111 9.113365 -1.530852
0.066801 10.306774 -1.479352
0.079936 11.814225 -1.407750
0.098507 13.984084 -1.330762
0.122702 17.177107 -1.225703
0.163238 21.997274 -1.049778
0.245041 31.872545 -0.766209
0.005584 -0.143497 -0.004551
0.005584 -0.143497 -0.004551
0.005584 -0.143497 -0.004551
0.005584 -0.143497 -0.004551
0.590534 65.402740 6.073003
0.607631 64.710114 7.542259
0.005584 -0.143497 -0.004551
0.644539 64.877808 10.640326
0.005584 -0.143497 -0.004551
0.011725 0.410365 -0.333363
0.011748 0.395247 -0.307575
0.012176 0.425090 -0.307210
0.012615 0.442719 -0.299226
0.013116 0.467475 -0.294109
0.013851 0.506901 -0.294515
0.014135 0.520839 -0.282431
0.063129 4.199845 -1.703516
0.068815 4.501112 -1.698160
0.073928 4.810028 -1.681601
0.080752 5.166617 -1.664969
0.088992 5.601543 -1.655606
0.097229 6.090932 -1.640585
0.108066 6.660543 -1.620987
0.120845 7.331839 -1.598118
0.136174 8.133105 -1.569024
0.111221 9.103224 -1.529237
0.128950 10.324215 -1.481884
0.148571 11.801849 -1.406369
0.180143 14.015344 -1.333773
0.225206 17.168318 -1.225167
0.290460 21.988190 -1.049436
0.431410 32.042755 -0.770353
0.005596 -0.143330 -0.004546
0.960434 69.182335 1.565333
0.984479 69.124329 3.186156
0.005596 -0.143330 -0.004546
0.005596 -0.143330 -0.004546
0.005596 -0.143330 -0.004546
0.005596 -0.143330 -0.004546
1.030766 64.938210 10.650870
1.073630 66.874260 12.583935
0.015069 0.415663 -0.336421
0.015027 0.400603 -0.310513
0.015517 0.423445 -0.306267
0.015932 0.435707 -0.295627
0.016842 0.473012 -0.296676
0.017530 0.505202 -0.293695
0.018073 0.520948 -0.282427
0.088770 4.194008 -1.701334
0.095459 4.498975 -1.697476
0.103200 4.805925 -1.680322
0.112189 5.164338 -1.664378
0.122048 5.603073 -1.656162
0.133972 6.080781 -1.638054
0.147184 6.660019 -1.620993
0.163956 7.337093 -1.599377
0.183781 8.132381 -1.569035
0.166220 9.114446 -1.531202
0.188920 10.311628 -1.480220
0.218970 11.781112 -1.404054
0.264459 14.038131 -1.336037
0.324604 17.158958 -1.224630
0.421710 21.994289 -1.049848
0.621904 32.029850 -0.770170
0.005580 -0.143150 -0.004540
0.005580 -0.143150 -0.004540
0.005580 -0.143150 -0.004540
0.005580 -0.143150 -0.004540
1.361875 65.690491 6.100467
1.229339 58.240047 6.790308
1.239196 58.197117 8.162186
0.005580 -0.143150 -0.004540
1.478762 67.238388 12.653587
0.018127 0.408893 -0.332333
0.018126 0.400725 -0.310507
0.018778 0.423552 -0.306263
0.019299 0.437598 -0.296521
0.020320 0.471310 -0.295814
0.021453 0.508947 -0.295320
0.021830 0.519204 -0.281650
0.113827 4.199225 -1.703521
0.122961 4.498536 -1.697479
0.131513 4.799770 -1.678402
0.142595 5.160000 -1.663188
0.156058 5.600522 -1.655616
0.169876 6.083973 -1.639076
0.187496 6.659229 -1.621001
0.208449 7.342054 -1.600637
0.232914 8.135285 -1.569787
0.219328 9.107617 -1.530238
0.250635 10.300633 -1.478837
0.287392 11.773908 -1.403371
0.346571 14.060472 -1.338300
0.427269 17.162916 -1.225080
0.550145 22.037634 -1.052053
0.807417 32.045929 -0.770699
0.927866 36.355373 -0.025620
0.005564 -0.142969 -0.004534
0.005564 -0.142969 -0.004534
1.530669 58.131088 4.037930
0.005564 -0.142969 -0.004534
1.562372 58.132938 6.778651
1.577136 57.905830 8.122444
0.005564 -0.142969 -0.004534
0.005564 -0.142969 -0.004534
0.021483 0.412426 -0.334370
0.021393 0.402558 -0.311483
0.022279 0.428935 -0.309078
0.022833 0.441258 -0.298313
0.023789 0.469588 -0.294953
0.025202 0.509015 -0.295316
0.025863 0.522957 -0.283190
0.138977 4.204284 -1.705710
0.149556 4.494192 -1.696113
0.159753 4.793460 -1.676481
0.173031 5.157388 -1.662595
0.188753 5.590140 -1.652858
0.205555 6.079235 -1.638066
0.005548 -0.142789 -0.004528
0.249970 7.335123 -1.599393
0.279012 8.132095 -1.569425
0.274342 9.114263 -1.531550
0.310382 10.289333 -1.477452
0.358412 11.786098 -1.405020
0.431508 14.084244 -1.340752
0.526426 17.148415 -1.224261
0.678751 21.942335 -1.047749
0.992392 32.036968 -0.770656
0.005548 -0.142789 -0.004528
2.093763 66.395401 1.502459
0.005548 -0.142789 -0.004528
0.005548 -0.142789 -0.004528
1.898316 58.801926 5.463088
1.955262 59.904251 6.985895
1.903953 57.684193 8.092686
2.106582 63.499001 10.419200
0.005548 -0.142789 -0.004528
0.024526 0.410781 -0.333345
0.024386 0.400887 -0.310499
0.025154 0.420186 -0.304374
0.026033 0.439535 -0.297411
0.027381 0.471450 -0.295806
0.028651 0.503589 -0.292869
0.029717 0.526688 -0.284730
0.164029 4.205487 -1.706440
0.175193 4.487860 -1.694059
0.188206 4.794557 -1.677125
0.203421 5.154607 -1.662001
0.221311 5.604562 -1.657282
0.241308 6.078164 -1.638070
0.264883 6.666810 -1.623324
0.293119 7.337675 -1.600234
0.326811 8.136452 -1.570547
0.005559 -0.142621 -0.004524
0.368343 10.281708 -1.476625
0.424774 11.780149 -1.404568
0.511734 14.107697 -1.343200
0.622477 17.135445 -1.223582
0.787347 21.535122 -1.028727
1.178427 32.058914 -0.771371
0.005559 -0.142621 -0.004524
0.005559 -0.142621 -0.004524
0.005559 -0.142621 -0.004524
2.223640 58.991699 4.098892
0.005559 -0.142621 -0.004524
2.322449 60.465946 7.052597
0.005559 -0.142621 -0.004524
0.005559 -0.142621 -0.004524
0.005559 -0.142621 -0.004524
0.028034 0.419433 -0.338446
0.027282 0.395724 -0.307552
0.028603 0.425530 -0.307190
0.029443 0.441373 -0.298305
0.030912 0.471485 -0.295802
0.032546 0.505442 -0.293680
0.033099 0.515655 -0.280095
0.188968 4.202807 -1.705714
0.202291 4.479445 -1.691321
0.216581 4.793605 -1.677128
0.233796 5.151648 -1.661408
0.254439 5.582232 -1.651210
0.277857 6.094265 -1.642645
0.305390 6.669217 -1.624255
0.337444 7.336009 -1.600243
0.376107 8.140472 -1.571670
0.377982 9.081389 -1.526690
0.429624 10.267673 -1.474962
0.493487 11.781685 -1.405049
0.594495 14.124619 -1.345089
0.724584 17.125687 -1.223185
0.895361 21.133244 -1.009986
1.366945 32.131721 -0.773324
0.005543 -0.142441 -0.004518
0.005543 -0.142441 -0.004518
0.005543 -0.142441 -0.004518
2.930892 67.194221 4.669069
0.005543 -0.142441 -0.004518
2.563257 58.004700 6.767500
0.005543 -0.142441 -0.004518
0.005543 -0.142441 -0.004518
2.905799 64.465843 12.141486
0.030959 0.410879 -0.333335
0.030797 0.402723 -0.311471
0.031871 0.423801 -0.306245
0.032648 0.436040 -0.295605
0.034437 0.471507 -0.295798
0.035726 0.494517 -0.288787
0.037245 0.521187 -0.282406
0.213932 4.201860 -1.705715
0.229412 4.489668 -1.695434
0.244794 4.788690 -1.675849
0.264518 5.156142 -1.663202
0.287448 5.582801 -1.651767
0.313885 6.096643 -1.643664
0.344867 6.673375 -1.625649
0.379423 7.340080 -1.601500
0.422592 8.144334 -1.572793
0.433082 9.089049 -1.528328
0.488473 10.243472 -1.471900
0.564223 11.780741 -1.405298
0.679868 14.138953 -1.346791
0.823681 17.117449 -1.222927
1.004350 20.770571 -0.993133
1.295425 26.761204 -0.645596
0.005527 -0.142261 -0.004512
0.005527 -0.142261 -0.004512
0.005527 -0.142261 -0.004512
2.962113 59.942596 4.166763
2.834638 57.138016 5.312151
2.861853 57.270950 6.683733
2.830347 56.230988 7.894495
2.877544 56.962585 9.354967
0.005527 -0.142261 -0.004512
0.034482 0.419490 -0.338437
0.033627 0.399278 -0.309504
0.035116 0.425581 -0.307180
0.035865 0.436055 -0.295601
0.037938 0.473318 -0.296649
0.039853 0.505457 -0.293670
0.040741 0.517493 -0.280857
0.237556 4.189645 -1.701345
0.254842 4.481010 -1.692697
0.272474 4.791246 -1.677133
0.294168 5.156688 -1.663803
0.320403 5.600511 -1.657294
0.349219 6.104648 -1.646208
0.382838 6.671562 -1.625653
0.421031 7.336101 -1.601089
0.468671 8.140100 -1.572429
0.484455 9.084724 -1.528012
0.546684 10.246724 -1.472750
0.630381 11.771669 -1.404612
0.759281 14.131168 -1.346435
0.919365 17.102840 -1.222245
1.102099 20.411753 -0.976463
1.411115 26.112864 -0.630357
1.441465 26.501245 -0.020144
0.005539 -0.142093 -0.004508
3.389856 62.025887 2.862351
0.005539 -0.142093 -0.004508
3.132555 56.731785 5.275879
3.146341 56.611652 6.608759
3.153531 56.374729 7.916861
3.184192 56.736992 9.320635
0.005539 -0.142093 -0.004508
0.037695 0.417778 -0.337410
0.037229 0.406245 -0.313422
0.038272 0.422050 -0.305296
0.039380 0.437831 -0.296494
0.041561 0.471494 -0.295787
0.043912 0.509063 -0.295295
0.045183 0.526665 -0.284712
0.264086 4.190186 -1.702076
0.282109 4.477757 -1.692013
0.302000 4.780243 -1.673930
0.326374 5.153098 -1.663210
0.353843 5.589128 -1.654536
0.005525 -0.141909 -0.004502
0.422985 6.665489 -1.624736
0.467232 7.343368 -1.603182
0.519673 8.145136 -1.573924
0.538762 9.075994 -1.527046
0.607750 10.235610 -1.471643
0.700963 11.767929 -1.404627
0.844755 14.142534 -1.347949
1.022244 17.109245 -1.223115
1.207433 20.127861 -0.963381
1.617167 26.874401 -0.648769
1.602172 26.540356 -0.020213
3.612844 59.782257 1.353969
3.376355 55.521034 2.563180
3.729700 61.169624 4.254421
3.672841 59.878338 5.569871
3.466223 56.165310 6.558970
0.005525 -0.141909 -0.004502
0.005525 -0.141909 -0.004502
0.005525 -0.141909 -0.004502
0.041232 0.422909 -0.340469
0.040931 0.414923 -0.318321
0.041727 0.425553 -0.307171
0.042819 0.439587 -0.297388
0.044971 0.469647 -0.294926
0.046699 0.494424 -0.288774
0.049613 0.535811 -0.288567
0.288862 4.186946 -1.701349
0.308674 4.476262 -1.692016
0.330545 4.782413 -1.675215
0.356921 5.153255 -1.663809
0.386919 5.589122 -1.655092
0.423087 6.098556 -1.645711
0.462376 6.667034 -1.625665
0.509888 7.334902 -1.601938
0.005509 -0.141729 -0.004496
0.591634 9.070978 -1.526730
0.666909 10.224247 -1.470537
0.770062 11.773824 -1.405806
0.927009 14.139637 -1.348154
1.121418 17.103291 -1.223137
1.314890 19.981247 -0.956804
1.775900 26.916733 -0.650046
1.758433 26.574831 -0.020275
0.005509 -0.141729 -0.004496
3.647050 54.757347 2.528784
3.869138 57.944160 4.031744
3.832539 57.084545 5.312250
3.798578 56.273514 6.573909
0.005509 -0.141729 -0.004496
3.816521 56.085270 9.220300
0.005509 -0.141729 -0.004496
0.044356 0.421150 -0.339444
0.044869 0.425311 -0.324202
0.045461 0.432563 -0.310926
0.046036 0.437756 -0.296485
0.048727 0.473193 -0.296635
0.051356 0.507104 -0.294471
0.054020 0.543082 -0.291650
0.313903 4.187265 -1.702080
0.336150 4.476437 -1.692703
0.359115 4.784419 -1.676500
0.387367 5.151319 -1.663812
0.421143 5.590770 -1.656201
0.458957 6.096228 -1.645715
0.502693 6.664389 -1.625670
0.554156 7.331964 -1.601944
0.616391 8.138918 -1.573941
0.644466 9.065661 -1.526414
0.728043 10.216367 -1.469990
0.839131 11.777328 -1.406753
1.008835 14.130302 -1.347797
1.223298 17.092569 -1.222879
1.431135 19.981529 -0.957208
1.934732 26.952150 -0.651179
1.920420 26.616013 -0.020346
0.005493 -0.141548 -0.004490
4.050457 55.953224 2.584905
4.059341 55.797112 3.884050
4.186703 57.269596 5.331543
4.091089 55.815060 6.522975
0.005493 -0.141548 -0.004490
4.259136 57.548031 9.464132
