# This PCD file was generated using the MATLAB® pcwrite function
# from Computer Vision Toolbox®.
# .PCD v.7 - Point Cloud Data file format
VERSION .7
FIELDS x y z
SIZE 4 4 4
TYPE F F F
COUNT 1 1 1
WIDTH 1588
HEIGHT 1
VIEWPOINT 0 0 0 1 0 0 0
POINTS 1588
DATA ascii
-6.698623 -6.395225 -1.516771
-7.666281 -7.310566 -1.483907
-9.035671 -8.609223 -1.452148
-10.607279 -10.095565 -1.360684
-12.963895 -12.324677 -1.244595
-15.633150 -14.852341 -0.998517
-15.781568 -14.982692 -0.498435
-15.939029 -15.121389 0.006517
0.001109 -0.022440 -0.000770
0.001109 -0.022440 -0.000770
-9.486736 -8.993918 0.916677
-9.745362 -9.232063 1.254749
0.001109 -0.022440 -0.000770
-21.974573 -20.765957 4.256546
-17.587299 -16.613073 3.979858
0.001109 -0.022440 -0.000770
-0.435125 -0.432427 -0.355591
-0.451374 -0.447394 -0.349324
-0.477796 -0.472097 -0.349835
-2.429812 -2.303992 -1.673298
-2.539586 -2.406232 -1.648478
-2.667621 -2.524602 -1.628132
-2.790960 -2.638431 -1.597467
-2.918541 -2.757009 -1.561341
-3.086488 -2.912314 -1.538461
-3.326683 -3.136070 -1.539026
-3.558169 -3.350324 -1.519510
-3.838402 -3.609851 -1.505666
-4.140669 -3.890945 -1.482443
-4.550362 -4.270655 -1.473830
-5.049778 -4.735172 -1.466759
-5.798023 -5.429597 -1.491959
-6.694586 -6.316020 -1.507403
-7.679210 -7.239038 -1.478373
-9.042970 -8.514537 -1.445233
-10.543373 -9.916501 -1.344977
-12.935507 -12.156892 -1.235190
-16.016684 -15.036588 -1.017342
-16.163591 -15.168986 -0.507770
-16.282581 -15.269850 0.006586
0.001093 -0.022266 -0.000764
-18.154724 -17.005074 1.166796
0.001093 -0.022266 -0.000764
-10.432428 -9.771481 1.336198
-17.816010 -16.659157 2.858073
-19.002159 -17.754354 3.660817
-10.527670 -9.843308 2.369644
0.001093 -0.022266 -0.000764
-0.441190 -0.433331 -0.358646
-0.458843 -0.449445 -0.353237
-0.485508 -0.474042 -0.353583
-2.442503 -2.290226 -1.673300
-2.554595 -2.392630 -1.649335
-2.679294 -2.506553 -1.626509
-2.802821 -2.620129 -1.595929
-2.945152 -2.750129 -1.567160
-3.087878 -2.880292 -1.530949
-3.332022 -3.105122 -1.533274
-3.587071 -3.338690 -1.523682
-3.846256 -3.575797 -1.500718
-4.154322 -3.859007 -1.479416
-4.576152 -4.245553 -1.474300
-5.043098 -4.673152 -1.456807
-5.840095 -5.404279 -1.494560
-6.709366 -6.259580 -1.502888
-7.681427 -7.158160 -1.470894
-9.043620 -8.420523 -1.437856
-10.531266 -9.795036 -1.336489
-12.917336 -12.000689 -1.226895
0.001076 -0.022093 -0.000758
-28.796694 -26.696856 -0.899268
-42.183151 -39.069126 0.018044
0.001076 -0.022093 -0.000758
0.001076 -0.022093 -0.000758
-9.608409 -8.901409 0.918448
-10.106756 -9.355350 1.287324
-10.906697 -10.090496 1.740086
-19.447437 -17.961445 3.726603
-17.952671 -16.571068 4.019066
0.001076 -0.022093 -0.000758
-0.447424 -0.434025 -0.361700
-0.460107 -0.445353 -0.352252
-0.492083 -0.474564 -0.356394
-2.457231 -2.276736 -1.674199
-2.555270 -2.365054 -1.640788
-2.701636 -2.498320 -1.631389
-2.811368 -2.597054 -1.592081
-2.951666 -2.723636 -1.562075
-3.090415 -2.849612 -1.524118
-3.308300 -3.046772 -1.514090
-3.602436 -3.313332 -1.521904
-3.838265 -3.527493 -1.489710
-4.165571 -3.823696 -1.475377
-4.604706 -4.222903 -1.475690
-5.062554 -4.637290 -1.454741
-5.757638 -5.267163 -1.465738
-6.722983 -6.198150 -1.497726
-7.697559 -7.090895 -1.466193
-9.053741 -8.330315 -1.431634
-10.530326 -9.678412 -1.329112
-12.902227 -11.849141 -1.219016
-16.845497 -15.452765 -1.058697
-28.848145 -26.428282 -0.896060
-42.883732 -39.261673 0.018122
0.001060 -0.021919 -0.000751
-10.442313 -9.564288 0.663556
-9.672600 -8.857912 0.919683
-17.025742 -15.563394 2.157554
0.001060 -0.021919 -0.000751
-23.573349 -21.517239 4.493489
0.001060 -0.021919 -0.000751
-20.209499 -18.424284 5.158316
-0.445996 -0.427787 -0.358636
-0.461245 -0.441352 -0.351269
-2.390024 -2.191232 -1.716093
-2.462199 -2.255186 -1.668822
-2.572756 -2.353766 -1.643354
-2.696872 -2.465391 -1.620013
-2.809715 -2.565801 -1.582842
-2.969921 -2.708931 -1.563533
-3.099676 -2.825296 -1.520704
-3.332665 -3.033870 -1.517294
-3.625586 -3.296201 -1.523694
-3.825546 -3.475541 -1.477052
-4.200318 -3.811150 -1.479937
-4.608562 -4.177917 -1.469253
-5.090492 -4.609214 -1.455166
-5.759988 -5.208775 -1.458727
-6.736486 -6.139290 -1.492889
-7.713201 -7.023671 -1.461490
-9.070490 -8.249886 -1.426801
-10.514872 -9.553299 -1.320255
-12.879867 -11.692814 -1.210582
-16.774073 -15.210580 -1.048753
-28.858763 -26.134232 -0.891799
-43.549362 -39.412544 0.018180
0.001072 -0.021755 -0.000747
0.001072 -0.021755 -0.000747
-9.650753 -8.736412 0.912791
-21.579796 -19.493555 2.720510
-10.237300 -9.253054 1.615870
-10.876143 -9.825641 2.062066
-11.162184 -10.076400 2.472544
-2.932137 -2.661797 0.744097
-0.453444 -0.429637 -0.362710
-0.457174 -0.432687 -0.346369
-2.374841 -2.152514 -1.696391
-2.468364 -2.234839 -1.664340
-2.582073 -2.335138 -1.640793
-2.722203 -2.458931 -1.626519
-2.824320 -2.549409 -1.582844
-2.964497 -2.672995 -1.552634
-3.126061 -2.815459 -1.525493
-3.331594 -2.998049 -1.508982
-3.631539 -3.263674 -1.518344
-3.863182 -3.467979 -1.483666
-4.193176 -3.760983 -1.469827
-4.589524 -4.111506 -1.455448
-5.120519 -4.581381 -1.456008
-5.799445 -5.182202 -1.460958
-6.755414 -6.085755 -1.489346
-7.722120 -6.948558 -1.455401
-9.080724 -8.164217 -1.421041
-10.532475 -9.459237 -1.315654
-12.874527 -11.549523 -1.203673
-16.768875 -15.031038 -1.043067
-28.910158 -25.879604 -0.888867
-44.216049 -39.541344 0.018228
0.001056 -0.021581 -0.000740
0.001056 -0.021581 -0.000740
-9.679915 -8.658948 0.910662
-10.025722 -8.961178 1.256856
-11.101392 -9.916771 1.743257
-2.718681 -2.443877 0.512303
-10.438826 -9.313205 2.300005
-2.944350 -2.642092 0.743352
-0.448128 -0.419920 -0.356589
-0.468739 -0.437896 -0.353219
-2.395361 -2.145252 -1.702023
-2.477437 -2.216428 -1.661651
-2.595769 -2.319600 -1.640794
-2.729352 -2.436993 -1.622457
-2.833722 -2.527556 -1.579767
-2.975974 -2.651498 -1.550458
-3.122346 -2.779837 -1.515930
-3.336400 -2.966780 -1.503231
-3.644958 -3.236861 -1.515970
-3.843993 -3.411194 -1.468806
-4.229778 -3.748679 -1.474894
-4.646576 -4.114443 -1.466048
-5.070318 -4.484447 -1.434427
-5.861526 -5.177124 -1.469103
-6.776490 -6.032322 -1.486126
-7.730755 -6.876229 -1.449586
-9.103559 -8.087669 -1.417132
-10.512215 -9.329126 -1.306239
-12.867439 -11.410287 -1.196905
-16.706434 -14.797497 -1.033769
-28.860710 -25.528822 -0.882773
0.001039 -0.021407 -0.000734
0.001039 -0.021407 -0.000734
-10.619116 -9.390814 0.664221
0.001039 -0.021407 -0.000734
0.001039 -0.021407 -0.000734
-11.191173 -9.878178 1.748118
0.001039 -0.021407 -0.000734
-18.613176 -16.397293 4.080577
0.001039 -0.021407 -0.000734
-0.450418 -0.417161 -0.356585
-0.471138 -0.435011 -0.353214
-2.402234 -2.126597 -1.698271
-2.492729 -2.204312 -1.663446
-2.600377 -2.297768 -1.635667
-2.733576 -2.412651 -1.616770
-2.843934 -2.507385 -1.577459
-2.992034 -2.635889 -1.551187
-3.172162 -2.791313 -1.532336
-3.362767 -2.956671 -1.507714
-3.642714 -3.198722 -1.507643
-3.850407 -3.377467 -1.463856
-4.233010 -3.709591 -1.468831
-4.649499 -4.069570 -1.459611
-5.115799 -4.473896 -1.440251
-5.864967 -5.122246 -1.462834
-6.794646 -5.978741 -1.482582
-7.735797 -6.801442 -1.443219
-9.110951 -8.000959 -1.411143
-10.472677 -9.187002 -1.294788
-12.856174 -11.268888 -1.189858
-16.681377 -14.604959 -1.027063
-20.408686 -17.857109 -0.621483
0.001024 -0.021230 -0.000728
0.001024 -0.021230 -0.000728
-10.687801 -9.345687 0.665224
-10.835938 -9.468250 1.009131
-19.810984 -17.286095 2.459339
0.001024 -0.021230 -0.000728
-2.874881 -2.523878 0.536289
-11.418996 -9.955527 2.490969
-2.980267 -2.612841 0.744828
-0.456541 -0.417837 -0.359638
-0.482661 -0.440202 -0.360065
-2.401935 -2.102575 -1.689827
-2.506223 -2.191364 -1.664345
-2.607983 -2.277853 -1.632248
-2.748670 -2.397907 -1.617586
-2.860559 -2.493718 -1.579003
-2.999969 -2.612372 -1.547557
-3.155332 -2.744591 -1.516621
-3.358086 -2.918528 -1.498124
-3.645037 -3.163818 -1.501102
-3.888578 -3.371403 -1.471023
-4.264442 -3.693830 -1.472380
-4.632902 -4.008291 -1.447185
-5.096127 -4.403770 -1.427390
-5.883182 -5.076964 -1.459890
-6.817335 -5.931516 -1.480333
-7.749238 -6.734591 -1.438517
-9.117813 -7.917301 -1.405382
-10.490541 -9.099576 -1.290742
-12.836156 -11.121477 -1.182117
-16.771544 -14.519332 -1.027668
-20.406584 -17.649017 -0.618383
-46.714478 -40.345154 0.018563
0.001035 -0.021070 -0.000723
-10.694392 -9.243409 0.662288
-11.438766 -9.878311 1.059971
0.001035 -0.021070 -0.000723
-10.761729 -9.285142 1.664438
-2.961311 -2.569111 0.549676
-11.540566 -9.941500 2.504582
-11.478291 -9.884513 2.855720
-0.453672 -0.410469 -0.355555
-0.482505 -0.434880 -0.358101
-2.407543 -2.082373 -1.685136
-2.506811 -2.165836 -1.656277
-2.618570 -2.259823 -1.630540
-2.757158 -2.376642 -1.614338
-2.869532 -2.471753 -1.575927
-3.008188 -2.588320 -1.543927
-3.181443 -2.734194 -1.521409
-3.389613 -2.910690 -1.504527
-3.630160 -3.113509 -1.487421
-3.887889 -3.330658 -1.463319
-4.252246 -3.639469 -1.460752
-4.617914 -3.947800 -1.435221
-5.130952 -4.380909 -1.429894
-5.877097 -5.011286 -1.451030
-6.829787 -5.871554 -1.475494
-7.754301 -6.658736 -1.432148
-9.123710 -7.828061 -1.399160
-10.513908 -9.011166 -1.287068
-12.828939 -10.982792 -1.175485
-16.684021 -14.271554 -1.017166
-20.600456 -17.604143 -0.621147
0.001019 -0.020896 -0.000717
0.001019 -0.020896 -0.000717
0.001019 -0.020896 -0.000717
-11.609422 -9.905857 1.070309
-20.021919 -17.056086 2.460154
-20.188908 -17.192114 3.107098
-2.878288 -2.467968 0.531540
-19.475039 -16.561569 4.205479
-11.379270 -9.682564 2.816743
-0.459834 -0.411015 -0.358611
-0.479565 -0.427412 -0.354180
-2.415323 -2.064881 -1.682323
-2.515016 -2.147737 -1.653589
-2.625886 -2.239873 -1.627123
-2.773073 -2.363391 -1.615965
-2.872309 -2.445498 -1.569768
-3.000134 -2.551566 -1.532300
-3.192199 -2.712597 -1.519365
-3.393155 -2.879965 -1.498774
-3.646435 -3.091161 -1.486832
-3.963672 -3.357018 -1.484803
-4.295199 -3.633447 -1.468350
-4.641252 -3.923042 -1.435691
-5.129754 -4.330635 -1.422845
-5.876251 -4.954227 -1.444019
-6.849774 -5.820508 -1.472599
-7.762479 -6.590884 -1.426892
-9.127525 -7.740619 -1.392938
-10.533505 -8.923358 -1.283210
-12.793899 -10.829742 -1.166771
-16.683331 -14.105536 -1.012217
-20.875525 -17.632113 -0.626431
0.001004 -0.020719 -0.000710
0.001004 -0.020719 -0.000710
0.001004 -0.020719 -0.000710
-11.618596 -9.802212 1.066071
-3.133521 -2.657523 0.382707
-24.788160 -20.858898 3.796458
-2.796392 -2.371421 0.513962
-18.793270 -15.802715 4.039099
-19.860918 -16.687439 4.892686
-0.463411 -0.409283 -0.359625
-0.492582 -0.433431 -0.362011
-2.429738 -2.053051 -1.684203
-2.532711 -2.137635 -1.657178
-2.633064 -2.219918 -1.623705
-2.785113 -2.346047 -1.615155
-2.881982 -2.425201 -1.567460
-2.997466 -2.519770 -1.523581
-3.206210 -2.692799 -1.518685
-3.408098 -2.859005 -1.498140
-3.662596 -3.068720 -1.486241
-3.976884 -3.329066 -1.482608
-4.309959 -3.603555 -1.466335
-4.680078 -3.909788 -1.440767
-5.130372 -4.280880 -1.416213
-5.928767 -4.940229 -1.449946
-6.866380 -5.766892 -1.469056
-7.766753 -6.517965 -1.420800
-9.130633 -7.653401 -1.386716
-10.561634 -8.843277 -1.280460
-12.730301 -10.650915 -1.155417
-16.530935 -13.814579 -0.998196
-20.927385 -17.470547 -0.625027
0.001015 -0.020558 -0.000706
-20.988453 -17.502855 0.641839
-20.384548 -16.987820 1.244268
-19.760141 -16.462278 1.804760
-21.847481 -18.186111 2.658911
-21.411945 -17.811331 3.263492
-2.849474 -2.388022 0.521210
-9.663112 -8.041351 2.066597
-19.814323 -16.454769 4.857763
-0.468300 -0.408625 -0.361660
-0.489603 -0.425956 -0.358088
-2.427789 -2.027601 -1.674821
-2.529684 -2.110330 -1.647316
-2.640098 -2.199949 -1.620287
-2.789981 -2.322834 -1.610282
-2.885795 -2.400185 -1.562072
-3.017570 -2.507036 -1.526492
-3.208487 -2.663369 -1.512538
-3.425838 -2.840375 -1.498785
-3.659430 -3.030438 -1.477915
-3.912688 -3.237575 -1.451776
-4.315557 -3.566235 -1.461284
-4.690361 -3.872734 -1.437091
-5.156318 -4.252353 -1.416639
-5.944821 -4.895888 -1.447002
-6.882609 -5.713271 -1.465512
-7.778055 -6.451543 -1.416099
-9.145308 -7.576522 -1.382344
-10.556944 -8.736540 -1.273822
-12.735863 -10.531593 -1.150452
-16.284794 -13.450865 -0.978715
-21.212618 -17.502260 -0.630587
0.001000 -0.020381 -0.000699
0.001000 -0.020381 -0.000699
-20.467953 -16.858652 1.243363
0.001000 -0.020381 -0.000699
-22.693216 -18.669285 2.748685
-3.170611 -2.624769 0.480478
-2.988601 -2.474440 0.544082
-11.579717 -9.519892 2.464822
0.001000 -0.020381 -0.000699
-0.461204 -0.398128 -0.354519
-0.483810 -0.416345 -0.352211
-2.433819 -2.008961 -1.671070
-2.536124 -2.091047 -1.643731
-2.651200 -2.183405 -1.619435
-2.797906 -2.301464 -1.607034
-2.902292 -2.385701 -1.563617
-3.031832 -2.489458 -1.526496
-3.216789 -2.638206 -1.509127
-3.443487 -2.821633 -1.499430
-3.690020 -3.020000 -1.483279
-3.997374 -3.267474 -1.476013
-4.322390 -3.530183 -1.456738
-4.707069 -3.839779 -1.435259
-5.187418 -4.226454 -1.418310
-5.984305 -4.869043 -1.449604
-6.892322 -5.654668 -1.460675
-7.788436 -6.382590 -1.411119
-9.153265 -7.494689 -1.377046
-10.562182 -8.638965 -1.268480
-12.750021 -10.416648 -1.146181
-16.110950 -13.152272 -0.963765
0.000984 -0.020207 -0.000693
-20.434139 -16.652187 0.007211
0.000984 -0.020207 -0.000693
-20.516478 -16.701349 1.240397
0.000984 -0.020207 -0.000693
-19.879986 -16.160847 2.396169
0.000984 -0.020207 -0.000693
0.000984 -0.020207 -0.000693
-3.062296 -2.502758 0.648322
-9.602798 -7.800486 2.331859
-0.475485 -0.404943 -0.363691
-0.479393 -0.407807 -0.347309
-2.434580 -1.985444 -1.663564
-2.540025 -2.069056 -1.638351
-2.676253 -2.178158 -1.627135
-2.805311 -2.280561 -1.603785
-2.907662 -2.361325 -1.558998
-3.040163 -2.467132 -1.523594
-3.221553 -2.611229 -1.504347
-3.446251 -2.790919 -1.493679
-3.686384 -2.981801 -1.474952
-3.988990 -3.222590 -1.466108
-4.372699 -3.529297 -1.466865
-4.735037 -3.817328 -1.437111
-5.195529 -4.185039 -1.414169
-5.814888 -4.678133 -1.402295
-6.910278 -5.601121 -1.457453
-7.791022 -6.310117 -1.405027
-9.161854 -7.411434 -1.371749
-10.530941 -8.509773 -1.258693
-12.649611 -10.213995 -1.131909
-15.990902 -12.897221 -0.952055
-21.233280 -17.112461 -0.625444
-20.462492 -16.480261 0.007124
-20.531166 -16.523678 0.618754
-20.752291 -16.695467 1.248774
-11.711670 -9.424530 1.054174
-20.039646 -16.105585 2.404498
-3.181773 -2.572858 0.477672
-2.949094 -2.384506 0.531801
-18.275265 -14.663218 3.854048
-9.526216 -7.647896 2.302533
-0.466878 -0.393519 -0.355530
-0.496543 -0.416918 -0.358076
-2.434462 -1.962843 -1.656059
-2.557021 -2.059127 -1.641940
-2.682976 -2.158040 -1.623717
-2.821127 -2.266483 -1.605415
-2.916347 -2.341444 -1.556690
-3.054219 -2.449412 -1.523596
-3.218771 -2.578432 -1.496148
-3.447324 -2.759068 -1.487286
-3.649538 -2.917624 -1.453531
-3.924529 -3.133677 -1.435825
-4.380691 -3.494288 -1.462826
-4.732410 -3.770502 -1.429752
-5.175658 -4.118767 -1.402138
-5.694429 -4.526320 -1.366815
-6.925878 -5.549992 -1.454234
-7.805409 -6.247719 -1.401158
-9.162560 -7.327825 -1.365758
-10.568801 -8.443263 -1.257610
0.000980 -0.019870 -0.000682
0.000980 -0.019870 -0.000682
-21.232706 -16.911402 -0.622620
0.000980 -0.019870 -0.000682
-20.668327 -16.444769 0.620056
-22.986603 -18.273928 1.376876
-22.722622 -18.051367 2.036392
-19.588558 -15.553295 2.339208
-19.371792 -15.375911 2.897600
-3.071309 -2.453411 0.551321
-3.112352 -2.484146 0.652862
-10.601024 -8.408609 2.550628
-0.473160 -0.393755 -0.358583
-0.481099 -0.399754 -0.345342
-2.440405 -1.943820 -1.652307
-2.560642 -2.037120 -1.636562
-2.684246 -2.132969 -1.616879
-2.822522 -2.240996 -1.598914
-2.924247 -2.319376 -1.553614
-3.064163 -2.427639 -1.521420
-3.243788 -2.567820 -1.500938
-3.472431 -2.745436 -1.491131
-3.659122 -2.889878 -1.450562
-4.025585 -3.176119 -1.466123
-4.334204 -3.415570 -1.440572
-4.787634 -3.769427 -1.439893
-5.177592 -4.071861 -1.396335
-5.700153 -4.477560 -1.362020
-6.939961 -5.493985 -1.450366
-7.814683 -6.181676 -1.396455
-9.163600 -7.240002 -1.359534
-5.534902 -4.377989 -0.655918
-5.519472 -4.364277 -0.489846
0.000963 -0.019696 -0.000676
-21.456659 -16.882664 -0.626305
-23.311638 -18.333841 0.007993
-20.545172 -16.148924 0.613414
-20.504023 -16.105049 1.222307
-22.915503 -17.990324 2.044310
-19.831228 -15.560521 2.357414
0.000963 -0.019696 -0.000676
0.000963 -0.019696 -0.000676
0.000963 -0.019696 -0.000676
-10.655243 -8.349066 2.551713
-0.482096 -0.396138 -0.363677
-0.481890 -0.395741 -0.344360
-2.452839 -1.930648 -1.653247
-2.569381 -2.019987 -1.634771
-2.700294 -2.121108 -1.619446
-2.823711 -2.215575 -1.592414
-2.952029 -2.313649 -1.561319
-3.070195 -2.404613 -1.517790
-3.262855 -2.552395 -1.502993
-3.492101 -2.729316 -1.493054
-3.706777 -2.893806 -1.463067
-3.967700 -3.093846 -1.438593
-4.293400 -3.344966 -1.420850
-4.749116 -3.695185 -1.421940
-5.192377 -4.036752 -1.394271
-5.704738 -4.429877 -1.357225
-6.952652 -5.439235 -1.446500
-7.826571 -6.118179 -1.392309
-9.164254 -7.155246 -1.353542
-5.523736 -4.317770 -0.651671
-5.497116 -4.295534 -0.485692
-5.518636 -4.309179 -0.324635
0.000947 -0.019522 -0.000669
0.000947 -0.019522 -0.000669
-20.337484 -15.797408 0.604423
-20.309273 -15.769860 1.205371
-24.627075 -19.104502 2.187134
-19.813763 -15.368963 2.345057
-3.051063 -2.382047 0.451811
-3.133602 -2.444205 0.557450
-3.263430 -2.543730 0.678514
0.000947 -0.019522 -0.000669
-0.475998 -0.386979 -0.357557
-0.489537 -0.397114 -0.348271
-2.466251 -1.918923 -1.655127
-2.584740 -2.008718 -1.637465
-2.702309 -2.097648 -1.613463
-2.827623 -2.192427 -1.587539
-2.963304 -2.295851 -1.560554
-3.091281 -2.392393 -1.521428
-3.256480 -2.517394 -1.493430
-3.516646 -2.715927 -1.496899
-3.721748 -2.871090 -1.462478
-3.970069 -3.059099 -1.433092
-4.333991 -3.336487 -1.427941
-4.768633 -3.666445 -1.421490
-5.185030 -3.981958 -1.385975
-5.654217 -4.337367 -1.339122
-6.962475 -5.384518 -1.442308
-5.640897 -4.363142 -0.999273
-5.639734 -4.360668 -0.829713
-5.547629 -4.286710 -0.651684
-5.477353 -4.229609 -0.481812
-5.564676 -4.295182 -0.325943
-5.564349 -4.291825 -0.161541
0.000958 -0.019362 -0.000665
-20.475965 -15.722458 0.605866
-20.513748 -15.740057 1.212060
-24.771364 -18.988985 2.190143
-23.195356 -17.769306 2.732805
-3.055135 -2.357040 0.450409
-3.234049 -2.492109 0.572785
-3.173290 -2.443894 0.656748
-10.788050 -8.257234 2.560928
-0.486410 -0.390215 -0.363669
-0.507020 -0.405654 -0.359039
-2.473251 -1.900883 -1.652314
-2.586534 -1.985610 -1.631189
-2.714576 -2.081418 -1.613467
-2.844452 -2.179260 -1.589981
-2.954714 -2.261327 -1.549001
-3.097874 -2.368221 -1.517797
-3.267807 -2.496172 -1.492067
-3.490271 -2.662823 -1.478993
-3.737075 -2.847643 -1.461889
-4.018148 -3.059235 -1.444115
-4.313439 -3.280227 -1.414795
-4.749161 -3.608268 -1.409526
-5.228047 -3.967205 -1.391385
-5.638186 -4.273799 -1.329521
-5.651355 -4.321008 -1.165580
-5.632706 -4.305247 -0.993452
-5.625849 -4.296920 -0.823940
-5.595054 -4.270430 -0.654288
-5.456993 -4.164064 -0.477935
-15.765870 -11.984166 -0.918028
-5.541785 -4.222345 -0.160178
0.000943 -0.019185 -0.000659
0.000943 -0.019185 -0.000659
-20.636862 -15.640900 1.213780
0.000943 -0.019185 -0.000659
-27.080578 -20.496149 3.176622
-21.035007 -15.913395 3.090185
-3.178698 -2.420762 0.560509
-3.270667 -2.488436 0.673957
-10.965362 -8.290003 2.591308
-0.489918 -0.388271 -0.364685
-0.485552 -0.384735 -0.342388
-2.485476 -1.887495 -1.653253
-2.597824 -1.970512 -1.631191
-2.716269 -2.057994 -1.607484
-2.850977 -2.158300 -1.586734
-2.966076 -2.243011 -1.548236
-3.114302 -2.352428 -1.519257
-3.266988 -2.465872 -1.485235
-3.537289 -2.666363 -1.492432
-3.763998 -2.833920 -1.466061
-4.032497 -3.033586 -1.443021
-4.315094 -3.242436 -1.409237
-4.729206 -3.550425 -1.397559
-5.220878 -3.914661 -1.383506
-5.616872 -4.207043 -1.318811
-5.628712 -4.252653 -1.155881
-5.606603 -4.234516 -0.984576
-9.195538 -6.927454 -1.340424
0.000926 -0.019011 -0.000652
-5.436094 -4.098880 -0.474054
-15.765722 -11.841541 -0.914091
-5.516278 -4.153047 -0.158769
-46.585659 -34.913536 0.015768
0.000926 -0.019011 -0.000652
-24.250847 -18.157751 1.420208
-20.935863 -15.672660 1.834761
-11.210440 -8.395238 1.308984
-11.190543 -8.374266 1.636599
-3.167091 -2.383296 0.556043
-3.264272 -2.454060 0.669731
-11.096308 -8.288836 2.610934
-0.493412 -0.386299 -0.365701
-2.413991 -1.812619 -1.689750
-2.484826 -1.864573 -1.645749
-2.596076 -1.945778 -1.623123
-2.723626 -2.038912 -1.604920
-2.861783 -2.140592 -1.585924
-2.974384 -2.222431 -1.545928
-3.123204 -2.330958 -1.517079
-3.280993 -2.446868 -1.485242
-3.515893 -2.618753 -1.477085
-3.804701 -2.830194 -1.475591
-3.986387 -2.963317 -1.420446
-4.341347 -3.223130 -1.411775
-4.733775 -3.511431 -1.392964
-5.269986 -3.904112 -1.390577
-5.594997 -4.140669 -1.308100
-5.610211 -4.188233 -1.147154
-5.583095 -4.166566 -0.976253
-9.176115 -6.830447 -1.331887
-10.656350 -7.923381 -1.234815
-5.454681 -4.063795 -0.473649
-15.725940 -11.670767 -0.907932
-5.490163 -4.084178 -0.157359
-11.345662 -8.416245 0.003299
0.000910 -0.018837 -0.000646
0.000910 -0.018837 -0.000646
0.000910 -0.018837 -0.000646
0.000910 -0.018837 -0.000646
-11.248034 -8.316640 1.637966
-3.279466 -2.437736 0.573329
-3.047878 -2.265314 0.622631
0.000910 -0.018837 -0.000646
-0.491439 -0.380130 -0.362637
-2.397868 -1.778497 -1.671147
-2.497171 -1.850663 -1.646688
-2.617568 -1.937560 -1.629402
-2.726444 -2.016624 -1.599793
-2.865476 -2.116928 -1.581049
-3.002282 -2.215483 -1.553636
-3.122914 -2.302876 -1.510541
-3.299909 -2.430510 -1.487296
-3.533875 -2.600528 -1.478369
-3.816185 -2.804701 -1.473813
-4.003766 -2.939459 -1.420454
-4.347216 -3.188792 -1.407736
-4.715070 -3.454475 -1.381459
-5.233732 -3.830933 -1.375224
-5.570951 -4.073532 -1.297019
-5.585489 -4.118531 -1.137133
-5.569249 -4.105104 -0.969599
-9.163468 -6.736989 -1.324274
-10.699800 -7.857543 -1.234475
-5.497884 -4.045352 -0.475329
0.000922 -0.018673 -0.000641
-5.456996 -4.011023 -0.155766
0.000922 -0.018673 -0.000641
0.000922 -0.018673 -0.000641
0.000922 -0.018673 -0.000641
-11.311669 -8.272408 0.982477
-22.738642 -16.603495 2.633021
-21.323944 -15.560276 3.092558
-22.142879 -16.145290 3.857029
-3.292107 -2.415973 0.669722
-20.147923 -14.676285 4.700974
-0.507367 -0.387315 -0.372830
-2.416136 -1.771052 -1.677024
-2.498762 -1.830314 -1.641061
-2.623899 -1.919598 -1.626714
-2.724718 -1.991187 -1.592100
-2.881944 -2.103441 -1.583491
-2.992068 -2.182299 -1.542085
-3.142045 -2.289061 -1.513454
-3.295445 -2.398104 -1.479098
-3.528693 -2.565564 -1.470059
-3.819773 -2.773585 -1.469057
-4.023635 -2.918442 -1.421563
-4.410929 -3.196343 -1.422416
-4.712673 -3.411183 -1.375019
-5.383325 -3.891041 -1.408456
-5.553382 -4.010438 -1.287418
-5.563564 -4.054673 -1.128081
-5.542954 -4.036787 -0.961000
-9.155760 -6.652952 -1.317819
-10.704676 -7.769511 -1.230057
-11.358047 -8.236510 -0.977146
-5.363990 -3.898466 -0.307573
-5.445859 -3.954782 -0.154814
0.000908 -0.018496 -0.000635
0.000908 -0.018496 -0.000635
0.000908 -0.018496 -0.000635
-22.010012 -15.884537 1.904183
-3.258126 -2.365965 0.375193
-21.706419 -15.648394 3.134873
-3.278575 -2.378093 0.568299
0.000908 -0.018496 -0.000635
-3.281864 -2.377842 0.762190
-0.505375 -0.381108 -0.369766
-2.415124 -1.748409 -1.669193
-2.509472 -1.815285 -1.641062
-2.626399 -1.897597 -1.621335
-2.730472 -1.970621 -1.588683
-2.882004 -2.078149 -1.576991
-3.012369 -2.169700 -1.545939
-3.141813 -2.260470 -1.506914
-3.296846 -2.370197 -1.473635
-3.502076 -2.514725 -1.452791
-3.811167 -2.732986 -1.459539
-4.040262 -2.895064 -1.421570
-4.393433 -3.144161 -1.410787
-4.732121 -3.383838 -1.375028
-5.207748 -3.719318 -1.356973
-5.531405 -3.946375 -1.277076
-5.548905 -3.993855 -1.120323
-5.525753 -3.975811 -0.954066
-9.156173 -6.570626 -1.312288
-5.373951 -3.861456 -0.615265
0.000891 -0.018322 -0.000628
-5.349503 -3.839721 -0.305454
0.000891 -0.018322 -0.000628
0.000891 -0.018322 -0.000628
-28.277201 -20.178013 0.815102
-28.251202 -20.144600 1.626450
-22.120457 -15.771342 1.905798
0.000891 -0.018322 -0.000628
-22.239046 -15.832365 3.198141
-12.084794 -8.608851 2.087377
-12.122251 -8.629104 2.446567
-3.299021 -2.360436 0.762927
-0.510254 -0.380013 -0.371802
-2.433596 -1.740341 -1.675069
-2.518313 -1.799629 -1.640127
-2.641531 -1.885381 -1.624030
-2.744639 -1.956779 -1.590395
-2.896805 -2.063460 -1.578620
-3.026202 -2.153224 -1.546714
-3.156196 -2.243249 -1.507645
-3.304167 -2.346689 -1.470906
-3.525692 -2.500900 -1.456635
-3.811099 -2.699859 -1.453594
-4.042601 -2.861637 -1.416620
-4.408166 -3.116437 -1.409785
-4.705209 -3.323942 -1.361682
-5.331460 -3.761044 -1.383561
-5.512073 -3.884962 -1.267474
-5.523353 -3.927484 -1.110624
-5.506374 -3.914046 -0.946856
-9.158032 -6.492434 -1.307221
-5.365085 -3.808462 -0.611757
-5.359605 -3.803170 -0.457715
-5.368150 -3.806395 -0.305280
-18.664341 -13.178063 -0.524705
-28.383759 -20.023327 0.008719
-28.294655 -19.945719 0.812199
-24.151386 -17.015139 1.384608
-22.298874 -15.705607 1.913297
-3.302872 -2.340558 0.377234
-3.303679 -2.339394 0.472733
-3.290956 -2.329607 0.565780
0.000875 -0.018148 -0.000622
-3.566693 -2.519510 0.821513
-0.495418 -0.365062 -0.359561
-2.437752 -1.722140 -1.671155
-2.524201 -1.781892 -1.637313
-2.639055 -1.860757 -1.615959
-2.763149 -1.945955 -1.594674
-2.904022 -2.043449 -1.576185
-3.014200 -2.118724 -1.534393
-3.155186 -2.215295 -1.501107
-3.329863 -2.336047 -1.476379
-3.561679 -2.495552 -1.465598
-3.842147 -2.688606 -1.459553
-4.060467 -2.839253 -1.417178
-4.435468 -3.097463 -1.412828
-4.728957 -3.299965 -1.363073
-5.286975 -3.684435 -1.366547
-5.493858 -3.825015 -1.258241
-5.505321 -3.867194 -1.102543
-5.484884 -3.851484 -0.939366
0.000885 -0.017988 -0.000617
-5.393350 -3.781909 -0.612509
-5.417298 -3.797205 -0.460784
-5.409536 -3.788974 -0.306403
-18.419794 -12.847451 -0.515812
-28.664185 -19.974918 0.008687
-42.937874 -29.890146 1.227752
-24.407921 -16.986328 1.393625
-22.531305 -15.675921 1.925414
-22.230646 -15.455474 2.531767
0.000885 -0.017988 -0.000617
-3.289554 -2.300301 0.563265
-3.022440 -2.113459 0.604748
-12.106884 -8.403644 2.778365
-0.496004 -0.361052 -0.358537
-2.441777 -1.703948 -1.667240
-2.541581 -1.772175 -1.642007
-2.634911 -1.835217 -1.606992
-2.780169 -1.933945 -1.598097
-2.911126 -2.023417 -1.573749
-3.024738 -2.100116 -1.533626
-3.169321 -2.197983 -1.501838
-3.336951 -2.312414 -1.473650
-3.547770 -2.455525 -1.454088
-3.857451 -2.666280 -1.459560
-4.095660 -2.828722 -1.423795
-4.414822 -3.045453 -1.400693
-4.759025 -3.280217 -1.366305
-5.396781 -3.714571 -1.389399
-5.478353 -3.767642 -1.249748
-5.486774 -3.807242 -1.094463
-5.467743 -3.792675 -0.932709
-5.341599 -3.702852 -0.756695
-5.441159 -3.768720 -0.615484
-5.450457 -3.773724 -0.461769
-15.636937 -10.784056 -0.880968
-17.267752 -11.897914 -0.481719
0.000871 -0.017811 -0.000611
-39.574379 -27.213427 1.126915
-24.824640 -17.064833 1.411728
-29.376535 -20.182915 2.500488
-25.068075 -17.212633 2.843583
-3.349847 -2.314350 0.475517
-3.286305 -2.269968 0.560472
0.000871 -0.017811 -0.000611
-3.351948 -2.311499 0.765878
-0.502243 -0.360923 -0.361591
-2.439903 -1.681837 -1.659409
-2.544324 -1.752380 -1.637318
-2.637919 -1.814825 -1.602512
-2.785180 -1.913668 -1.594679
-2.915063 -2.001320 -1.569687
-3.039728 -2.084574 -1.535170
-3.181798 -2.179542 -1.501843
-3.334557 -2.282441 -1.466819
-3.563313 -2.435959 -1.454733
-3.878957 -2.648146 -1.461947
-4.129281 -2.816798 -1.429860
-4.456207 -3.036096 -1.408291
-4.764822 -3.243876 -1.362630
-5.353147 -3.639432 -1.372798
-5.457517 -3.707260 -1.240145
-5.466091 -3.746523 -1.086058
-5.456642 -3.738668 -0.927165
-5.324968 -3.646149 -0.751383
0.000854 -0.017637 -0.000605
0.000854 -0.017637 -0.000605
-15.625959 -10.644286 -0.876935
-17.506142 -11.913941 -0.486498
0.000854 -0.017637 -0.000605
-39.602837 -26.898626 1.123179
-24.990128 -16.967506 1.415496
-24.919531 -16.913250 2.112646
-25.128698 -17.042242 2.839224
-22.347124 -15.146419 3.162487
-3.264792 -2.227527 0.554612
-3.157560 -2.153347 0.626825
-12.235209 -8.285409 2.785717
-0.509915 -0.361702 -0.365667
-2.453787 -1.670514 -1.662348
-2.549873 -1.734576 -1.634505
-2.643774 -1.796446 -1.599823
-2.787046 -1.891383 -1.589551
-2.913107 -1.974666 -1.562375
-3.045438 -2.062760 -1.532093
-3.189561 -2.157903 -1.499666
-3.351040 -2.264552 -1.468192
-3.561435 -2.404688 -1.448341
-3.873407 -2.611796 -1.454215
-4.134616 -2.784609 -1.426013
-4.475107 -3.011310 -1.408806
-4.829170 -3.245679 -1.375537
-5.424972 -3.641137 -1.385684
-5.443334 -3.650657 -1.232021
-5.451475 -3.690563 -1.078946
-5.435900 -3.677317 -0.919953
-5.306201 -3.588661 -0.745840
-10.694482 -7.209079 -1.199661
-5.277027 -3.563679 -0.443584
-5.266529 -3.555271 -0.294857
-17.365120 -11.672446 -0.480764
0.000865 -0.017477 -0.000600
-39.672161 -26.613356 1.120664
-25.073988 -16.814362 1.414673
-25.039156 -16.778366 2.114252
-28.888824 -19.340563 3.251055
-10.288462 -6.896945 1.450070
-3.386524 -2.280576 0.573012
-3.088102 -2.079632 0.610582
0.000865 -0.017477 -0.000600
-0.513376 -0.359454 -0.366683
-2.459198 -1.652863 -1.659412
-2.552652 -1.714368 -1.629815
-2.660233 -1.784519 -1.603414
-2.799615 -1.875651 -1.590409
-2.910622 -1.948603 -1.555061
-3.042125 -2.034298 -1.524393
-3.186663 -2.128491 -1.492400
-3.373341 -2.251274 -1.472296
-3.562900 -2.374986 -1.443227
-3.885541 -2.586502 -1.453031
-4.160099 -2.766956 -1.429325
-4.428210 -2.941892 -1.388573
-4.836287 -3.210161 -1.372323
-5.319974 -3.526745 -1.353716
-5.419837 -3.589901 -1.222048
-5.428782 -3.628497 -1.070217
-5.418941 -3.620577 -0.913574
0.000850 -0.017299 -0.000594
0.000850 -0.017299 -0.000594
-5.272419 -3.516531 -0.441510
-5.250791 -3.499519 -0.292829
-17.123903 -11.363700 -0.472274
-18.902895 -12.537641 0.005207
-20.069206 -13.300038 0.564339
-40.078880 -26.522659 2.252547
-25.196774 -16.674551 2.119358
0.000850 -0.017299 -0.000594
0.000850 -0.017299 -0.000594
0.000850 -0.017299 -0.000594
-2.981302 -1.983444 0.587197
0.000850 -0.017299 -0.000594
-0.498094 -0.344981 -0.354441
-2.461293 -1.633717 -1.654517
-2.568303 -1.703340 -1.633570
-2.658406 -1.761164 -1.596241
-2.797824 -1.851908 -1.583572
-2.936983 -1.941657 -1.563194
-3.045981 -2.011519 -1.520544
-3.203084 -2.113556 -1.494585
-3.373548 -2.223429 -1.466834
-3.577573 -2.355936 -1.443874
-3.883848 -2.554159 -1.447084
-4.175864 -2.742793 -1.429331
-4.444454 -2.916968 -1.388582
-4.849707 -3.178909 -1.370949
-5.277177 -3.456252 -1.337945
-5.405099 -3.536906 -1.214293
-5.411543 -3.572097 -1.062782
-5.404813 -3.566338 -0.907751
-5.397404 -3.558766 -0.752805
-5.270218 -3.472700 -0.586998
0.000834 -0.017126 -0.000587
-5.284102 -3.477837 -0.293582
-17.245510 -11.306128 -0.473929
0.000834 -0.017126 -0.000587
-39.859676 -26.068970 1.117043
-40.152576 -26.250368 2.248304
-3.748008 -2.464483 0.313612
-3.342770 -2.199082 0.372920
-3.767912 -2.474645 0.526714
-3.163475 -2.078920 0.531175
-2.988921 -1.964454 0.586543
0.000834 -0.017126 -0.000587
-0.501387 -0.342947 -0.355455
-2.462940 -1.615049 -1.649625
-2.567305 -1.682080 -1.627003
-2.671106 -1.748070 -1.598037
-2.800776 -1.830677 -1.579298
-2.940352 -1.919580 -1.559132
-3.041544 -1.984306 -1.512845
-3.208825 -2.090878 -1.491682
-3.384621 -2.202778 -1.466154
-3.603724 -2.343354 -1.448997
-3.869493 -2.512972 -1.436376
-4.180159 -2.711259 -1.425484
-4.420408 -2.864972 -1.375939
-4.869456 -3.151833 -1.371420
-5.368235 -3.470237 -1.355815
-5.387838 -3.480189 -1.205800
-5.399820 -3.521275 -1.056644
-5.380283 -3.505909 -0.900260
0.000817 -0.016952 -0.000581
-5.316173 -3.460382 -0.589973
-5.320714 -3.460698 -0.442227
-5.321798 -3.460059 -0.294612
-16.722446 -10.826647 -0.457907
0.000817 -0.016952 -0.000581
-39.954021 -25.813461 1.115515
-40.254177 -25.987322 2.245465
-3.738575 -2.427558 0.311647
-3.367376 -2.186596 0.374219
-3.690134 -2.393606 0.513903
-23.822548 -15.345236 3.987978
-11.809975 -7.610346 2.309910
0.000817 -0.016952 -0.000581
-0.509092 -0.343514 -0.359531
-2.472393 -1.600233 -1.649625
-2.575628 -1.665713 -1.626068
-2.679831 -1.731061 -1.597142
-2.808422 -1.811926 -1.577591
-2.936169 -1.892110 -1.551006
-3.054724 -1.967054 -1.513619
-3.210076 -2.064626 -1.486597
-3.378493 -2.170381 -1.457957
-3.587085 -2.302431 -1.436847
-3.903543 -2.502122 -1.443527
-4.179857 -2.675927 -1.419982
-4.453541 -2.848927 -1.381008
-4.886310 -3.121693 -1.370969
-5.362185 -3.421400 -1.349182
-5.373447 -3.425889 -1.198044
-5.383948 -3.465604 -1.049532
-5.364167 -3.450295 -0.894159
-5.235321 -3.366538 -0.724822
-5.346566 -3.435062 -0.591096
0.000828 -0.016792 -0.000576
-15.578403 -9.964183 -0.857975
-16.882328 -10.788440 -0.460572
0.000828 -0.016792 -0.000576
-18.702118 -11.935660 0.519829
-40.387230 -25.735165 2.244219
-33.685848 -21.451296 2.801390
-3.375150 -2.163213 0.373656
-3.793033 -2.427976 0.526236
0.000828 -0.016792 -0.000576
-3.335091 -2.133650 0.649534
0.000828 -0.016792 -0.000576
-0.525530 -0.349587 -0.369723
-2.481458 -1.585807 -1.649628
-2.570146 -1.641253 -1.616685
-2.688122 -1.714485 -1.596249
-2.809532 -1.789766 -1.572463
-2.940406 -1.871622 -1.547758
-3.061216 -1.946312 -1.511312
-3.204450 -2.035029 -1.478605
-3.401609 -2.158323 -1.462746
-3.587358 -2.273496 -1.431734
-3.883858 -2.458091 -1.431031
-4.191374 -2.650337 -1.418888
-4.414057 -2.788093 -1.363811
-4.921692 -3.105582 -1.376047
-5.372831 -3.386047 -1.347115
-5.359062 -3.374811 -1.190659
-5.363690 -3.409062 -1.041772
-5.346424 -3.396847 -0.888057
0.000815 -0.016611 -0.000570
0.000815 -0.016611 -0.000570
0.000815 -0.016611 -0.000570
-15.635375 -9.874207 -0.858020
-16.830700 -10.619535 -0.457543
-18.226452 -11.494342 0.004708
-19.208687 -12.103475 0.531923
-33.583313 -21.131763 1.859166
0.000815 -0.016611 -0.000570
-3.707484 -2.345385 0.409042
-3.769843 -2.382703 0.521109
-2.785895 -1.764599 0.462569
-3.331788 -2.105409 0.646605
-3.520321 -2.221861 0.783270
-0.524528 -0.344562 -0.367680
-2.486010 -1.568555 -1.646692
-2.574979 -1.623448 -1.613871
-2.685734 -1.691238 -1.589074
-2.821234 -1.774349 -1.573321
-2.940512 -1.847213 -1.542069
-3.069124 -1.926545 -1.509776
-3.216036 -2.016371 -1.478608
-3.417435 -2.139927 -1.464119
-3.619599 -2.264643 -1.439417
-3.902695 -2.438555 -1.432824
-4.177499 -2.607033 -1.408982
-4.457876 -2.779808 -1.372423
-4.880355 -3.039288 -1.359473
-5.311187 -3.303519 -1.326775
-5.333761 -3.314890 -1.180684
-5.344622 -3.353929 -1.034337
-5.332768 -3.343948 -0.882511
-5.204436 -3.262606 -0.715352
-10.765162 -6.725264 -1.180933
-5.212323 -3.262458 -0.428495
0.000799 -0.016437 -0.000564
-16.027197 -9.984858 -0.434209
-17.263096 -10.745112 0.004364
-18.673292 -11.616968 0.515169
0.000799 -0.016437 -0.000564
-25.027475 -15.539997 2.066064
-3.750013 -2.341020 0.412203
-22.881685 -14.192460 3.153875
-2.732213 -1.708272 0.451970
0.000799 -0.016437 -0.000564
-3.708507 -2.309908 0.822199
-0.511806 -0.332252 -0.357479
-2.492195 -1.551791 -1.644736
-2.590472 -1.611681 -1.617628
-2.703212 -1.679807 -1.593563
-2.832834 -1.758863 -1.574180
-2.949435 -1.829138 -1.541260
-3.070969 -1.902342 -1.505156
-3.222715 -1.994741 -1.476433
-3.432789 -2.122027 -1.465492
-3.588863 -2.216862 -1.422149
-3.903548 -2.407904 -1.428068
-4.202185 -2.588799 -1.412294
-4.490220 -2.764031 -1.377491
-4.791399 -2.946007 -1.330001
-5.409594 -3.322617 -1.346722
-5.318518 -3.264424 -1.173300
-5.334072 -3.303373 -1.028521
-5.311360 -3.288103 -0.875853
-5.194818 -3.213826 -0.711429
-5.174676 -3.198922 -0.565928
-5.258094 -3.248964 -0.430732
0.000782 -0.016263 -0.000557
-16.125193 -9.917404 -0.435357
-18.292830 -11.239492 0.004586
-18.588341 -11.411828 0.510896
-42.036324 -25.775843 2.310431
-24.971777 -15.306999 2.054091
-24.833651 -15.216429 2.722953
-22.812078 -13.968148 3.133092
-2.757124 -1.701642 0.454477
-3.731194 -2.295985 0.719008
-12.350841 -7.555442 2.729459
-0.516507 -0.331002 -0.359514
-2.491809 -1.532238 -1.638861
-2.597825 -1.596113 -1.616692
-2.714002 -1.665440 -1.594462
-2.828925 -1.733905 -1.566485
-2.947012 -1.804893 -1.534759
-3.067239 -1.876393 -1.498227
-3.224508 -1.970187 -1.472073
-3.438081 -2.098758 -1.462761
-3.663060 -2.233283 -1.446467
-3.909076 -2.380291 -1.425099
-4.186849 -2.547239 -1.402387
-4.414856 -2.682959 -1.349668
-4.819343 -2.926093 -1.333235
-5.328016 -3.230630 -1.321812
-5.305143 -3.214314 -1.166284
-5.311867 -3.248764 -1.020761
-5.300780 -3.240737 -0.871139
-5.175241 -3.161916 -0.706347
0.000793 -0.016103 -0.000553
-11.999195 -7.300649 -0.978837
-5.137396 -3.132761 -0.279374
-16.383694 -9.946564 -0.440822
-18.124247 -10.997170 0.004470
-18.393347 -11.151420 0.503761
-46.541111 -28.169069 2.548992
-25.135252 -15.214746 2.060458
-24.907072 -15.064877 2.721390
-22.936209 -13.863178 3.139078
0.000793 -0.016103 -0.000553
-3.661450 -2.224368 0.703092
-12.591000 -7.602739 2.772807
-0.528635 -0.334057 -0.366649
-2.504964 -1.520397 -1.641802
-2.597791 -1.575508 -1.611063
-2.717308 -1.645948 -1.590877
-2.827904 -1.710920 -1.560502
-2.957577 -1.787207 -1.534762
-3.068416 -1.852841 -1.493607
-3.235702 -1.951423 -1.472078
-3.450357 -2.078172 -1.462767
-3.679024 -2.213931 -1.447752
-3.907863 -2.348776 -1.419747
-4.185267 -2.512352 -1.396886
-4.451752 -2.670211 -1.356253
-4.823156 -2.889319 -1.329557
-5.289828 -3.164792 -1.307700
-5.288536 -3.161535 -1.158528
-5.294858 -3.196629 -1.013973
-5.282427 -3.186670 -0.865038
-5.155789 -3.109426 -0.701264
-5.145521 -3.100815 -0.558907
0.000778 -0.015926 -0.000546
0.000778 -0.015926 -0.000546
0.000778 -0.015926 -0.000546
-17.900639 -10.716956 0.004340
-18.968626 -11.350844 0.517684
-46.566845 -27.819723 2.541455
-25.439089 -15.193066 2.077881
-24.947969 -14.888232 2.716101
-23.044518 -13.748095 3.142968
-2.803602 -1.685652 0.458933
-3.706714 -2.221620 0.709255
-3.669848 -2.198828 0.805124
-0.524602 -0.327230 -0.362565
-2.515346 -1.506231 -1.642783
-2.605469 -1.559008 -1.610127
-2.700784 -1.614155 -1.575630
-2.848518 -1.700885 -1.566491
-2.958288 -1.764406 -1.529887
-3.074474 -1.831631 -1.491300
-3.246768 -1.932607 -1.472083
-3.460565 -2.057146 -1.462087
-3.665502 -2.177154 -1.437520
-3.931114 -2.331882 -1.423324
-4.166439 -2.468544 -1.385876
-4.527003 -2.679692 -1.374479
-4.836259 -2.859370 -1.328645
-5.258388 -3.106315 -1.295666
-5.278884 -3.115878 -1.152622
-5.281370 -3.145890 -1.007831
-5.269933 -3.137868 -0.860046
-5.148397 -3.063455 -0.697802
-5.131147 -3.050825 -0.555397
-11.958118 -7.085501 -0.968750
-5.185518 -3.079290 -0.280043
0.000762 -0.015752 -0.000540
-17.667370 -10.439816 0.004211
-18.258669 -10.780074 0.496483
-40.911896 -24.124939 2.225034
-40.916348 -24.108297 3.330863
-24.790329 -14.607218 2.689955
-23.309801 -13.724857 3.168272
-2.828527 -1.678356 0.461439
-3.410975 -2.019815 0.650479
-3.682370 -2.177497 0.805119
-0.526345 -0.324120 -0.362561
-2.508563 -1.483199 -1.632993
-2.603637 -1.537575 -1.603559
-2.708116 -1.597986 -1.574736
-2.840989 -1.674268 -1.557086
-2.963546 -1.744429 -1.527453
-3.086466 -1.814665 -1.492075
-3.259362 -1.914653 -1.472815
-3.467383 -2.034187 -1.460042
-3.658589 -2.143779 -1.429849
-3.953020 -2.313163 -1.426309
-4.168842 -2.437598 -1.382028
-4.497526 -2.626411 -1.360824
-4.854709 -2.831452 -1.329116
-5.263621 -3.066138 -1.292353
-5.258064 -3.061693 -1.144125
-5.266367 -3.097271 -1.001692
-5.255321 -3.088328 -0.854777
-5.141325 -3.020467 -0.694571
-5.120492 -3.005907 -0.552442
-11.957221 -6.992284 -0.965446
-5.208234 -3.052250 -0.280332
-15.529954 -9.065804 -0.413750
0.000773 -0.015592 -0.000535
-18.327229 -10.678684 0.496620
-49.313465 -28.683149 2.672622
0.000773 -0.015592 -0.000535
-41.032963 -23.840675 4.437183
-24.430195 -14.189322 3.309022
-2.804087 -1.641510 0.455860
-3.392068 -1.981577 0.644629
-3.673026 -2.142648 0.800294
-2.444498 -1.426715 -1.674013
-2.514470 -1.465938 -1.631036
-2.612618 -1.521936 -1.603562
-2.720825 -1.583035 -1.576533
-2.849191 -1.656325 -1.556236
-2.973758 -1.726649 -1.527455
-3.087480 -1.790641 -1.487456
-3.262483 -1.890485 -1.469184
-3.479297 -2.013417 -1.460046
-3.693790 -2.135719 -1.438812
-3.967838 -2.291152 -1.426910
-4.184802 -2.413616 -1.382586
-4.436925 -2.557037 -1.338059
-4.902940 -2.821658 -1.337878
-5.222824 -3.003521 -1.278241
-5.246505 -3.014627 -1.137848
-5.250896 -3.045173 -0.995226
-5.232285 -3.033192 -0.848117
0.000756 -0.015418 -0.000529
-5.161096 -2.987341 -0.554861
-11.930953 -6.882277 -0.960053
-15.345725 -8.840382 -0.822075
-15.645741 -9.009274 -0.415449
0.000756 -0.015418 -0.000529
-18.575680 -10.676161 0.501583
0.000756 -0.015418 -0.000529
0.000756 -0.015418 -0.000529
-24.907288 -14.286572 2.684224
-23.227064 -13.313089 3.135553
-2.457552 -1.421620 0.398147
-22.837667 -13.074255 4.327877
-3.606704 -2.076463 0.783233
-2.435870 -1.403520 -1.662799
-2.520999 -1.450851 -1.630059
-2.617936 -1.505406 -1.601686
-2.729526 -1.567657 -1.576536
-2.860171 -1.640616 -1.557093
-2.980086 -1.708048 -1.525833
-3.095732 -1.772304 -1.486690
-3.276476 -1.873337 -1.470642
-3.492007 -1.994735 -1.460737
-3.699340 -2.110522 -1.436258
-3.969234 -2.261528 -1.422750
-4.189742 -2.385328 -1.379840
-4.560977 -2.593169 -1.370962
-4.886309 -2.775908 -1.329135
-5.231422 -2.968434 -1.276174
-5.229445 -2.964900 -1.130461
-5.235138 -2.997095 -0.989085
-5.230106 -2.993001 -0.845071
-5.217523 -2.983428 -0.700148
-5.175887 -2.957330 -0.554685
-5.063001 -2.892024 -0.406460
-5.065642 -2.891162 -0.270895
0.000741 -0.015241 -0.000523
-17.698561 -10.049917 0.004025
-18.424397 -10.452920 0.495861
0.000741 -0.015241 -0.000523
-23.635481 -13.388566 1.904596
-23.402878 -13.246152 2.513753
0.000741 -0.015241 -0.000523
-2.767159 -1.578123 0.446933
-22.871204 -12.919183 4.320019
-3.633929 -2.064181 0.786565
-2.430340 -1.381710 -1.653621
-2.527705 -1.435290 -1.629082
-2.621829 -1.487556 -1.598874
-2.724398 -1.543876 -1.568465
-2.863176 -1.620417 -1.553675
-2.985300 -1.687494 -1.523396
-3.092916 -1.747072 -1.480530
-3.282228 -1.851555 -1.468466
-3.495479 -1.969239 -1.457324
-3.724574 -2.096417 -1.441382
-3.988787 -2.242189 -1.425136
-4.205424 -2.361198 -1.380396
-4.511524 -2.530895 -1.351739
-4.921301 -2.757128 -1.334212
-5.221493 -2.921965 -1.269538
-5.212493 -2.914563 -1.123073
-5.217817 -2.947403 -0.982618
-5.206223 -2.938498 -0.838412
0.000725 -0.015067 -0.000516
0.000725 -0.015067 -0.000516
0.000725 -0.015067 -0.000516
-5.080376 -2.860813 -0.270812
-5.050586 -2.841823 -0.133630
-18.044022 -10.104724 0.004047
-18.213617 -10.195367 0.488545
-23.820444 -13.318154 1.277886
-23.632473 -13.202345 1.897950
-23.437435 -13.082763 2.509029
-3.504244 -1.968438 0.469617
-2.881942 -1.620284 0.463937
0.000725 -0.015067 -0.000516
-3.317606 -1.860616 0.715748
-2.438398 -1.367106 -1.653623
-2.533049 -1.418408 -1.627124
-2.625899 -1.469237 -1.596059
-2.730287 -1.525791 -1.566674
-2.869210 -1.601990 -1.551967
-3.002853 -1.674538 -1.527467
-3.099900 -1.726742 -1.478993
-3.296011 -1.834259 -1.469924
-3.506688 -1.948909 -1.457327
-3.734820 -2.073865 -1.440749
-3.991500 -2.213500 -1.421571
-4.217171 -2.335861 -1.379853
-4.568295 -2.528045 -1.364401
-4.923364 -2.721089 -1.330535
-5.201635 -2.872827 -1.260825
-5.199307 -2.869179 -1.116796
-5.209227 -2.901891 -0.977771
-5.191769 -2.891047 -0.833421
0.000736 -0.014906 -0.000512
0.000736 -0.014906 -0.000512
-5.070096 -2.817845 -0.404393
0.000736 -0.014906 -0.000512
0.000736 -0.014906 -0.000512
-17.690252 -9.773540 0.003895
0.000736 -0.014906 -0.000512
-23.858099 -13.159495 1.275758
-23.680023 -13.050572 1.895644
-23.485573 -12.938180 2.506356
0.000736 -0.014906 -0.000512
-2.953621 -1.637831 0.473969
-2.493712 -1.384605 0.467666
-2.540759 -1.409292 0.546319
-2.429307 -1.344218 -1.642407
-2.531643 -1.399066 -1.621251
-2.637075 -1.456080 -1.597938
-2.737116 -1.509499 -1.565779
-2.871659 -1.582324 -1.548550
-2.999244 -1.650583 -1.520965
-3.086735 -1.696876 -1.468209
-3.304486 -1.814772 -1.469200
-3.514132 -1.927339 -1.455965
-3.749583 -2.054631 -1.442034
-3.993626 -2.185559 -1.418007
-4.230047 -2.312126 -1.379861
-4.510845 -2.463564 -1.343152
-4.905889 -2.675771 -1.321791
-5.191693 -2.829604 -1.254605
-5.177114 -2.819364 -1.108670
-5.192336 -2.854627 -0.971630
-5.171252 -2.841904 -0.827594
0.000721 -0.014729 -0.000505
0.000721 -0.014729 -0.000505
-5.087412 -2.790297 -0.404542
-5.116305 -2.803724 -0.271018
-5.103380 -2.795531 -0.134201
-17.466875 -9.523437 0.003777
-18.543869 -10.101299 0.494159
-23.902990 -13.010737 1.274192
-23.715584 -12.898077 1.892638
-23.518818 -12.785869 2.502191
0.000721 -0.014729 -0.000505
-3.530249 -1.928841 0.564846
-2.485700 -1.362038 0.464741
-2.538151 -1.389299 0.544094
-2.434112 -1.327983 -1.640369
-2.533668 -1.380546 -1.617336
-2.642458 -1.438571 -1.596064
-2.744348 -1.492223 -1.564885
-2.873234 -1.560298 -1.544276
-3.010511 -1.633454 -1.521781
-3.109662 -1.685354 -1.474377
-3.315429 -1.794386 -1.469204
-3.527072 -1.907180 -1.456653
-3.763657 -2.032417 -1.442679
-4.006825 -2.160955 -1.418012
-4.235116 -2.282295 -1.377115
-4.525702 -2.435815 -1.343161
-4.933599 -2.652883 -1.325026
-5.174265 -2.779253 -1.246307
-5.168141 -2.773652 -1.103132
-5.181303 -2.808621 -0.966459
-5.165260 -2.798807 -0.823992
-5.127557 -2.776168 -0.679352
-5.123492 -2.771655 -0.542122
-5.130137 -2.774085 -0.406639
-5.130985 -2.772225 -0.270936
-15.494345 -8.334288 -0.405086
-17.417223 -9.362786 0.003703
-17.331129 -9.308773 0.460283
-23.941381 -12.842734 1.271971
-23.766937 -12.743891 1.890610
-19.243885 -10.312805 2.040516
0.000706 -0.014552 -0.000499
-3.656814 -1.969318 0.583239
-2.514767 -1.357822 0.468635
-2.563828 -1.382866 0.547798
-2.435566 -1.310545 -1.636291
-2.539948 -1.364951 -1.616359
-2.649044 -1.422342 -1.595129
-2.752814 -1.476229 -1.564888
-2.872239 -1.538983 -1.539147
-3.005239 -1.608231 -1.514467
-3.119212 -1.667265 -1.474382
-3.321994 -1.773952 -1.467756
-3.532917 -1.884043 -1.454608
-3.771506 -2.009441 -1.441405
-4.028865 -2.143746 -1.421591
-4.253198 -2.260406 -1.378775
-4.566514 -2.424802 -1.351267
-4.960740 -2.630639 -1.328261
-5.155011 -2.731914 -1.238008
-5.153896 -2.729025 -1.096853
-5.172909 -2.765614 -0.961935
-5.147984 -2.751194 -0.818720
-9.041779 -4.816917 -1.193839
0.000690 -0.014378 -0.000493
-5.008478 -2.671412 -0.395798
-14.942177 -7.933902 -0.785602
0.000690 -0.014378 -0.000493
-17.707594 -9.387620 0.003711
-17.417929 -9.226478 0.461127
-23.984335 -12.693843 1.270405
-23.825668 -12.599306 1.889422
-19.151382 -10.126072 2.024636
-19.113071 -10.097289 2.531248
-3.692549 -1.960994 0.587137
-2.504786 -1.334390 0.465387
-2.566206 -1.365624 0.546683
-2.427529 -1.288762 -1.626095
-2.542815 -1.348153 -1.613423
-2.647483 -1.402443 -1.589499
-2.745103 -1.452374 -1.555920
-2.871338 -1.517236 -1.534019
-3.004661 -1.585650 -1.509591
-3.118578 -1.644533 -1.469762
-3.327133 -1.752033 -1.465578
-3.546950 -1.865253 -1.455981
-3.781233 -1.986663 -1.440772
-4.029199 -2.114176 -1.417430
-4.279707 -2.242821 -1.383188
-4.564866 -2.390272 -1.346720
-5.022332 -2.626121 -1.340710
-5.141517 -2.685800 -1.230957
-5.138494 -2.681952 -1.090206
-5.149731 -2.716360 -0.954821
-5.132074 -2.704802 -0.813728
0.000701 -0.014218 -0.000488
0.000701 -0.014218 -0.000488
0.000701 -0.014218 -0.000488
-15.028619 -7.872456 -0.787869
-15.678052 -8.205009 -0.407515
-16.995312 -8.885600 0.003484
-17.947672 -9.378709 0.473723
-19.140869 -9.992716 1.010651
-19.105995 -9.966042 1.510435
-19.014921 -9.910152 2.003914
-3.114950 -1.634940 0.410948
-2.779339 -1.459129 0.440504
-2.516068 -1.321170 0.466034
-2.812942 -1.474697 0.597470
-2.430476 -1.271796 -1.623036
-2.541388 -1.328073 -1.607549
-2.647832 -1.382488 -1.584808
-2.737676 -1.427709 -1.546954
-2.867346 -1.493379 -1.527180
-2.995793 -1.558947 -1.500650
-3.131485 -1.627523 -1.471306
-3.330747 -1.728698 -1.462674
-3.550866 -1.841193 -1.453251
-3.791185 -1.963163 -1.440137
-4.024585 -2.081362 -1.411484
-4.285636 -2.214459 -1.380991
-4.535846 -2.340911 -1.334075
-4.981873 -2.568584 -1.325976
-5.121978 -2.638158 -1.222659
-5.124027 -2.636942 -1.083927
-5.130595 -2.667482 -0.948355
-5.119309 -2.660509 -0.809292
0.000686 -0.014041 -0.000482
-4.988056 -2.588229 -0.523059
0.000686 -0.014041 -0.000482
-15.112249 -7.802263 -0.789857
-15.808117 -8.153851 -0.409674
-16.919811 -8.722516 0.003407
-17.277399 -8.898906 0.454567
-19.014874 -9.783951 1.000865
-18.980160 -9.761886 1.495970
-18.910341 -9.717672 1.986919
0.000686 -0.014041 -0.000482
0.000686 -0.014041 -0.000482
-2.778275 -1.436902 0.513106
-3.685890 -1.900000 0.780595
-2.434603 -1.256054 -1.620998
-2.547382 -1.312449 -1.606570
-2.657235 -1.367859 -1.585749
-2.753735 -1.415814 -1.551441
