# This PCD file was generated using the MATLAB® pcwrite function
# from Computer Vision Toolbox®.
# .PCD v.7 - Point Cloud Data file format
VERSION .7
FIELDS x y z
SIZE 4 4 4
TYPE F F F
COUNT 1 1 1
WIDTH 1672
HEIGHT 1
VIEWPOINT 0 0 0 1 0 0 0
POINTS 1672
DATA ascii
0.393819 1.659019 -0.812650
0.447283 1.898374 -0.865201
0.948048 4.159870 -1.714768
1.015574 4.461540 -1.711329
1.088171 4.781659 -1.700176
1.170572 5.144805 -1.686847
1.263865 5.560386 -1.672887
1.371400 6.034358 -1.655220
1.490033 6.562091 -1.627118
1.637291 7.211323 -1.602095
1.811639 7.979566 -1.569615
1.998695 8.996065 -1.539757
2.295766 10.343533 -1.512748
2.662087 11.994402 -1.456388
3.148920 14.187696 -1.376011
3.539115 15.948507 -1.160702
5.068058 22.855953 -1.110644
0.003025 -0.114196 -0.003251
13.049063 58.905106 -0.030091
13.259285 59.757938 1.393226
11.167049 50.225750 2.378400
11.322366 50.884785 3.626425
11.555905 51.852139 4.939494
0.003025 -0.114196 -0.003251
11.804035 52.839008 7.596853
12.043867 53.827385 9.051946
0.003025 -0.114196 -0.003251
0.130240 0.451386 -0.347306
0.134453 0.469247 -0.339540
0.145571 0.518006 -0.348126
0.163282 0.595371 -0.368807
0.206033 0.783204 -0.439187
0.402401 1.649763 -0.809386
0.461304 1.906730 -0.869824
0.972642 4.154506 -1.714759
1.041898 4.455782 -1.711319
1.116752 4.777325 -1.700807
1.201684 5.141863 -1.688030
0.003012 -0.114041 -0.003246
1.404166 6.015219 -1.652163
1.527569 6.549775 -1.626181
1.677677 7.194320 -1.600415
1.859489 7.974930 -1.570712
2.055434 9.003827 -1.542992
2.358524 10.341904 -1.514405
2.734782 11.992615 -1.457997
3.232044 14.173396 -1.376360
3.642057 15.974750 -1.164045
5.464131 23.991720 -1.166852
5.396010 23.652954 -0.579870
11.394117 50.046803 -0.026022
13.630237 59.797787 1.396042
11.466766 50.205620 2.380594
12.567007 54.991543 3.923858
12.144719 53.054649 5.060494
12.189606 53.166420 6.363876
0.003012 -0.114041 -0.003246
12.402157 53.967022 9.087269
0.003012 -0.114041 -0.003246
0.133492 0.450788 -0.347302
0.135854 0.460127 -0.334634
0.151599 0.527641 -0.353760
0.165328 0.585887 -0.364311
0.209140 0.773369 -0.434899
0.412955 1.649365 -0.810194
0.468746 1.886238 -0.862100
0.998459 4.154446 -1.716934
1.068595 4.451712 -1.711993
1.144465 4.769135 -1.700156
1.233210 5.140606 -1.689808
1.327342 5.538311 -1.670655
1.440297 6.010972 -1.653165
1.565899 6.541036 -1.626168
1.721057 7.190417 -1.601651
1.906482 7.966165 -1.571070
2.113657 9.017004 -1.547203
2.421340 10.339900 -1.516062
2.804868 11.978771 -1.458210
3.316478 14.164414 -1.377271
3.744525 15.996430 -1.167109
5.613634 24.006739 -1.169073
5.456028 23.292576 -0.571839
11.598578 49.620228 -0.025786
0.003026 -0.113902 -0.003243
11.822122 50.421036 2.394048
12.983500 55.343918 3.954298
0.003026 -0.113902 -0.003243
12.580950 53.457180 6.407228
0.003026 -0.113902 -0.003243
12.524604 53.093788 8.952503
0.003026 -0.113902 -0.003243
0.139494 0.461905 -0.354442
0.141168 0.467983 -0.339532
0.154463 0.523493 -0.351875
0.168932 0.583356 -0.363407
0.215485 0.777601 -0.437462
0.423089 1.647129 -0.810187
0.479387 1.880081 -0.860550
1.022575 4.146984 -1.716196
1.094419 4.443825 -1.711298
1.173864 4.768165 -1.702067
1.262084 5.128026 -1.688007
1.361177 5.536363 -1.672298
1.475534 6.002740 -1.653153
1.604171 6.532084 -1.626155
1.763980 7.184367 -1.602470
1.954339 7.960953 -1.572168
2.168909 9.016372 -1.549137
2.481462 10.325961 -1.516044
2.875787 11.968397 -1.458888
3.401813 14.158829 -1.378553
3.845035 16.007782 -1.169469
5.758839 24.001408 -1.170352
5.700811 23.721836 -0.583014
5.653901 23.507732 -0.013927
0.003012 -0.113750 -0.003238
12.287550 51.080856 2.428730
12.891529 53.557331 3.832101
13.003592 53.941734 5.159017
12.861112 53.268177 6.393420
12.814332 53.034092 7.655628
12.775012 52.790749 8.913774
0.003012 -0.113750 -0.003238
0.140383 0.451218 -0.348313
0.144921 0.469019 -0.340507
0.156024 0.514189 -0.347171
0.174640 0.589477 -0.366995
0.221056 0.778257 -0.438314
0.433081 1.642984 -0.809366
0.488664 1.868490 -0.856686
1.046616 4.139399 -1.715456
1.122334 4.441066 -1.712658
1.202393 4.763335 -1.702698
1.293152 5.124543 -1.689189
1.395139 5.530213 -1.672839
1.510721 5.994311 -1.653141
1.642614 6.518847 -1.625217
1.807709 7.175835 -1.602873
2.002652 7.951301 -1.572523
2.227950 9.030749 -1.553672
2.545189 10.318933 -1.517141
2.947627 11.961461 -1.460031
3.486249 14.148854 -1.379462
3.949557 16.021690 -1.172109
5.907494 24.008785 -1.172289
5.854092 23.754816 -0.584586
11.940480 48.510475 -0.025202
0.003025 -0.113611 -0.003235
10.954229 44.394028 2.114094
0.003025 -0.113611 -0.003235
0.003025 -0.113611 -0.003235
0.003025 -0.113611 -0.003235
13.831622 55.797195 8.065541
0.003025 -0.113611 -0.003235
0.003025 -0.113611 -0.003235
0.142056 0.443870 -0.344224
0.147113 0.463238 -0.337561
0.159330 0.511693 -0.346227
0.178797 0.588600 -0.366990
0.224141 0.768328 -0.434027
0.444078 1.644167 -0.810988
0.501305 1.869305 -0.858222
1.073635 4.140512 -1.718359
1.148051 4.432888 -1.711961
1.230828 4.754449 -1.702045
1.323241 5.113259 -1.687983
1.429953 5.531577 -1.675588
1.547379 5.987290 -1.653636
1.680282 6.507563 -1.624742
1.848668 7.161684 -1.602025
2.050486 7.945523 -1.573622
2.286442 9.034774 -1.556582
2.606144 10.308124 -1.517681
3.021096 11.951652 -1.460940
3.579010 14.160923 -1.382613
4.051584 16.035620 -1.174751
6.070871 24.054873 -1.176201
6.011126 23.781904 -0.586062
0.003011 -0.113459 -0.003230
0.003011 -0.113459 -0.003230
11.121641 43.946838 2.095979
11.052191 43.640163 3.132543
13.961403 55.079964 5.283070
0.003011 -0.113459 -0.003230
13.606666 53.560730 7.754014
13.568996 53.334518 9.031639
0.003011 -0.113459 -0.003230
0.146533 0.448208 -0.347281
0.149993 0.460860 -0.336576
0.165093 0.519497 -0.350919
0.181962 0.584249 -0.365189
0.229212 0.767188 -0.434022
0.451919 1.632899 -0.806911
0.509951 1.855831 -0.853585
1.098583 4.136221 -1.719078
1.175600 4.431834 -1.714005
1.259297 4.749286 -1.702675
0.002998 -0.113304 -0.003225
1.461921 5.521567 -1.675022
1.581496 5.974704 -1.652608
1.719821 6.503603 -1.626114
1.887071 7.137831 -1.599095
2.098323 7.939457 -1.574720
2.343454 9.038837 -1.559491
2.666582 10.295026 -1.517942
3.091473 11.938075 -1.461385
3.666049 14.159540 -1.384455
4.157338 16.062450 -1.178372
6.208360 24.013903 -1.175880
6.168485 23.824530 -0.587915
0.002998 -0.113304 -0.003225
0.002998 -0.113304 -0.003225
0.002998 -0.113304 -0.003225
0.002998 -0.113304 -0.003225
14.350699 55.276474 5.309781
14.229957 54.732281 6.597785
0.002998 -0.113304 -0.003225
13.929471 53.460094 9.066322
0.002998 -0.113304 -0.003225
0.150208 0.449180 -0.348298
0.155056 0.466903 -0.340492
0.167401 0.513568 -0.348096
0.185515 0.581634 -0.364286
0.231050 0.753789 -0.428021
0.463338 1.635748 -0.809346
0.521278 1.853028 -0.853579
1.121111 4.122799 -1.716154
1.200322 4.419698 -1.711941
1.287740 4.743964 -1.703305
1.384783 5.103550 -1.689750
1.492868 5.507645 -1.673355
1.614510 5.958198 -1.650565
1.756890 6.489994 -1.625177
1.929762 7.130814 -1.599913
2.149671 7.946420 -1.578414
2.398084 9.033006 -1.560774
2.729450 10.291172 -1.519598
3.161783 11.924097 -1.461830
0.003012 -0.113165 -0.003223
4.260528 16.077007 -1.181154
6.328793 23.908392 -1.172456
0.003012 -0.113165 -0.003223
0.003012 -0.113165 -0.003223
0.003012 -0.113165 -0.003223
11.399032 42.950989 2.054764
0.003012 -0.113165 -0.003223
0.003012 -0.113165 -0.003223
14.176192 53.259544 6.430306
14.410692 54.105312 7.856290
0.003012 -0.113165 -0.003223
0.003012 -0.113165 -0.003223
0.152991 0.446816 -0.347272
0.157486 0.462796 -0.338527
0.170551 0.511052 -0.347152
0.190419 0.584181 -0.366076
0.238374 0.761346 -0.432297
0.472289 1.627833 -0.806898
0.532105 1.848378 -0.852800
1.146944 4.121826 -1.718330
1.228138 4.416307 -1.713298
1.316677 4.740287 -1.704577
1.415798 5.099336 -1.690933
1.526676 5.500714 -1.673895
1.648928 5.947101 -1.650046
1.795483 6.477761 -1.624700
1.972693 7.119402 -1.599898
2.201571 7.948862 -1.581368
2.451700 9.023034 -1.561406
2.793651 10.284541 -1.520974
3.236683 11.926967 -1.464370
3.751980 13.826382 -1.356221
4.940113 18.218868 -1.339050
6.482012 23.927671 -1.175145
0.002999 -0.113010 -0.003218
11.589935 42.762924 -0.022459
0.002999 -0.113010 -0.003218
11.443009 42.132748 2.018832
11.517943 42.351341 3.054269
15.078287 55.405136 5.338797
14.856065 54.549854 6.596099
14.844234 54.431885 7.916312
0.002999 -0.113010 -0.003218
0.002999 -0.113010 -0.003218
0.157210 0.449382 -0.349308
0.159969 0.458658 -0.336561
0.175641 0.515309 -0.349965
0.193125 0.578036 -0.363376
0.245800 0.768835 -0.436574
0.484243 1.632296 -0.810148
0.544689 1.848924 -0.854335
1.171783 4.117124 -1.719047
1.253206 4.405697 -1.711919
1.344093 4.730964 -1.703925
1.445766 5.091275 -1.690920
1.555859 5.480898 -1.670569
1.683789 5.937667 -1.650033
1.832871 6.465606 -1.624225
2.014581 7.114110 -1.601133
2.251265 7.953660 -1.584692
2.508951 9.019928 -1.563339
2.854502 10.272270 -1.521514
3.308549 11.909642 -1.464581
3.784880 13.623591 -1.338652
5.035995 18.155672 -1.336492
6.719021 24.231789 -1.191843
0.002985 -0.112858 -0.003213
11.802920 42.574238 -0.022338
11.870057 42.759495 1.010368
11.547823 41.567680 1.994991
0.002985 -0.112858 -0.003213
0.002985 -0.112858 -0.003213
0.002985 -0.112858 -0.003213
14.890779 53.385906 7.776816
0.002985 -0.112858 -0.003213
0.002985 -0.112858 -0.003213
0.158019 0.440384 -0.344199
0.164087 0.461286 -0.338516
0.178298 0.511055 -0.348081
0.198425 0.582273 -0.366066
0.251864 0.771042 -0.438282
0.495263 1.633165 -0.811770
1.130520 3.880904 -1.738629
1.196606 4.112276 -1.719764
1.281238 4.405808 -1.714648
1.371747 4.719437 -1.702631
1.469817 5.058908 -1.683152
1.587497 5.470170 -1.670004
1.716974 5.918452 -1.647482
1.871859 6.454777 -1.624212
2.060276 7.107485 -1.602368
2.302300 7.951670 -1.586904
2.560938 9.009752 -1.563971
2.915822 10.261561 -1.522332
3.378277 11.900715 -1.465724
3.823205 13.466315 -1.325377
5.143746 18.136160 -1.337163
6.891018 24.306313 -1.197351
0.002999 -0.112719 -0.003210
12.077755 42.609699 -0.022317
12.205865 43.006168 1.017908
11.826341 41.610138 2.000412
0.002999 -0.112719 -0.003210
0.002999 -0.112719 -0.003210
0.002999 -0.112719 -0.003210
15.253796 53.458767 7.800490
0.002999 -0.112719 -0.003210
0.002999 -0.112719 -0.003210
0.162811 0.444535 -0.347256
0.168556 0.463784 -0.340472
0.181978 0.510159 -0.348075
0.200193 0.572627 -0.361570
0.256572 0.767976 -0.437419
0.504084 1.625098 -0.809320
1.152139 3.867206 -1.735532
1.222166 4.107053 -1.720483
1.308518 4.400110 -1.715321
1.400595 4.715261 -1.703902
1.490540 5.019351 -1.673000
1.621130 5.462660 -1.670545
1.749500 5.901206 -1.645440
1.909627 6.444063 -1.624198
2.101080 7.097918 -1.602770
2.354723 7.959203 -1.590970
2.620407 9.007381 -1.566230
2.978928 10.249965 -1.523150
3.451524 11.880052 -1.465699
3.861943 13.289810 -1.310421
5.261255 18.138100 -1.339517
7.063941 24.363085 -1.202105
0.002986 -0.112564 -0.003205
14.042469 48.459099 -0.024891
12.569728 43.307724 1.026862
12.057933 41.512749 1.999092
12.229472 42.050602 3.047674
0.002986 -0.112564 -0.003205
0.002986 -0.112564 -0.003205
0.002986 -0.112564 -0.003205
0.002986 -0.112564 -0.003205
0.002986 -0.112564 -0.003205
0.166404 0.445431 -0.348273
0.171280 0.461327 -0.339487
0.187439 0.516072 -0.351829
0.206042 0.578511 -0.365159
0.265219 0.778777 -0.443409
0.514796 1.625931 -0.810941
1.170153 3.846721 -1.729349
1.246441 4.100111 -1.720473
1.332608 4.389305 -1.713940
0.002998 -0.112428 -0.003202
1.516257 4.998042 -1.668812
1.537520 5.066654 -1.554592
0.002998 -0.112428 -0.003202
1.947286 6.437205 -1.625108
2.145334 7.095245 -1.604839
2.406169 7.962646 -1.594293
2.672925 8.998466 -1.567188
3.038370 10.239056 -1.523967
3.522323 11.874104 -1.467308
3.888916 13.105842 -1.294532
5.367540 18.123919 -1.340611
7.211705 24.361774 -1.203946
0.002998 -0.112428 -0.003202
0.002998 -0.112428 -0.003202
12.751220 43.031891 1.022054
12.339209 41.584602 2.005991
0.002998 -0.112428 -0.003202
0.002998 -0.112428 -0.003202
0.002998 -0.112428 -0.003202
0.002998 -0.112428 -0.003202
0.002998 -0.112428 -0.003202
0.002998 -0.112428 -0.003202
0.170107 0.446273 -0.349289
0.172561 0.453823 -0.335560
0.189024 0.508381 -0.348065
0.208971 0.574067 -0.363356
0.266183 0.763555 -0.436553
0.524062 1.619507 -0.809307
1.191326 3.834786 -1.727024
1.269570 4.089482 -1.719005
1.361474 4.388671 -1.716670
1.454976 4.695527 -1.702598
1.535136 4.954682 -1.657465
1.540369 4.965612 -1.526976
0.002985 -0.112273 -0.003197
1.547792 4.980683 -1.266623
2.193146 7.099414 -1.608573
2.459736 7.967201 -1.597989
2.727569 8.990663 -1.568470
3.101413 10.226710 -1.524786
3.592960 11.859513 -1.467984
3.920839 12.936545 -1.280138
5.478452 18.101486 -1.341280
7.379481 24.409956 -1.208323
0.002985 -0.112273 -0.003197
0.002985 -0.112273 -0.003197
12.939803 42.760788 1.017430
12.605554 41.601032 2.010304
0.002985 -0.112273 -0.003197
0.002985 -0.112273 -0.003197
0.002985 -0.112273 -0.003197
0.002985 -0.112273 -0.003197
0.002985 -0.112273 -0.003197
0.002985 -0.112273 -0.003197
0.171406 0.438840 -0.345201
0.175931 0.452947 -0.335556
0.193733 0.510793 -0.349940
0.213553 0.574692 -0.364249
0.269247 0.755214 -0.433121
0.530793 1.606152 -0.804415
1.217411 3.836648 -1.730871
1.297214 4.090939 -1.722636
1.386794 4.379139 -1.715973
1.485675 4.694237 -1.705149
1.557276 4.920116 -1.649102
1.561616 4.931121 -1.519234
0.002971 -0.112121 -0.003193
1.570750 4.951408 -1.261530
0.002971 -0.112121 -0.003193
1.582861 4.978126 -1.009719
2.780936 8.972604 -1.568127
3.163755 10.218327 -1.526161
3.666208 11.845764 -1.468892
3.954946 12.772355 -1.266303
5.589606 18.090811 -1.342791
7.544697 24.430866 -1.211477
11.602203 37.588863 -0.935746
0.002971 -0.112121 -0.003193
12.911672 41.768215 0.995672
0.002971 -0.112121 -0.003193
12.929621 41.749805 3.041778
0.002971 -0.112121 -0.003193
0.002971 -0.112121 -0.003193
0.002971 -0.112121 -0.003193
0.002971 -0.112121 -0.003193
0.002971 -0.112121 -0.003193
0.174558 0.438017 -0.345195
0.181243 0.458753 -0.339472
0.197331 0.509822 -0.349936
0.219639 0.580435 -0.367836
0.275852 0.758992 -0.435685
0.537943 1.594516 -0.800337
1.242345 3.836770 -1.733949
1.321942 4.085349 -1.723354
1.412609 4.371256 -1.715962
1.511611 4.680349 -1.703215
1.583334 4.902142 -1.646107
1.585396 4.905728 -1.514253
0.002984 -0.111982 -0.003190
1.595164 4.927610 -1.257822
0.002984 -0.111982 -0.003190
1.615103 4.978461 -1.011564
2.838458 8.973573 -1.571034
3.225520 10.207674 -1.527258
3.748612 11.868225 -1.474225
4.022471 12.728653 -1.264225
5.705007 18.092775 -1.345285
6.776570 21.487797 -1.068442
0.002984 -0.111982 -0.003190
16.286118 51.718430 -0.026174
16.353159 51.869110 1.238888
0.002984 -0.111982 -0.003190
13.479139 42.654873 3.113260
0.002984 -0.111982 -0.003190
0.002984 -0.111982 -0.003190
0.002984 -0.111982 -0.003190
0.002984 -0.111982 -0.003190
0.002984 -0.111982 -0.003190
0.178257 0.438795 -0.346212
0.183466 0.454541 -0.337506
0.199826 0.505479 -0.348051
0.220370 0.569106 -0.362443
1.507384 4.594899 -2.344651
0.545816 1.584508 -0.797073
1.262801 3.822692 -1.730852
1.346082 4.077835 -1.723344
1.439176 4.362964 -1.715951
1.542078 4.680746 -1.706409
1.613339 4.896742 -1.647288
1.618082 4.905543 -1.517002
1.621555 4.913427 -1.387656
1.628594 4.929348 -1.260581
1.638856 4.955207 -1.137298
2.606310 7.942270 -1.601650
2.891303 8.959132 -1.571341
3.286059 10.186642 -1.526959
3.830768 11.888257 -1.479323
0.002972 -0.111827 -0.003185
5.820755 18.083496 -1.347077
6.920247 21.509491 -1.071412
0.002972 -0.111827 -0.003185
0.002972 -0.111827 -0.003185
16.457170 51.166962 1.224433
0.002972 -0.111827 -0.003185
0.002972 -0.111827 -0.003185
0.002972 -0.111827 -0.003185
0.002972 -0.111827 -0.003185
0.002972 -0.111827 -0.003185
0.002972 -0.111827 -0.003185
0.002972 -0.111827 -0.003185
0.179910 0.432996 -0.343143
0.187899 0.456922 -0.339462
0.204025 0.506127 -0.348986
0.224942 0.569656 -0.363335
1.535572 4.589751 -2.346352
0.556129 1.583246 -0.797880
1.286677 3.817062 -1.731613
1.370174 4.070181 -1.723333
1.465487 4.356560 -1.716624
1.569632 4.671958 -1.706397
1.641545 4.885726 -1.646680
1.646914 4.896325 -1.516989
1.654062 4.915212 -1.390687
1.666100 4.945930 -1.267036
2.366531 7.071831 -1.613929
2.654287 7.937104 -1.603489
2.945650 8.943869 -1.571648
3.350777 10.184682 -1.529451
3.902477 11.867391 -1.479533
4.186435 12.724643 -1.268470
5.937746 18.087803 -1.349851
8.031703 24.480272 -1.220468
11.867677 36.208858 -0.906351
16.424347 50.099228 -0.025372
16.541288 50.397861 1.208429
0.002984 -0.111691 -0.003182
0.002984 -0.111691 -0.003182
0.002984 -0.111691 -0.003182
0.002984 -0.111691 -0.003182
0.002984 -0.111691 -0.003182
0.002984 -0.111691 -0.003182
0.002984 -0.111691 -0.003182
0.184568 0.437045 -0.346201
0.189434 0.451060 -0.336517
0.206349 0.501798 -0.347101
0.228745 0.568551 -0.363331
1.565196 4.591570 -2.351478
0.560986 1.566402 -0.791360
1.308578 3.809985 -1.731602
1.393478 4.062646 -1.723322
1.491606 4.352033 -1.717984
1.596910 4.665081 -1.707027
1.672422 4.885713 -1.649650
1.680327 4.903627 -1.521946
1.695001 4.944583 -1.401330
2.176467 6.375921 -1.627331
2.413411 7.079086 -1.618496
2.699788 7.924194 -1.603843
2.995513 8.925587 -1.571304
3.410055 10.171626 -1.530268
3.968630 11.843706 -1.479277
4.266150 12.725820 -1.270871
6.051188 18.090506 -1.352487
8.177640 24.461769 -1.221742
11.934392 35.734360 -0.896128
14.703079 44.001617 -0.022639
16.622299 49.703678 1.194062
16.649622 49.757324 2.426509
0.002971 -0.111536 -0.003177
0.002971 -0.111536 -0.003177
0.002971 -0.111536 -0.003177
0.002971 -0.111536 -0.003177
0.002971 -0.111536 -0.003177
0.002971 -0.111536 -0.003177
0.186703 0.432856 -0.344154
0.193302 0.451758 -0.337490
0.212243 0.507421 -0.350854
0.233351 0.569041 -0.364224
0.291333 0.739325 -0.428812
0.578526 1.585721 -0.801937
1.330023 3.797088 -1.729276
1.418335 4.052467 -1.722582
1.516824 4.339731 -1.716602
1.621743 4.642875 -1.702526
1.709682 4.895450 -1.656200
1.722457 4.930123 -1.532976
0.002959 -0.111380 -0.003172
2.221199 6.381479 -1.631936
2.461053 7.075500 -1.620979
2.751984 7.917022 -1.605682
3.054093 8.922794 -1.573885
3.474149 10.160771 -1.531644
4.049655 11.850230 -1.482979
4.354970 12.738188 -1.274578
6.162832 18.065828 -1.353293
8.332175 24.439514 -1.223012
0.002959 -0.111380 -0.003172
16.572565 48.646042 -0.024646
16.717085 49.015713 1.179971
16.755953 49.074341 2.398250
0.002959 -0.111380 -0.003172
0.002959 -0.111380 -0.003172
0.002959 -0.111380 -0.003172
0.002959 -0.111380 -0.003172
0.002959 -0.111380 -0.003172
0.002959 -0.111380 -0.003172
0.193205 0.441684 -0.350275
0.194268 0.444209 -0.333564
0.214659 0.503009 -0.348971
0.235495 0.562796 -0.361523
0.297978 0.742935 -0.431375
0.593370 1.596227 -0.808445
1.355507 3.798258 -1.733124
1.444102 4.049685 -1.724756
1.544439 4.334367 -1.717961
1.648468 4.631834 -1.701874
1.745361 4.905530 -1.662750
1.895630 5.332148 -1.658284
2.058038 5.796034 -1.643289
2.260933 6.372037 -1.632845
2.508142 7.073870 -1.623880
2.800176 7.902595 -1.606035
3.106026 8.905240 -1.573866
3.534995 10.140157 -1.531623
4.101589 11.778072 -1.476902
4.445736 12.762023 -1.279405
6.280944 18.059296 -1.355506
8.493567 24.449848 -1.225882
0.002972 -0.111241 -0.003169
16.683950 48.034943 -0.024337
16.789303 48.312428 1.165421
16.835009 48.390263 2.369618
0.002972 -0.111241 -0.003169
0.002972 -0.111241 -0.003169
0.002972 -0.111241 -0.003169
0.002972 -0.111241 -0.003169
0.002972 -0.111241 -0.003169
0.002972 -0.111241 -0.003169
0.194192 0.434208 -0.346186
0.201028 0.453078 -0.339442
0.221211 0.510228 -0.353663
0.238891 0.559866 -0.360620
0.304841 0.746431 -0.433939
0.598943 1.580883 -0.802739
1.377443 3.786839 -1.731570
1.466286 4.034175 -1.721833
1.568740 4.322031 -1.716580
1.674663 4.616787 -1.699939
1.771254 4.884461 -1.659158
1.926279 5.319506 -1.657718
2.093682 5.785712 -1.643783
2.298855 6.360921 -1.633292
2.554032 7.072390 -1.626781
2.850210 7.897615 -1.608245
3.162068 8.894270 -1.575149
3.593930 10.119814 -1.531601
4.127244 11.626267 -1.461050
4.531901 12.763775 -1.282178
6.394027 18.047468 -1.357297
8.651000 24.433142 -1.227529
12.184361 34.423264 -0.868533
16.808994 47.508282 -0.024065
12.952392 36.540462 0.883231
16.937092 47.766132 2.344033
0.002958 -0.111089 -0.003165
0.002958 -0.111089 -0.003165
0.002958 -0.111089 -0.003165
0.002958 -0.111089 -0.003165
0.002958 -0.111089 -0.003165
0.002958 -0.111089 -0.003165
0.199640 0.439725 -0.350265
0.203677 0.450439 -0.338456
0.222394 0.502465 -0.349899
0.246973 0.570418 -0.366902
0.307326 0.738023 -0.430508
0.595705 1.541474 -0.785632
1.401109 3.782479 -1.733103
1.491986 4.031107 -1.724005
1.598030 4.323714 -1.720676
1.700560 4.603673 -1.698645
1.797396 4.867163 -1.656760
1.961413 5.319347 -1.661017
2.130863 5.782832 -1.646305
2.340708 6.360551 -1.636512
2.597998 7.065093 -1.628431
2.898258 7.886791 -1.609341
3.217818 8.887239 -1.577079
3.651417 10.095395 -1.531022
4.151872 11.482800 -1.446128
4.617353 12.769506 -1.285326
6.512559 18.049976 -1.360209
8.813027 24.441406 -1.230398
12.340999 34.236073 -0.865543
16.869015 46.816170 -0.023723
17.003992 47.140583 1.142015
13.130554 36.335575 1.787377
13.013597 35.991608 2.664414
13.310337 36.775249 3.638951
0.002945 -0.110934 -0.003160
0.002945 -0.110934 -0.003160
0.002945 -0.110934 -0.003160
0.002945 -0.110934 -0.003160
0.201640 0.435492 -0.348219
0.206311 0.447777 -0.337471
0.224123 0.496350 -0.347076
0.247225 0.559068 -0.361509
0.312829 0.738099 -0.431359
0.603961 1.534745 -0.783998
1.422861 3.772782 -1.732321
1.515186 4.020854 -1.723268
1.623527 4.314608 -1.720665
1.724422 4.585069 -1.695429
1.831918 4.873039 -1.662115
1.988662 5.297302 -1.657692
2.166755 5.776082 -1.647814
2.380592 6.354451 -1.638344
2.643306 7.061205 -1.630915
2.946948 7.877530 -1.610807
3.272251 8.876157 -1.578361
3.715510 10.089270 -1.533234
4.172281 11.331965 -1.430276
4.709130 12.791536 -1.290151
6.630639 18.049849 -1.362981
8.967216 24.426088 -1.232139
12.528861 34.138344 -0.864821
16.997208 46.331566 -0.023470
13.185615 35.876740 0.870913
13.353127 36.295216 1.789197
13.411489 36.435143 2.702898
0.002957 -0.110798 -0.003157
0.002957 -0.110798 -0.003157
0.002957 -0.110798 -0.003157
0.002957 -0.110798 -0.003157
0.002957 -0.110798 -0.003157
0.204167 0.432883 -0.347192
0.210729 0.450016 -0.339427
0.227592 0.495226 -0.347070
0.250439 0.556132 -0.360605
0.308270 0.711034 -0.418508
0.612132 1.527992 -0.782361
1.445186 3.764700 -1.732310
1.539566 4.013992 -1.723983
1.647000 4.300075 -1.718599
1.748113 4.566360 -1.692212
1.873278 4.896549 -1.673438
2.023798 5.296735 -1.660992
2.202626 5.769121 -1.649321
2.421842 6.351750 -1.641099
2.685216 7.047875 -1.631315
2.994256 7.864278 -1.611532
3.325275 8.861051 -1.578991
3.770708 10.058599 -1.531817
4.195245 11.192456 -1.415821
4.784013 12.766241 -1.290313
6.749637 18.050829 -1.365894
9.135434 24.447275 -1.235759
12.692965 33.977772 -0.862539
17.077822 45.732723 -0.023170
14.105023 37.711372 0.917492
13.556150 36.201077 1.788430
13.453358 35.907059 2.669538
0.002945 -0.110643 -0.003152
0.002945 -0.110643 -0.003152
0.002945 -0.110643 -0.003152
0.002945 -0.110643 -0.003152
0.002945 -0.110643 -0.003152
0.206681 0.430254 -0.346166
0.211496 0.442433 -0.335500
0.233562 0.500681 -0.350823
0.258053 0.564878 -0.365988
0.321935 0.733084 -0.430491
0.625727 1.534742 -0.787241
1.468780 3.759929 -1.733843
1.566603 4.013926 -1.727615
1.670478 4.283359 -1.715849
1.776337 4.559932 -1.693481
1.905446 4.894779 -1.676407
2.055145 5.283007 -1.660426
2.235737 5.754709 -1.648799
2.464279 6.348352 -1.643856
2.727633 7.031983 -1.631299
3.043600 7.852056 -1.612628
3.381048 8.853001 -1.580923
3.833745 10.043637 -1.532912
4.220253 11.062353 -1.402531
5.501338 14.441216 -1.460835
6.875555 18.059175 -1.369506
9.304180 24.467335 -1.239378
12.967561 34.111874 -0.867720
17.157156 45.124046 -0.022864
14.333802 37.659645 0.918290
13.609524 35.713604 1.768272
13.631935 35.735435 2.662808
13.615053 35.653950 3.551289
0.002958 -0.110504 -0.003149
0.002958 -0.110504 -0.003149
0.002958 -0.110504 -0.003149
0.002958 -0.110504 -0.003149
0.211109 0.432402 -0.348202
0.216645 0.446215 -0.338437
0.235937 0.496143 -0.348940
0.262713 0.565161 -0.366882
0.326919 0.731330 -0.430485
0.633862 1.527873 -0.785605
1.492357 3.753047 -1.734603
1.590356 4.002995 -1.726875
1.692336 4.265086 -1.712412
1.802637 4.545951 -1.692187
1.931657 4.874650 -1.673412
2.087522 5.274852 -1.661516
2.274690 5.752326 -1.651830
2.502829 6.337849 -1.644765
2.772941 7.027274 -1.633783
3.089379 7.834573 -1.612610
3.439076 8.845864 -1.583178
3.894955 10.028967 -1.534007
4.241541 10.920482 -1.387844
5.589684 14.414076 -1.461366
7.007234 18.090233 -1.374803
9.490699 24.518158 -1.244688
13.266660 34.284527 -0.873986
13.793820 35.633469 -0.018697
13.688727 35.324722 0.863355
13.998216 36.088974 1.790965
13.784028 35.516983 2.652470
13.776780 35.461876 3.540071
0.002944 -0.110352 -0.003144
0.002944 -0.110352 -0.003144
0.002944 -0.110352 -0.003144
0.002944 -0.110352 -0.003144
0.211738 0.424926 -0.344115
0.220482 0.446744 -0.339412
0.240699 0.498231 -0.350814
0.265943 0.562134 -0.365979
0.329119 0.722868 -0.427054
0.648603 1.537977 -0.792111
1.512559 3.739403 -1.732278
1.616043 3.999144 -1.729048
1.714747 4.248441 -1.709662
1.824558 4.523318 -1.687688
1.959598 4.861852 -1.672802
2.118488 5.262911 -1.661503
2.309811 5.742905 -1.652830
2.548465 6.345229 -1.650293
2.816845 7.018642 -1.635433
3.139389 7.827793 -1.614819
3.493440 8.833438 -1.584459
3.960462 10.024986 -1.536778
4.265905 10.796150 -1.375252
5.681894 14.404075 -1.463576
7.133683 18.105497 -1.378977
9.675278 24.573042 -1.250186
13.523512 34.358547 -0.877747
14.032907 35.639305 -0.018668
14.247005 36.148121 0.885543
14.485605 36.718216 1.826313
13.939137 35.310978 2.643105
14.127202 35.752747 3.577133
0.002931 -0.110197 -0.003139
0.002931 -0.110197 -0.003139
0.002931 -0.110197 -0.003139
0.002931 -0.110197 -0.003139
0.212273 0.417472 -0.340026
0.222374 0.442402 -0.337445
0.240930 0.488800 -0.346110
0.265845 0.550797 -0.360585
0.331921 0.716074 -0.424481
0.657021 1.530867 -0.790476
1.535377 3.732510 -1.733039
1.636891 3.983028 -1.726123
1.740577 4.238355 -1.709651
1.851899 4.514665 -1.688317
1.988904 4.852424 -1.673387
2.148880 5.246852 -1.660385
2.343466 5.729677 -1.652816
2.585983 6.328361 -1.649816
2.858326 7.000174 -1.634998
3.187856 7.812860 -1.615542
3.547044 8.818851 -1.585415
4.046064 10.065920 -1.546525
4.282366 10.655293 -1.360565
5.774153 14.393508 -1.465785
7.254136 18.094542 -1.381327
0.002943 -0.110061 -0.003136
13.809079 34.499451 -0.883256
14.174183 35.379173 -0.018525
17.563559 43.845631 1.076744
13.376814 33.332466 1.661978
13.307346 33.125523 2.485736
14.321826 35.624146 3.572761
0.002943 -0.110061 -0.003136
0.002943 -0.110061 -0.003136
0.002943 -0.110061 -0.003136
0.002943 -0.110061 -0.003136
0.215395 0.416367 -0.340021
0.226305 0.442851 -0.338421
0.246462 0.492435 -0.348924
6.658502 16.335812 -8.919544
0.339363 0.721027 -0.427900
1.475427 3.523277 -1.750418
1.556739 3.720092 -1.731484
1.659030 3.970251 -1.724656
1.762734 4.221470 -1.706899
1.877038 4.500601 -1.687022
2.016713 4.839291 -1.672777
2.181123 5.238127 -1.661475
2.376304 5.714466 -1.652295
2.627401 6.324351 -1.652571
2.898700 6.986088 -1.635399
3.233524 7.798741 -1.616267
3.601383 8.801498 -1.586043
4.112735 10.062822 -1.549574
4.305910 10.530438 -1.347973
5.870518 14.385017 -1.468367
7.378244 18.100746 -1.384938
0.002930 -0.109906 -0.003132
13.999756 34.399193 -0.882671
17.515499 43.024590 -0.021802
14.453625 35.447884 0.872587
13.277842 32.538853 1.626294
13.383315 32.765808 2.464575
13.486856 33.004101 3.318100
0.002930 -0.109906 -0.003132
0.002930 -0.109906 -0.003132
0.002930 -0.109906 -0.003132
0.002930 -0.109906 -0.003132
0.224864 0.431224 -0.350225
0.229388 0.441739 -0.338416
0.247146 0.484677 -0.345161
0.273428 0.548021 -0.360574
0.340553 0.710927 -0.423612
1.494304 3.511767 -1.748780
1.579509 3.714911 -1.733018
1.682486 3.962813 -1.725373
1.786879 4.211733 -1.706887
1.902019 4.488464 -1.686369
2.045749 4.831658 -1.673957
2.211679 5.227807 -1.662015
2.410975 5.706656 -1.653801
2.668469 6.322342 -1.655788
2.942762 6.980803 -1.637882
3.280600 7.788011 -1.617732
3.654067 8.788725 -1.587325
4.170183 10.041718 -1.549831
0.002944 -0.109767 -0.003129
5.957380 14.366936 -1.469831
7.500249 18.109270 -1.388691
0.002944 -0.109767 -0.003129
14.125063 34.158024 -0.878451
13.866241 33.497112 -0.017648
15.261542 36.843494 0.909107
13.642912 32.907562 1.648523
13.593991 32.757156 2.469631
13.594521 32.742638 3.299479
0.002944 -0.109767 -0.003129
0.002944 -0.109767 -0.003129
0.002944 -0.109767 -0.003129
0.002944 -0.109767 -0.003129
0.225399 0.423712 -0.346135
0.231971 0.438934 -0.337430
0.254046 0.491527 -0.349852
0.278688 0.549859 -0.362364
0.349067 0.717324 -0.427890
1.517876 3.508060 -1.751212
1.602156 3.705654 -1.733006
1.706586 3.950925 -1.724633
1.808837 4.192568 -1.703451
1.930052 4.476941 -1.686356
2.075888 4.819243 -1.673944
2.246261 5.221864 -1.664208
2.446442 5.691996 -1.653786
2.709589 6.313750 -1.657620
2.990546 6.973694 -1.640364
3.331808 7.775247 -1.619198
3.714359 8.785290 -1.590554
4.237935 10.035254 -1.552600
0.002932 -0.109612 -0.003124
6.046941 14.340714 -1.470732
7.626643 18.108803 -1.392022
10.445042 24.819925 -1.274330
14.044064 33.379860 -0.860677
14.021947 33.311188 -0.017538
14.030562 33.299511 0.823720
13.823281 32.774109 1.646095
13.913905 32.974091 2.492169
13.583125 32.156284 3.248857
0.002932 -0.109612 -0.003124
0.002932 -0.109612 -0.003124
27.029680 63.951008 11.391618
0.002932 -0.109612 -0.003124
0.227785 0.420991 -0.345109
0.235814 0.439357 -0.338406
0.256121 0.486966 -0.347968
0.281080 0.545123 -0.360563
0.353810 0.715471 -0.427884
1.541528 3.506160 -1.754458
1.624799 3.698238 -1.733766
1.732116 3.946347 -1.726805
1.835039 4.185711 -1.704809
1.957157 4.467667 -1.686984
2.102725 4.803865 -1.672739
2.279181 5.214311 -1.665851
2.482060 5.683330 -1.655293
2.747267 6.300007 -1.658066
3.032036 6.958328 -1.640764
3.378692 7.759716 -1.619922
3.767033 8.767559 -1.591184
4.296257 10.010858 -1.552578
4.441597 10.343485 -1.333705
6.133126 14.313167 -1.471449
7.766483 18.147409 -1.398297
10.616531 24.825729 -1.277665
14.611174 34.177902 -0.883180
17.752499 41.531422 -0.021047
15.352526 35.866646 0.889490
13.875746 32.374489 1.630087
14.033519 32.728497 2.479747
13.814777 32.185764 3.259834
0.002917 -0.109460 -0.003119
0.002917 -0.109460 -0.003119
0.002917 -0.109460 -0.003119
0.002917 -0.109460 -0.003119
0.228804 0.415092 -0.342042
0.237567 0.434962 -0.336439
0.258157 0.482399 -0.346084
0.286256 0.546941 -0.362353
0.355687 0.706947 -0.424453
1.560044 3.490411 -1.751191
1.646695 3.688984 -1.733756
1.753970 3.933043 -1.725339
1.860475 4.174922 -1.704797
1.978208 4.444314 -1.682486
2.131707 4.793612 -1.673321
2.309947 5.199105 -1.665285
2.516916 5.672654 -1.656293
2.784469 6.281974 -1.657589
3.075445 6.943982 -1.641579
3.426080 7.741508 -1.620275
3.819628 8.749519 -1.591814
4.364806 10.005381 -1.555625
4.511926 10.341619 -1.336709
6.216022 14.277802 -1.471418
7.895182 18.148813 -1.401907
10.785209 24.823074 -1.280620
14.827321 34.137440 -0.884247
17.840073 41.058559 -0.020807
17.969664 41.338337 1.027874
14.099046 32.378559 1.634399
14.151683 32.469185 2.466495
14.429980 33.078709 3.358687
0.002931 -0.109321 -0.003116
0.002931 -0.109321 -0.003116
27.243336 62.407990 11.173202
0.002931 -0.109321 -0.003116
0.239482 0.431227 -0.353266
0.242195 0.436899 -0.338395
0.264482 0.487498 -0.349837
0.287986 0.540489 -0.359654
0.360514 0.704995 -0.424447
1.582924 3.486568 -1.753621
1.666953 3.674260 -1.731429
1.773404 3.912511 -1.720958
1.882832 4.159148 -1.702731
2.002880 4.427475 -1.680550
2.162299 4.784539 -1.674501
2.342778 5.191169 -1.666927
2.553499 5.663105 -1.657800
2.824332 6.273142 -1.659419
3.119145 6.933491 -1.643228
3.475979 7.732610 -1.622482
3.876841 8.737726 -1.593744
4.399105 9.925840 -1.547228
4.586566 10.343963 -1.340408
6.307645 14.255430 -1.472881
8.012174 18.130632 -1.403975
10.957790 24.815536 -1.283483
15.283758 34.625587 -0.899049
17.808426 40.345791 -0.020467
18.050659 40.857956 1.018647
14.235798 32.168427 1.628091
14.482285 32.712284 2.491252
14.668170 33.102764 3.369669
0.002918 -0.109166 -0.003111
0.002918 -0.109166 -0.003111
27.375792 61.737755 11.081456
27.416718 61.772755 12.721405
0.237002 0.417429 -0.345095
0.241791 0.427696 -0.333488
0.266496 0.482895 -0.347954
0.291723 0.538982 -0.359649
0.361511 0.694816 -0.420160
1.601369 3.472554 -1.751168
1.690950 3.669826 -1.733732
1.795762 3.900702 -1.720218
1.905054 4.143269 -1.700663
2.031277 4.421227 -1.682461
2.191203 4.773923 -1.675084
2.374027 5.179520 -1.667464
2.589857 5.655534 -1.659815
2.862614 6.260498 -1.660327
3.162043 6.920936 -1.644461
3.521849 7.714439 -1.622834
3.930882 8.722659 -1.595022
4.414932 9.806429 -1.532692
4.658782 10.344771 -1.343876
6.399917 14.240895 -1.475087
8.138131 18.131767 -1.407584
11.133619 24.825205 -1.287190
15.543743 34.672318 -0.902472
18.016439 40.188042 -0.020363
18.112986 40.366634 1.009052
14.525030 32.317692 1.639887
14.762280 32.832493 2.506856
14.832170 32.957993 3.363629
0.002904 -0.109014 -0.003106
0.002904 -0.109014 -0.003106
27.462593 60.981682 10.974183
0.002904 -0.109014 -0.003106
0.241439 0.419356 -0.347131
0.247033 0.431221 -0.336425
0.269149 0.479917 -0.347008
0.299856 0.547228 -0.365032
0.366135 0.692885 -0.420154
1.626489 3.473422 -1.756044
1.710409 3.655142 -1.731408
1.816504 3.885378 -1.718022
1.931848 4.137519 -1.702707
2.055743 4.406179 -1.681166
2.217692 4.757917 -1.673878
2.403638 5.164183 -1.666899
2.626190 5.647746 -1.661829
2.900856 6.247614 -1.661236
3.203274 6.904558 -1.644862
3.568469 7.697773 -1.623559
3.984895 8.707253 -1.596302
4.431957 9.692595 -1.518992
4.727858 10.337870 -1.346412
6.490630 14.222123 -1.476924
8.267673 18.139311 -1.411755
11.306625 24.826395 -1.290521
15.788263 34.680771 -0.904952
18.099264 39.756027 -0.020145
18.172750 39.881424 0.999593
15.414394 33.779564 1.718483
14.981346 32.812531 2.511916
14.792783 32.368408 3.312262
27.438946 60.083473 7.706575
0.002917 -0.108875 -0.003104
27.574387 60.298500 10.879848
27.637848 60.382492 12.500290
0.243040 0.414997 -0.345084
0.251575 0.433134 -0.338379
0.271791 0.476919 -0.346063
0.301405 0.540774 -0.362333
0.366963 0.682720 -0.415867
1.644023 3.457531 -1.752776
1.735108 3.652123 -1.734482
1.840222 3.876726 -1.718738
1.949946 4.112853 -1.697216
2.081704 4.394431 -1.681154
2.247270 4.748707 -1.675058
2.437984 5.159147 -1.669645
2.664138 5.643246 -1.664856
2.938205 6.232745 -1.661682
3.244401 6.887952 -1.645260
3.614152 7.679059 -1.623910
4.038054 8.689706 -1.597257
4.447837 9.578880 -1.505294
4.797848 10.332315 -1.349181
6.582971 14.206412 -1.479131
8.386719 18.122412 -1.414101
11.471656 24.808256 -1.292912
13.874917 30.002295 -0.785664
18.193594 39.358940 -0.019941
18.259371 39.465866 0.991866
14.852066 32.050732 1.635027
14.723750 31.758720 2.437896
24.628080 53.151291 5.448300
0.002903 -0.108723 -0.003099
0.002903 -0.108723 -0.003099
27.675913 59.608910 10.784218
27.709255 59.627037 12.376982
0.248954 0.419988 -0.349163
0.250276 0.422355 -0.332493
0.274421 0.473902 -0.345119
0.306632 0.542441 -0.364123
0.373025 0.684043 -0.417573
1.665917 3.449539 -1.753579
1.754395 3.637214 -1.732157
1.859983 3.859477 -1.715814
1.975743 4.103085 -1.697889
2.109986 4.387700 -1.683063
2.271116 4.727229 -1.672061
2.461826 5.129105 -1.664663
2.702141 5.638484 -1.667885
2.977404 6.218906 -1.662589
3.289155 6.875844 -1.646908
3.662794 7.662989 -1.625005
4.091104 8.671864 -1.598210
4.460005 9.455584 -1.490198
4.870448 10.331701 -1.352647
6.677863 14.195530 -1.481897
8.515785 18.117712 -1.417568
11.660553 24.839712 -1.297935
14.084392 29.999990 -0.787632
14.082574 29.969103 -0.015907
0.002917 -0.108584 -0.003096
14.049884 29.859221 1.527543
14.057409 29.848476 2.297968
14.067446 29.843115 3.071135
0.002917 -0.108584 -0.003096
0.002917 -0.108584 -0.003096
27.770653 58.893875 10.684704
27.844042 59.023937 12.285084
0.250617 0.415554 -0.347116
0.255657 0.425754 -0.335429
0.277859 0.472434 -0.345113
0.305910 0.531078 -0.358730
0.373848 0.673814 -0.413286
1.687930 3.443363 -1.755196
1.778154 3.630250 -1.733688
1.883473 3.848549 -1.715802
2.000761 4.093506 -1.698561
2.133359 4.368428 -1.680487
2.299762 4.713835 -1.672048
2.493591 5.118481 -1.665753
2.737839 5.626020 -1.668884
3.014619 6.203582 -1.663035
3.329312 6.856956 -1.646892
3.712529 7.652591 -1.627211
4.146476 8.654752 -1.599489
4.482807 9.361886 -1.479570
4.944182 10.327930 -1.355882
6.775370 14.182829 -1.484664
8.635917 18.101025 -1.420054
11.831404 24.819031 -1.300418
0.002904 -0.108429 -0.003091
18.368525 38.544262 -0.019524
0.002904 -0.108429 -0.003091
24.993084 52.393291 2.686118
24.990694 52.365402 4.038614
25.188681 52.734375 5.435563
0.002904 -0.108429 -0.003091
0.002904 -0.108429 -0.003091
14.240054 29.697084 5.410738
14.251141 29.693958 6.207575
0.251396 0.409614 -0.344049
0.260247 0.427571 -0.337385
0.282729 0.474171 -0.346987
0.312664 0.535922 -0.362316
0.384617 0.684842 -0.420131
1.707551 3.432107 -1.754371
1.802854 3.626762 -1.736763
1.902173 3.829420 -1.712149
2.025725 4.083782 -1.699234
2.161574 4.361352 -1.682398
2.329968 4.705841 -1.673824
2.526124 5.109413 -1.667394
2.775868 5.620773 -1.671914
3.054281 6.193305 -1.664865
3.373599 6.846653 -1.648956
3.760568 7.638333 -1.628676
4.200256 8.638025 -1.600769
4.501225 9.261117 -1.467825
5.014485 10.320952 -1.358650
6.873896 14.177865 -1.488176
8.759596 18.090740 -1.423100
12.018878 24.842491 -1.305156
0.002890 -0.108277 -0.003086
18.370033 37.980484 -0.019252
18.492167 38.200153 0.968229
18.546896 38.279789 1.968710
25.300091 52.237030 4.039968
25.493229 52.590496 5.435855
27.847588 57.407482 7.444949
0.002890 -0.108277 -0.003086
27.970913 57.586746 10.505729
14.473886 29.717710 6.229810
0.256630 0.412964 -0.347106
0.261778 0.423106 -0.335418
0.286088 0.472690 -0.346983
0.315579 0.532672 -0.361413
0.391558 0.687645 -0.422695
1.730921 3.427013 -1.756802
1.822684 3.613186 -1.735208
1.923989 3.816901 -1.711410
2.048898 4.068483 -1.697852
2.188913 4.352417 -1.683666
2.360166 4.697656 -1.675601
2.558735 5.097947 -1.668485
2.819857 5.627454 -1.678491
3.092439 6.177004 -1.665310
3.413919 6.824934 -1.648522
3.808176 7.619590 -1.629399
4.260888 8.635163 -1.604647
4.510733 9.140067 -1.453011
5.092705 10.329584 -1.363513
6.969095 14.165080 -1.490942
8.893623 18.092426 -1.427268
12.192073 24.834112 -1.308296
0.002903 -0.108137 -0.003083
18.441652 37.556702 -0.019038
18.583050 37.829292 0.961595
18.603933 37.838917 1.951602
25.630228 52.127445 4.043267
25.828960 52.486816 5.440959
27.977545 56.838112 7.392040
0.002903 -0.108137 -0.003083
28.085920 56.959610 10.421741
28.111292 56.986824 11.962077
0.257417 0.406978 -0.344038
0.264934 0.421704 -0.335414
0.290283 0.472746 -0.347916
0.320975 0.534147 -0.363205
0.391437 0.675770 -0.417550
1.748603 3.410308 -1.753534
1.839817 3.592550 -1.730569
1.947239 3.805582 -1.711398
2.075303 4.059790 -1.699209
2.214475 4.337831 -1.683011
2.387778 4.682032 -1.674991
2.587832 5.079415 -1.667365
2.855569 5.614249 -1.679491
3.134883 6.169160 -1.668065
3.455827 6.806497 -1.648919
3.853938 7.597033 -1.629380
4.318783 8.622294 -1.606901
4.535627 9.052975 -1.443499
5.171255 10.333188 -1.367909
7.065989 14.148653 -1.493521
9.024453 18.085997 -1.430876
12.367278 24.817028 -1.311153
18.294460 36.733635 -0.973642
18.524921 37.165665 -0.018839
18.661688 37.424973 0.954188
18.680866 37.431179 1.936342
25.991066 52.078312 4.051426
26.186533 52.425591 5.450692
0.002889 -0.107986 -0.003078
0.002889 -0.107986 -0.003078
0.002889 -0.107986 -0.003078
28.224375 56.369183 11.867590
0.265681 0.416461 -0.351179
0.267085 0.418836 -0.334427
0.294330 0.472852 -0.348851
0.322925 0.529331 -0.361402
0.394183 0.670508 -0.415832
1.769019 3.402302 -1.754336
1.858763 3.579108 -1.729013
1.969869 3.796499 -1.712113
2.096830 4.044963 -1.697827
2.242676 4.332331 -1.685563
2.417050 4.673915 -1.676767
2.619347 5.070205 -1.669007
2.891818 5.607027 -1.682012
3.169850 6.151744 -1.668048
3.497022 6.792502 -1.650152
3.902200 7.586100 -1.631586
4.366545 8.596464 -1.606554
4.550253 8.955120 -1.432033
5.225880 10.297233 -1.366954
7.164217 14.146530 -1.497407
9.150032 18.083654 -1.434623
12.531322 24.797764 -1.313731
18.336126 36.306114 -0.964980
18.607557 36.813602 -0.018659
18.707043 36.995457 0.945952
18.738873 37.026844 1.920893
26.350225 52.067978 4.062078
26.557428 52.433426 5.466896
28.134501 55.530491 7.263994
0.002879 -0.107827 -0.003074
28.278908 55.720840 10.254403
28.302774 55.744556 11.769399
0.261763 0.401248 -0.341986
0.272577 0.422065 -0.337363
0.296156 0.468117 -0.346966
0.329959 0.533928 -0.364990
0.406991 0.684428 -0.424389
1.790026 3.393855 -1.755140
1.877239 3.561612 -1.725915
1.991287 3.781601 -1.710644
2.118988 4.029644 -1.696445
2.268090 4.317442 -1.684908
2.444470 4.657976 -1.676155
2.654375 5.065472 -1.672306
2.924760 5.588232 -1.681488
3.211173 6.143940 -1.670804
3.537562 6.774172 -1.650550
3.949097 7.568931 -1.632679
4.422555 8.579380 -1.608157
4.564619 8.854812 -1.420290
5.946574 11.560107 -1.537032
7.256753 14.119927 -1.499053
9.270879 18.062859 -1.437106
12.720577 24.805021 -1.317997
18.518965 36.132812 -0.963203
18.683170 36.438950 -0.018467
18.762810 36.563622 0.937811
18.801208 36.607594 1.904985
26.742834 52.096752 4.076339
26.972908 52.501385 5.490135
28.237171 54.920986 7.206223
0.002890 -0.107691 -0.003071
28.351681 55.074551 10.165556
28.377262 55.077728 11.664191
0.267854 0.406001 -0.346065
0.274037 0.417545 -0.335399
0.301080 0.469708 -0.348840
0.332824 0.530598 -0.364086
0.409896 0.679015 -0.422672
1.806559 3.375234 -1.751058
1.900036 3.554185 -1.727448
2.013649 3.770235 -1.710633
2.146090 4.022170 -1.698487
2.293524 4.304478 -1.684895
2.475397 4.650762 -1.678528
2.685869 5.051524 -1.672841
2.961061 5.578337 -1.683501
3.249983 6.128408 -1.671710
3.579220 6.754972 -1.650949
3.998208 7.552499 -1.634145
4.475215 8.559197 -1.609112
4.584044 8.762657 -1.409940
6.024577 11.547025 -1.539797
7.356793 14.113476 -1.502749
9.395889 18.041389 -1.439730
12.896791 24.795450 -1.321322
18.631563 35.841179 -0.958222
18.767881 36.073799 -0.018282
18.822510 36.164131 0.930398
18.864874 36.215256 1.890276
27.154024 52.133934 4.091855
27.401060 52.565067 5.513749
28.331461 54.331272 7.150301
0.002878 -0.107536 -0.003066
28.439350 54.447071 10.080917
28.489864 54.521519 11.581153
0.269281 0.401533 -0.344017
0.277123 0.416087 -0.335392
0.300402 0.460256 -0.344137
0.337419 0.530365 -0.364978
0.407694 0.664005 -0.415816
1.829139 3.369786 -1.753490
1.922570 3.544655 -1.728207
2.034203 3.755448 -1.709165
2.169813 4.009924 -1.698474
2.319773 4.293041 -1.685524
2.500955 4.633229 -1.677321
2.717309 5.039548 -1.673931
2.997358 5.568202 -1.685515
3.285814 6.109768 -1.671693
3.622941 6.745435 -1.653430
4.045463 7.538936 -1.635979
4.528348 8.536174 -1.609739
4.604702 8.678397 -1.400709
6.098194 11.520062 -1.540933
7.451170 14.089169 -1.504768
9.520594 18.026037 -1.442776
13.078604 24.784143 -1.324741
18.693050 35.457405 -0.950788
18.959972 35.935261 -0.018192
18.895679 35.783115 0.923535
18.935814 35.844624 1.876675
27.563068 52.183464 4.108201
27.804159 52.619354 5.535692
28.409685 53.722988 7.091831
0.002889 -0.107400 -0.003063
28.515568 53.856659 10.001123
28.569447 53.913734 11.487028
0.275352 0.406253 -0.348097
0.278402 0.411620 -0.333426
0.306883 0.464965 -0.347891
0.340124 0.527065 -0.364074
0.409563 0.657033 -0.413240
1.846540 3.354532 -1.751036
1.939443 3.527525 -1.725109
2.056387 3.743850 -1.709152
2.193480 3.997529 -1.698462
2.345937 4.281463 -1.686151
2.533600 4.629023 -1.680886
2.754143 5.037547 -1.678332
3.031797 5.554439 -1.686514
3.320614 6.089211 -1.671214
3.666293 6.729163 -1.654662
4.091681 7.516700 -1.636332
4.583920 8.524876 -1.612318
4.633807 8.611695 -1.394267
6.169505 11.498292 -1.542534
7.548975 14.082694 -1.508466
9.646330 18.011627 -1.445959
13.250176 24.772650 -1.327974
18.760113 35.091789 -0.943824
18.913906 35.351002 -0.017915
18.956366 35.416187 0.916850
18.966402 35.405674 1.859470
27.988605 52.258163 4.126770
28.228088 52.662678 5.557827
28.510000 53.168156 7.040305
0.002877 -0.107245 -0.003058
28.612190 53.271030 9.923922
28.649492 53.318970 11.395487
0.273491 0.395698 -0.341966
0.283129 0.413192 -0.335382
0.311092 0.464866 -0.348824
0.343032 0.523628 -0.363171
0.416670 0.659521 -0.415804
1.864704 3.340798 -1.749397
1.963593 3.520996 -1.727412
2.078317 3.730108 -1.708413
2.217959 3.986657 -1.699134
2.371021 4.265975 -1.685497
2.562539 4.615766 -1.681468
2.783705 5.021780 -1.678317
3.066244 5.538225 -1.687005
3.360862 6.078714 -1.673506
3.707430 6.711565 -1.655476
4.137350 7.496655 -1.637052
4.633142 8.494244 -1.611645
4.696133 8.607705 -1.397874
6.247643 11.479160 -1.544832
7.641502 14.053612 -1.510111
9.773210 17.998110 -1.449285
13.517097 24.915293 -1.339750
18.825893 34.716251 -0.936673
18.973030 34.974335 -0.017724
18.999166 34.993835 0.908889
19.051054 35.060844 1.847347
28.413992 52.326195 4.145063
13.924836 25.565128 2.710732
28.582790 52.551346 6.981139
0.002864 -0.107090 -0.003053
28.692730 52.689430 9.846392
28.750698 52.752892 11.310970
0.276383 0.394273 -0.341961
0.286960 0.413242 -0.336358
0.317766 0.469422 -0.352578
0.342383 0.513955 -0.358677
0.408925 0.635080 -0.403810
1.885395 3.331775 -1.750200
1.978233 3.498478 -1.721999
2.099468 3.716618 -1.707673
2.240575 3.972344 -1.698437
2.400722 4.260717 -1.688689
2.591513 4.604453 -1.682647
2.816899 5.012567 -1.680512
3.100538 5.524048 -1.688003
3.398284 6.062845 -1.674413
3.749457 6.695413 -1.656708
4.185804 7.481479 -1.638889
4.649494 8.406966 -1.600250
4.731971 8.554630 -1.393666
6.322793 11.458860 -1.546899
7.742943 14.046250 -1.513995
0.002876 -0.106954 -0.003050
13.632088 24.784685 -1.336876
18.898184 34.374290 -0.930324
19.027510 34.596397 -0.017535
19.071020 34.647423 0.902797
19.120422 34.709118 1.834668
28.839186 52.387550 4.163080
28.588886 51.889614 5.510867
28.672743 51.999756 6.929844
0.002876 -0.106954 -0.003050
28.777988 52.127708 9.772420
28.826651 52.173607 11.222383
0.281745 0.397362 -0.345017
0.286571 0.405644 -0.332432
0.315954 0.458475 -0.346935
0.351140 0.521521 -0.364059
0.417582 0.640773 -0.408086
1.903958 3.317521 -1.748559
2.000751 3.490417 -1.723531
2.123238 3.707901 -1.709116
2.266560 3.962433 -1.699794
2.426733 4.248656 -1.689316
2.621385 4.594621 -1.684423
2.850929 5.002670 -1.682703
3.133846 5.507962 -1.688495
3.430064 6.034256 -1.672086
3.792579 6.678356 -1.657938
4.234546 7.463562 -1.640351
4.661143 8.312896 -1.587554
4.809153 8.573363 -1.401178
6.398875 11.439822 -1.549197
7.835840 14.022532 -1.516198
8.010501 14.325871 -1.163251
0.002864 -0.106799 -0.003046
18.956505 34.013435 -0.923458
19.111494 34.264614 -0.017367
19.152134 34.324078 0.897301
14.321252 25.617254 1.359145
14.137050 25.265787 2.017274
13.840796 24.713947 2.637751
28.767944 51.467968 6.881095
0.002864 -0.106799 -0.003046
28.884087 51.592754 9.704274
28.909355 51.617508 11.138601
0.283064 0.392835 -0.342972
0.292152 0.408666 -0.335367
0.321871 0.461388 -0.349747
0.354867 0.519587 -0.364054
0.422004 0.638451 -0.408081
1.921861 3.303477 -1.746921
2.023865 3.481868 -1.725063
2.145837 3.695398 -1.709105
2.292711 3.954399 -1.701835
2.453457 4.236000 -1.689944
2.647328 4.575843 -1.683215
2.885025 4.994704 -1.685448
3.167071 5.489455 -1.688478
3.468231 6.019658 -1.673455
3.834466 6.661682 -1.659170
4.278043 7.439231 -1.640331
4.678165 8.226753 -1.576484
4.874525 8.573343 -1.405620
6.478912 11.422621 -1.551961
7.942907 14.017641 -1.520640
0.002875 -0.106663 -0.003043
13.727978 24.279325 -1.318171
19.015224 33.646244 -0.916497
19.156775 33.884167 -0.017177
14.415545 25.449757 0.667521
13.966825 24.634270 1.311503
14.145493 24.940941 1.997901
13.984397 24.635771 2.637991
28.856152 50.912758 6.829799
0.002875 -0.106663 -0.003043
28.949661 51.017078 9.627389
28.999409 51.064003 11.056299
0.291860 0.401840 -0.350111
0.291663 0.401080 -0.331440
0.321646 0.453550 -0.345984
0.354909 0.511500 -0.360455
0.426275 0.636176 -0.408074
1.939643 3.289351 -1.745281
2.039891 3.462325 -1.721192
2.165828 3.679923 -1.707636
2.310442 3.931518 -1.697713
2.481230 4.226910 -1.691854
2.678994 4.568968 -1.686184
2.922942 4.993190 -1.690402
3.199222 5.471299 -1.688461
