# This PCD file was generated using the MATLAB® pcwrite function
# from Computer Vision Toolbox®.
# .PCD v.7 - Point Cloud Data file format
VERSION .7
FIELDS x y z
SIZE 4 4 4
TYPE F F F
COUNT 1 1 1
WIDTH 1629
HEIGHT 1
VIEWPOINT 0 0 0 1 0 0 0
POINTS 1629
DATA ascii
4.104853 -0.894548 -1.864605
4.352224 -0.945178 -1.854807
4.668966 -1.010747 -1.860338
5.020985 -1.083685 -1.864895
5.407261 -1.162849 -1.864583
5.812987 -1.247168 -1.851239
5.802205 -1.247181 -1.698218
6.398341 -1.369531 -1.709749
8.096256 -1.717828 -1.958160
9.182641 -1.942605 -1.992444
10.435970 -2.202332 -2.007258
10.869534 -2.241775 -1.821463
10.810143 -2.233985 -1.549807
10.822806 -2.238646 -1.289272
10.879672 -2.254163 -1.035720
0.001120 -0.068829 -0.001181
14.115922 -2.912369 -0.671796
14.130339 -2.920619 -0.334999
14.148757 -2.929670 -0.000346
14.150277 -2.932761 0.334815
0.001120 -0.068829 -0.001181
14.166373 -2.946722 1.010418
14.138500 -2.946400 1.345647
21.655516 -4.480704 2.584430
20.787827 -4.311775 2.981668
0.001120 -0.068829 -0.001181
19.937477 -4.149671 3.834097
3.039220 -0.693501 -1.840403
3.201529 -0.728103 -1.836916
3.404853 -0.770681 -1.848828
3.610535 -0.814488 -1.851397
3.838988 -0.863155 -1.856041
4.092853 -0.916518 -1.861364
4.339721 -0.969327 -1.851738
4.661476 -1.037898 -1.859626
5.020575 -1.113574 -1.866961
5.402526 -1.195133 -1.865240
5.813354 -1.283024 -1.853637
5.808485 -1.283159 -1.702091
6.386709 -1.406497 -1.708753
8.090425 -1.765043 -1.959101
9.181264 -1.997280 -1.994544
10.408112 -2.258964 -2.004319
10.869988 -2.308832 -1.823759
10.826612 -2.302025 -1.554006
10.829208 -2.306655 -1.291617
10.884066 -2.322111 -1.037416
0.001117 -0.068673 -0.001187
14.126193 -3.001543 -0.673130
14.140561 -3.009873 -0.335677
14.161430 -3.017000 -0.000375
14.164368 -3.022978 0.335528
14.171259 -3.029771 0.674707
14.176927 -3.033748 1.012342
19.884949 -4.235188 1.895305
21.619257 -4.606790 2.583223
19.476133 -4.160735 2.796731
0.001117 -0.068673 -0.001187
22.653379 -4.845513 4.361891
3.040607 -0.711900 -1.843474
3.202804 -0.747467 -1.839867
3.402475 -0.790485 -1.849779
3.611398 -0.836210 -1.854099
3.834482 -0.884422 -1.856053
4.098623 -0.942203 -1.866257
4.341665 -0.995677 -1.854834
4.659629 -1.064530 -1.861094
5.012625 -1.141904 -1.866291
5.401702 -1.226311 -1.867174
5.815807 -1.317301 -1.856630
5.807033 -1.317635 -1.703761
6.381042 -1.442391 -1.709276
8.086224 -1.812657 -1.960503
9.172269 -2.048756 -1.994980
10.293902 -2.294842 -1.984720
10.878151 -2.375711 -1.827348
10.834869 -2.368658 -1.557089
10.837511 -2.373328 -1.294191
10.888438 -2.388289 -1.039111
0.001113 -0.068520 -0.001193
14.136437 -3.088476 -0.674462
14.153273 -3.094856 -0.336400
14.169660 -3.103734 -0.000403
14.166669 -3.108456 0.335966
14.172106 -3.112417 0.675518
14.184971 -3.120551 1.014130
0.001113 -0.068520 -0.001193
20.044056 -4.392840 2.397725
20.021391 -4.395555 2.878560
19.884281 -4.369843 3.342170
19.491619 -4.292306 3.757344
3.036961 -0.728717 -1.843484
3.200661 -0.765557 -1.840857
3.394926 -0.808562 -1.847911
3.605309 -0.855832 -1.853214
3.831475 -0.906714 -1.856920
4.089956 -0.964858 -1.864643
4.336414 -1.019747 -1.854846
4.661071 -1.092775 -1.864015
5.013705 -1.172213 -1.869041
5.394941 -1.257234 -1.867188
5.821575 -1.353496 -1.860815
5.814763 -1.354208 -1.708185
6.382466 -1.481030 -1.711823
8.074133 -1.858588 -1.960059
9.166081 -2.104230 -1.996247
10.111682 -2.318126 -1.952165
10.867013 -2.436641 -1.827693
10.838850 -2.434620 -1.559615
10.838070 -2.436591 -1.295835
10.892826 -2.452696 -1.040803
12.300156 -2.765440 -0.880990
14.142765 -3.172285 -0.675604
14.159051 -3.181245 -0.336983
14.183209 -3.191944 -0.000428
14.170957 -3.192026 0.336452
0.001108 -0.068367 -0.001199
14.194448 -3.207990 1.016057
18.906364 -4.257476 1.806378
0.001108 -0.068367 -0.001199
22.735779 -5.119145 3.273087
21.014254 -4.744676 3.536741
19.386431 -4.386255 3.741753
3.029626 -0.745818 -1.841454
3.191340 -0.783225 -1.837928
3.388751 -0.828150 -1.846984
3.605805 -0.878230 -1.855917
3.829947 -0.930062 -1.858642
4.086502 -0.988636 -1.865468
4.339707 -1.047344 -1.858713
4.656736 -1.120669 -1.864757
5.010914 -1.201726 -1.870421
5.393334 -1.290315 -1.869123
5.817558 -1.388683 -1.862020
5.818485 -1.390047 -1.711504
6.372067 -1.518265 -1.711331
8.061793 -1.904449 -1.959615
9.150391 -2.155931 -1.995434
10.073670 -2.370452 -1.947373
0.001103 -0.068215 -0.001205
10.836643 -2.499411 -1.561306
10.845135 -2.505440 -1.298407
10.907636 -2.523644 -1.043611
0.001103 -0.068215 -0.001205
14.153355 -3.262534 -0.677027
14.165687 -3.270708 -0.337611
14.190338 -3.279073 -0.000451
14.185352 -3.283354 0.337215
0.001103 -0.068215 -0.001205
14.201450 -3.295207 1.017846
0.001103 -0.068215 -0.001205
21.890200 -5.059126 2.625409
22.990166 -5.314464 3.313984
20.377136 -4.725921 3.433890
19.743641 -4.588642 3.815802
3.024005 -0.762724 -1.840445
3.192266 -0.802609 -1.840877
3.380866 -0.846704 -1.845116
3.601067 -0.898819 -1.855927
3.821393 -0.951134 -1.856942
4.081121 -1.011989 -1.865479
4.328581 -1.070898 -1.856411
4.646963 -1.146462 -1.863314
5.006139 -1.230831 -1.871118
5.393595 -1.322914 -1.871696
0.001100 -0.068059 -0.001211
5.823883 -1.426425 -1.715376
6.369270 -1.556091 -1.712865
8.051077 -1.950668 -1.959630
9.153455 -2.211984 -1.998777
10.064058 -2.429129 -1.948131
0.001100 -0.068059 -0.001211
0.001100 -0.068059 -0.001211
10.842535 -2.570337 -1.299817
10.916592 -2.591596 -1.045858
0.001100 -0.068059 -0.001211
14.161969 -3.350082 -0.678353
14.174285 -3.358340 -0.338283
14.195016 -3.365963 -0.000475
14.193880 -3.371108 0.337843
14.210254 -3.380335 0.679919
14.209853 -3.383055 1.019777
0.001100 -0.068059 -0.001211
20.907587 -4.961634 2.510802
20.680355 -4.912534 2.984827
19.796667 -4.713075 3.340449
19.487726 -4.648024 3.771323
3.023150 -0.781271 -1.842494
3.186162 -0.820987 -1.839908
3.386514 -0.869043 -1.850761
3.599541 -0.920831 -1.857732
3.821357 -0.974882 -1.859520
4.084335 -1.038140 -1.869557
4.322547 -1.096395 -1.856422
4.647718 -1.175572 -1.866234
4.999140 -1.260344 -1.871129
5.382359 -1.353836 -1.870428
5.818443 -1.460285 -1.867408
5.821338 -1.462133 -1.717043
6.356562 -1.592778 -1.711866
8.045460 -1.999599 -1.961030
9.140558 -2.266058 -1.998793
10.086181 -2.497362 -1.955183
0.001096 -0.067906 -0.001218
10.136782 -2.466815 -1.464515
10.848764 -2.639469 -1.302387
10.916927 -2.659799 -1.047362
0.001096 -0.067906 -0.001218
14.167526 -3.439846 -0.679586
14.181769 -3.448664 -0.338956
14.204386 -3.456858 -0.000496
14.201265 -3.461540 0.338472
14.205918 -3.468085 0.680642
14.217088 -3.473562 1.021711
19.548836 -4.758339 1.875252
20.559515 -5.008724 2.472426
20.576176 -5.016799 2.973938
21.115669 -5.154644 3.568104
19.217607 -4.704745 3.724253
3.025674 -0.800134 -1.846583
3.183448 -0.839569 -1.840896
3.385249 -0.889195 -1.852647
3.594565 -0.941387 -1.857742
3.814306 -0.996286 -1.858674
4.075120 -1.060618 -1.867940
4.318345 -1.121554 -1.857204
4.641253 -1.202156 -1.866245
4.999489 -1.290734 -1.873876
5.376698 -1.385098 -1.871080
5.827011 -1.497698 -1.872781
5.824405 -1.498210 -1.720362
6.357067 -1.631498 -1.714410
8.039867 -2.047118 -1.962427
9.141051 -2.321767 -2.001719
10.390663 -2.633916 -2.017023
0.001093 -0.067750 -0.001224
10.848397 -2.701112 -1.569431
10.853084 -2.706401 -1.304723
10.925048 -2.728086 -1.049608
0.001093 -0.067750 -0.001224
14.177007 -3.528277 -0.681003
14.191203 -3.537176 -0.339670
14.209909 -3.544564 -0.000515
14.206736 -3.549220 0.339057
14.219105 -3.557706 0.682207
14.232133 -3.563714 1.024203
19.504129 -4.866295 1.873554
20.152719 -5.033610 2.426850
0.001093 -0.067750 -0.001224
0.001093 -0.067750 -0.001224
19.190622 -4.815059 3.724228
3.014741 -0.815746 -1.842513
3.177264 -0.857321 -1.839926
3.378741 -0.908090 -1.851717
3.589484 -0.961931 -1.857752
3.810661 -1.018529 -1.859540
4.065775 -1.083014 -1.866322
4.315775 -1.147135 -1.858755
4.634657 -1.228713 -1.866256
4.990541 -1.318887 -1.873203
5.378217 -1.418186 -1.874292
5.831622 -1.534313 -1.876961
5.825385 -1.533905 -1.723128
6.347961 -1.667914 -1.714422
8.032103 -2.094155 -1.963362
9.133609 -2.375627 -2.002980
10.398579 -2.699310 -2.021480
0.001088 -0.067598 -0.001230
10.856132 -2.769096 -1.572787
10.857002 -2.773476 -1.307058
10.932744 -2.796550 -1.051853
11.090371 -2.838098 -0.799950
14.185925 -3.616922 -0.682418
14.203974 -3.626889 -0.340477
14.216808 -3.632918 -0.000531
14.217491 -3.638545 0.339783
14.231702 -3.647578 0.683775
14.233071 -3.650749 1.025720
19.532192 -4.992393 1.878921
20.066015 -5.134706 2.419855
21.863905 -5.593089 3.169073
19.620861 -5.033737 3.324803
19.810730 -5.089410 3.850141
3.010380 -0.832941 -1.842522
3.172656 -0.875448 -1.839935
3.372144 -0.926952 -1.850788
3.589456 -0.983748 -1.860452
3.810365 -1.041637 -1.862115
4.066770 -1.108785 -1.869586
4.309493 -1.171818 -1.858765
4.635089 -1.257063 -1.869174
4.984838 -1.348776 -1.873897
5.375849 -1.450385 -1.876222
5.830476 -1.569611 -1.879354
5.837069 -1.573566 -1.729203
6.340505 -1.704753 -1.714939
8.040668 -2.146965 -1.968446
9.108400 -2.426660 -2.000499
10.396103 -2.764233 -2.024087
0.001083 -0.067445 -0.001236
10.859099 -2.838161 -1.575584
10.862415 -2.841168 -1.309623
10.938064 -2.864689 -1.053909
11.075672 -2.904143 -0.800105
14.190400 -3.704775 -0.683643
14.206477 -3.714366 -0.341049
14.230284 -3.725949 -0.000548
14.225764 -3.727618 0.340463
14.241831 -3.737228 0.685250
14.242477 -3.742873 1.027936
19.942245 -5.221558 1.921278
20.182709 -5.287728 2.437495
0.001083 -0.067445 -0.001236
21.367634 -5.610682 3.626410
19.591276 -5.153735 3.813081
3.010756 -0.851925 -1.845589
3.161039 -0.892331 -1.836024
3.366970 -0.946781 -1.850796
3.580498 -1.003970 -1.858667
3.799263 -1.062693 -1.859557
4.058933 -1.131563 -1.868782
4.315362 -1.200492 -1.864170
4.631559 -1.285337 -1.870639
4.984661 -1.379224 -1.876643
5.371208 -1.483056 -1.877512
5.830677 -1.606440 -1.882342
5.830147 -1.607472 -1.729764
6.328797 -1.741671 -1.714442
8.024788 -2.192055 -1.967535
9.111666 -2.483396 -2.004252
10.384201 -2.824881 -2.024840
0.001079 -0.067292 -0.001242
10.864032 -2.905954 -1.578657
10.864993 -2.910406 -1.311956
10.948258 -2.936414 -1.056523
11.207752 -3.006644 -0.810853
14.199497 -3.796812 -0.685149
14.217471 -3.807018 -0.341853
14.238008 -3.815255 -0.000562
14.234741 -3.819886 0.341191
14.246857 -3.828574 0.686539
14.257758 -3.834296 1.030572
21.096193 -5.649337 2.035571
20.172525 -5.412705 2.440031
20.484615 -5.499490 2.978023
19.593943 -5.270859 3.330276
0.001079 -0.067292 -0.001242
3.007856 -0.869546 -1.846618
3.174774 -0.915330 -1.846809
3.358434 -0.965090 -1.848926
3.581941 -1.026266 -1.862264
3.797132 -1.084669 -1.861276
4.058026 -1.156185 -1.871230
4.301608 -1.223234 -1.861094
4.631873 -1.312954 -1.873556
4.978833 -1.408230 -1.877336
5.363216 -1.512862 -1.877521
5.829367 -1.640805 -1.884733
5.836024 -1.644867 -1.734182
6.326834 -1.778849 -1.716478
8.016175 -2.239074 -1.968467
9.103707 -2.535603 -2.005510
10.391417 -2.888829 -2.029294
0.001076 -0.067136 -0.001248
10.872389 -2.974937 -1.582287
10.869539 -2.978373 -1.314517
10.981554 -3.012621 -1.061362
0.001076 -0.067136 -0.001248
14.208677 -3.886614 -0.686653
14.227288 -3.894455 -0.342607
14.249039 -3.905814 -0.000574
14.243804 -3.909912 0.341921
14.254595 -3.915665 0.687925
14.262806 -3.923396 1.032514
20.297760 -5.559248 1.961393
19.574854 -5.371202 2.371230
0.001076 -0.067136 -0.001248
0.001076 -0.067136 -0.001248
20.053011 -5.520315 3.914905
3.003329 -0.886180 -1.846625
3.158200 -0.929664 -1.839958
3.351653 -0.983205 -1.847994
3.574804 -1.045624 -1.861374
3.785963 -1.104918 -1.858716
4.044626 -1.177434 -1.867984
4.295091 -1.247083 -1.861102
4.621031 -1.338460 -1.872110
4.972834 -1.437214 -1.878028
5.352973 -1.543057 -1.876889
5.825733 -1.675710 -1.886529
5.832403 -1.679820 -1.735844
6.320583 -1.816105 -1.717498
8.005426 -2.285559 -1.968938
9.087003 -2.588858 -2.005103
10.374493 -2.950249 -2.029305
0.001071 -0.066984 -0.001254
10.878386 -3.043579 -1.585636
10.876117 -3.045135 -1.317309
11.007186 -3.085286 -1.065457
11.123166 -3.121407 -0.807252
14.216022 -3.973617 -0.688059
14.235868 -3.984596 -0.343360
14.257546 -3.996077 -0.000584
14.252973 -3.997670 0.342655
14.262999 -4.005956 0.689407
14.269227 -4.013215 1.034596
19.748585 -5.536325 1.911379
19.553596 -5.486236 2.372377
19.596327 -5.505678 2.857710
19.827499 -5.577541 3.380518
20.634804 -5.806055 4.034897
3.000053 -0.904282 -1.847652
3.151351 -0.947773 -1.838986
3.352963 -1.004825 -1.851757
3.568929 -1.066657 -1.861381
3.793665 -1.131120 -1.865569
4.045202 -1.202527 -1.871245
4.288002 -1.272377 -1.861109
4.616994 -1.366708 -1.873573
4.972100 -1.467708 -1.880771
5.345945 -1.575144 -1.877537
5.812412 -1.709045 -1.885346
0.001066 -0.066831 -0.001260
6.308255 -1.852894 -1.717002
7.998115 -2.333023 -1.970328
9.083642 -2.644182 -2.007607
10.369062 -3.012981 -2.031534
12.075820 -3.443515 -2.060587
10.872528 -3.109196 -1.587316
10.883134 -3.116392 -1.320335
11.000600 -3.153577 -1.066582
11.120749 -3.189517 -0.808375
14.217610 -4.064713 -0.689280
14.239313 -4.076347 -0.344019
14.261642 -4.085488 -0.000592
14.264039 -4.091704 0.343482
14.268240 -4.098438 0.690794
14.282740 -4.105393 1.037240
21.368406 -6.117391 2.071588
0.001066 -0.066831 -0.001260
19.692371 -5.654390 2.876353
19.954920 -5.736656 3.407752
20.392500 -5.868943 3.994141
2.993531 -0.920927 -1.846639
3.151248 -0.967182 -1.841931
3.345804 -1.023477 -1.850825
3.566549 -1.088024 -1.863183
3.782253 -1.151290 -1.863009
4.043846 -1.227150 -1.873691
4.288080 -1.298934 -1.864199
4.614802 -1.394659 -1.875762
4.965743 -1.496669 -1.881461
5.340799 -1.606781 -1.878824
5.810189 -1.744437 -1.887735
5.837461 -1.753499 -1.743025
6.307158 -1.891711 -1.719541
7.988693 -2.379969 -1.971259
9.074279 -2.697901 -2.008861
10.363239 -3.075739 -2.033762
12.059973 -3.513891 -2.061244
10.877672 -3.178093 -1.590662
10.892127 -3.186472 -1.323588
11.011359 -3.224909 -1.069375
11.127538 -3.260473 -0.810197
14.188601 -4.144649 -0.689009
14.200644 -4.153650 -0.343658
14.222906 -4.162902 -0.000601
14.232962 -4.171344 0.343287
14.229440 -4.175871 0.690040
14.236278 -4.180708 1.035555
19.307518 -5.653842 1.874740
21.847193 -6.397328 2.659589
19.629463 -5.758601 2.871889
19.944723 -5.857810 3.411634
20.692822 -6.083119 4.059691
2.991849 -0.938951 -1.848685
3.144319 -0.984665 -1.840958
3.347012 -1.044553 -1.854587
3.558875 -1.107877 -1.862291
3.782897 -1.174945 -1.866439
4.031645 -1.249431 -1.871258
4.280909 -1.323446 -1.864205
4.605272 -1.420515 -1.875040
4.958974 -1.526477 -1.882152
5.328210 -1.636281 -1.877550
5.798601 -1.777167 -1.887146
5.836552 -1.790649 -1.745787
6.296541 -1.927830 -1.719547
7.991616 -2.432117 -1.975415
9.052875 -2.749839 -2.007621
10.348992 -3.138118 -2.034511
12.047502 -3.585305 -2.062547
10.885652 -3.250180 -1.594567
10.889244 -3.253421 -1.325450
11.012126 -3.293685 -1.071240
11.137113 -3.334663 -0.812295
0.001057 -0.066525 -0.001272
0.001057 -0.066525 -0.001272
0.001057 -0.066525 -0.001272
19.218733 -5.729130 0.464768
0.001057 -0.066525 -0.001272
19.800568 -5.916049 1.443324
19.302692 -5.776504 1.877521
20.619944 -6.170342 2.514338
23.529812 -7.040946 3.448795
19.955450 -5.989243 3.419410
20.032347 -6.016100 3.936717
2.984972 -0.956045 -1.847671
3.142168 -1.004155 -1.842924
3.337766 -1.063230 -1.852716
3.554356 -1.129340 -1.863195
3.778177 -1.197068 -1.867300
4.028257 -1.273512 -1.872891
4.273383 -1.348670 -1.864212
4.597406 -1.446858 -1.875046
4.955875 -1.556467 -1.884209
5.326352 -1.668968 -1.880117
5.795962 -1.812565 -1.889534
5.854136 -1.832392 -1.754060
6.285708 -1.963883 -1.719552
7.970410 -2.475672 -1.973576
9.047131 -2.803015 -2.009705
10.342970 -3.199092 -2.036736
12.030214 -3.657667 -2.063202
10.886114 -3.318289 -1.597354
10.902506 -3.327456 -1.329398
11.025208 -3.368475 -1.074402
11.152503 -3.408844 -0.814809
14.570540 -4.439065 -0.709966
0.001054 -0.066370 -0.001278
0.001054 -0.066370 -0.001278
0.001054 -0.066370 -0.001278
19.937067 -6.073345 0.970635
20.173447 -6.152479 1.473054
0.001054 -0.066370 -0.001278
0.001054 -0.066370 -0.001278
19.959719 -6.107673 2.930347
19.565102 -5.992169 3.358110
20.200920 -6.192689 3.976714
2.981608 -0.973053 -1.848697
3.135193 -1.021013 -1.841948
3.322013 -1.078614 -1.847088
3.550061 -1.149533 -1.864097
3.768343 -1.216933 -1.865594
4.019701 -1.295297 -1.872082
4.271444 -1.373972 -1.866529
4.589620 -1.472346 -1.875051
4.947466 -1.583949 -1.884213
5.315497 -1.697961 -1.879481
5.756922 -1.835763 -1.880008
5.851545 -1.867158 -1.756270
6.267629 -1.996513 -1.717531
7.966130 -2.522834 -1.975884
9.029826 -2.852724 -2.009291
10.340327 -3.261250 -2.039700
12.034514 -3.732071 -2.067419
10.892429 -3.386349 -1.600975
10.908822 -3.395626 -1.332415
11.035185 -3.438531 -1.077191
11.154676 -3.477302 -0.816347
0.001049 -0.066217 -0.001284
0.001049 -0.066217 -0.001284
0.001049 -0.066217 -0.001284
22.500895 -6.978324 0.546249
21.291536 -6.611103 1.038432
0.001049 -0.066217 -0.001284
20.737442 -6.453113 2.023985
19.526279 -6.087739 2.389077
19.664557 -6.138123 2.891924
0.001049 -0.066217 -0.001284
19.405989 -6.069838 3.826706
2.979452 -0.991589 -1.850742
3.132799 -1.040476 -1.843913
3.326045 -1.101283 -1.852725
3.546975 -1.171476 -1.865897
3.761236 -1.239764 -1.865599
4.014074 -1.319502 -1.872900
4.265361 -1.399676 -1.867304
4.588053 -1.502413 -1.877965
4.938386 -1.613123 -1.884219
5.305431 -1.730227 -1.879486
5.767864 -1.877588 -1.887161
5.849908 -1.904546 -1.759029
6.250167 -2.032829 -1.716015
7.958849 -2.572221 -1.977733
9.021972 -2.910583 -2.011374
10.328133 -3.326532 -2.041185
12.020094 -3.805557 -2.068718
10.899022 -3.458969 -1.604874
10.911638 -3.467185 -1.335200
0.001047 -0.066061 -0.001290
11.124719 -3.540237 -0.815652
14.479181 -4.593616 -0.708014
0.001047 -0.066061 -0.001290
0.001047 -0.066061 -0.001290
19.281160 -6.114373 0.468760
21.115875 -6.698256 1.031809
21.322090 -6.767340 1.562540
20.238379 -6.434701 1.979004
20.764263 -6.608393 2.545474
20.175972 -6.427111 2.972671
19.456917 -6.208078 3.351622
0.001047 -0.066061 -0.001290
2.972422 -1.008052 -1.849727
3.125479 -1.057823 -1.842939
3.316662 -1.119201 -1.850853
3.542253 -1.192273 -1.866799
3.752685 -1.260697 -1.864747
4.015500 -1.345219 -1.876972
4.254092 -1.422933 -1.865767
4.579702 -1.528647 -1.877969
4.929398 -1.641373 -1.884223
5.292150 -1.759434 -1.878210
5.762793 -1.912356 -1.888952
5.859368 -1.944496 -1.765096
6.238736 -2.068618 -1.716018
7.942430 -2.617235 -1.977274
9.016625 -2.965912 -2.013871
10.307324 -3.385170 -2.040817
12.017192 -3.880505 -2.071961
10.903831 -3.529268 -1.608492
10.914602 -3.536999 -1.337984
0.001042 -0.065908 -0.001296
11.140647 -3.615550 -0.818302
14.483351 -4.686433 -0.709504
14.518271 -4.703307 -0.354423
14.559418 -4.719404 -0.000597
0.001042 -0.065908 -0.001296
19.376472 -6.274457 0.948442
19.617002 -6.355512 1.440111
0.001042 -0.065908 -0.001296
21.062901 -6.835785 2.586843
0.001042 -0.065908 -0.001296
19.960388 -6.493360 3.444708
18.766670 -6.116385 3.714479
2.966932 -1.024991 -1.849730
3.124682 -1.077261 -1.845881
3.312233 -1.138678 -1.851797
3.537400 -1.213043 -1.867700
3.747459 -1.282688 -1.865607
4.004355 -1.367727 -1.875349
4.251483 -1.448972 -1.868084
4.567660 -1.553680 -1.876518
4.918168 -1.669844 -1.883542
5.289509 -1.792064 -1.880773
5.746606 -1.943555 -1.887167
5.864565 -1.984443 -1.770060
6.230799 -2.105557 -1.717035
7.934555 -2.666566 -1.979120
8.999280 -3.019187 -2.013873
10.306121 -3.452212 -2.044519
12.010050 -3.954313 -2.074554
10.909484 -3.602266 -1.612389
10.922779 -3.608794 -1.341462
0.001037 -0.065755 -0.001302
0.001037 -0.065755 -0.001302
14.490702 -4.780661 -0.711176
14.523644 -4.797138 -0.355208
14.556281 -4.813545 -0.000594
19.493483 -6.427976 0.475698
0.001037 -0.065755 -0.001302
19.524391 -6.453552 1.436066
19.848469 -6.567458 1.948155
0.001037 -0.065755 -0.001302
20.062664 -6.649675 2.967109
20.053188 -6.654530 3.467415
18.656887 -6.199538 3.699667
2.964457 -1.043502 -1.851775
3.111995 -1.093435 -1.841967
3.309136 -1.159251 -1.853677
3.528843 -1.233299 -1.866807
3.738446 -1.304169 -1.864755
3.996796 -1.390616 -1.875353
4.244938 -1.474588 -1.868857
4.564056 -1.582359 -1.878704
4.905289 -1.696795 -1.882178
5.279185 -1.823264 -1.880777
5.749866 -1.982291 -1.891935
0.001032 -0.065603 -0.001308
6.224089 -2.144156 -1.718556
7.936061 -2.717593 -1.983270
8.982115 -3.070776 -2.013872
10.292048 -3.513195 -2.045628
11.994259 -4.027779 -2.075848
10.917160 -3.674173 -1.616562
10.927973 -3.682082 -1.344707
0.001032 -0.065603 -0.001308
0.001032 -0.065603 -0.001308
14.498516 -4.878304 -0.712942
14.531402 -4.895001 -0.356086
14.589450 -4.917267 -0.000588
25.603781 -8.590474 0.626460
19.592598 -6.596742 0.962721
19.239363 -6.482908 1.417786
20.186596 -6.806913 1.985153
23.876091 -8.048592 2.943813
18.349085 -6.204297 2.718751
0.001032 -0.065603 -0.001308
19.292881 -6.535446 3.833386
2.952252 -1.058213 -1.847699
3.110984 -1.112858 -1.844910
3.297778 -1.176455 -1.850865
3.516980 -1.251736 -1.864119
3.740044 -1.327768 -1.869036
3.985620 -1.412266 -1.873728
4.236774 -1.498862 -1.868861
4.553761 -1.607073 -1.877979
4.892254 -1.723649 -1.880812
5.267477 -1.851931 -1.880137
5.737268 -2.013590 -1.891341
5.869376 -2.060802 -1.778331
6.206877 -2.176834 -1.717036
7.913286 -2.760564 -1.981425
8.968910 -3.121976 -2.014702
10.267073 -3.568534 -2.044515
11.976877 -4.098495 -2.076819
10.922473 -3.745638 -1.620454
10.927689 -3.751749 -1.347255
0.001030 -0.065447 -0.001314
14.515152 -4.970791 -1.071898
14.508421 -4.974303 -0.714798
14.543983 -4.989312 -0.357052
14.597266 -5.013174 -0.000579
19.484077 -6.677440 0.477343
21.207327 -7.266599 1.044150
19.561020 -6.715361 1.444321
0.001030 -0.065447 -0.001314
21.083923 -7.245842 2.604300
0.001030 -0.065447 -0.001314
24.260111 -8.342251 4.211133
19.169067 -6.612937 3.815989
2.948302 -1.075098 -1.848723
3.100153 -1.128374 -1.841975
3.288163 -1.193536 -1.848989
3.508607 -1.270619 -1.863224
3.732706 -1.349123 -1.869038
3.979532 -1.435642 -1.874544
4.232187 -1.523538 -1.870404
4.546566 -1.633719 -1.878708
4.891496 -1.754694 -1.884233
5.260681 -1.883310 -1.881418
5.727768 -2.047064 -1.891938
5.875957 -2.100695 -1.783843
6.196448 -2.213009 -1.717543
7.901319 -2.807194 -1.982346
8.956163 -3.176884 -2.015947
10.260968 -3.634375 -2.047474
11.969102 -4.170235 -2.079405
10.923588 -3.816002 -1.623789
10.948287 -3.826728 -1.352352
11.060270 -3.869631 -1.091857
14.526299 -5.067735 -1.074819
14.518574 -5.068045 -0.716650
0.001025 -0.065294 -0.001320
0.001025 -0.065294 -0.001320
21.400921 -7.461220 0.525456
21.728163 -7.583014 1.071957
20.336845 -7.109759 1.504645
19.742678 -6.911837 1.949116
19.289457 -6.758621 2.387255
18.198671 -6.387403 2.707077
18.296156 -6.428605 3.182032
18.800676 -6.607954 3.750071
2.945495 -1.093547 -1.850766
3.098707 -1.148307 -1.844916
3.289747 -1.215790 -1.853687
3.499710 -1.290668 -1.862330
3.728430 -1.372284 -1.870752
3.976735 -1.460186 -1.876986
4.228665 -1.550287 -1.872717
4.537161 -1.660493 -1.878709
4.874590 -1.780170 -1.881497
5.249811 -1.914331 -1.881419
5.715891 -2.080834 -1.891937
5.882284 -2.140739 -1.789356
6.183608 -2.249573 -1.717544
7.889059 -2.853762 -1.983265
8.943623 -3.230176 -2.017190
10.242090 -3.693865 -2.047838
11.955720 -4.244889 -2.081344
10.929859 -3.888469 -1.627958
10.948285 -3.899310 -1.355130
0.001020 -0.065141 -0.001326
14.546207 -5.168262 -1.078434
14.528253 -5.167799 -0.718598
0.001020 -0.065141 -0.001326
0.001020 -0.065141 -0.001326
21.560366 -7.659557 0.530495
22.474537 -7.990609 1.111143
0.001020 -0.065141 -0.001326
19.359354 -6.903774 1.915115
20.088451 -7.169424 2.491382
19.933846 -7.118848 2.971332
20.871023 -7.458890 3.637414
17.989132 -6.445143 3.595627
2.944373 -1.112057 -1.853828
3.092430 -1.165989 -1.844919
3.278083 -1.232792 -1.850873
3.494279 -1.311250 -1.863229
3.724240 -1.394791 -1.872464
3.973808 -1.484755 -1.879428
4.216576 -1.573222 -1.871178
4.529651 -1.687057 -1.879437
4.873486 -1.811228 -1.884918
5.239074 -1.944367 -1.881419
5.707799 -2.114851 -1.893128
0.001015 -0.064989 -0.001332
6.170919 -2.284969 -1.717542
7.878380 -2.900961 -1.984645
8.936304 -3.285436 -2.019680
10.213633 -3.749932 -2.046351
11.944482 -4.318119 -2.083606
10.939394 -3.962459 -1.632682
10.954081 -3.972095 -1.358600
0.001015 -0.064989 -0.001332
14.550426 -5.263824 -1.080933
14.541900 -5.266632 -0.720726
0.001015 -0.064989 -0.001332
0.001015 -0.064989 -0.001332
21.254692 -7.689473 0.524049
24.231720 -8.767226 1.200607
20.492874 -7.428674 1.522409
19.623253 -7.124098 1.945243
0.001015 -0.064989 -0.001332
20.058748 -7.293002 2.996132
18.197577 -6.629654 3.177845
20.922712 -7.621240 4.190879
2.931829 -1.126506 -1.849751
3.094228 -1.186594 -1.849819
3.274630 -1.252702 -1.852753
3.483660 -1.329958 -1.861435
3.709734 -1.413597 -1.869044
3.958683 -1.504951 -1.876175
4.206083 -1.596685 -1.870407
4.518483 -1.712318 -1.878709
4.854517 -1.835876 -1.881498
5.231718 -1.975640 -1.882698
5.695884 -2.147510 -1.893126
0.001035 -0.064854 -0.001340
6.152600 -2.318314 -1.716022
7.863760 -2.946783 -1.985102
8.910265 -3.333963 -2.018011
10.203325 -3.812576 -2.048565
11.927217 -4.389327 -2.084893
10.944705 -4.035331 -1.636847
10.970633 -4.049170 -1.363461
0.001035 -0.064854 -0.001340
14.565251 -5.363680 -1.084266
14.551157 -5.364440 -0.722669
0.001035 -0.064854 -0.001340
0.001035 -0.064854 -0.001340
0.001035 -0.064854 -0.001340
19.715586 -7.273480 0.978650
0.001035 -0.064854 -0.001340
18.961504 -7.009343 1.883549
18.192539 -6.735064 2.265526
0.001035 -0.064854 -0.001340
0.001035 -0.064854 -0.001340
0.001035 -0.064854 -0.001340
2.925673 -1.143223 -1.849753
3.079527 -1.201212 -1.844922
3.262746 -1.269540 -1.849937
3.469623 -1.347374 -1.857848
3.703592 -1.435403 -1.869900
3.952045 -1.528205 -1.876989
4.200663 -1.622011 -1.871950
4.498453 -1.734269 -1.874346
4.847768 -1.864955 -1.882865
5.220638 -2.005579 -1.882697
5.685592 -2.180780 -1.893720
5.886990 -2.256977 -1.802028
6.144942 -2.355553 -1.717537
7.850673 -2.993197 -1.986019
8.894974 -3.386422 -2.018836
10.185264 -3.872463 -2.049297
0.001033 -0.064698 -0.001346
0.001033 -0.064698 -0.001346
10.973607 -4.121733 -1.366698
11.054951 -4.156293 -1.100368
14.581304 -5.464594 -1.087737
14.565363 -5.464594 -0.724887
0.001033 -0.064698 -0.001346
15.423803 -5.792326 -0.000468
20.438387 -7.662919 0.506041
19.726206 -7.406154 0.981284
21.150913 -7.940798 1.578021
0.001033 -0.064698 -0.001346
18.254354 -6.876968 2.278095
18.432428 -6.947259 2.764782
18.307545 -6.908067 3.210642
18.629177 -7.035878 3.747178
2.924233 -1.161705 -1.852814
3.072925 -1.218772 -1.844923
3.260728 -1.290030 -1.852756
3.465516 -1.368432 -1.859643
3.699016 -1.457821 -1.871611
3.953541 -1.555333 -1.881869
4.191610 -1.646008 -1.871948
4.492247 -1.761299 -1.875799
4.835251 -1.892864 -1.882181
5.214684 -2.037452 -1.884615
5.673311 -2.213322 -1.893717
5.888251 -2.297147 -1.806433
6.135289 -2.392117 -1.718547
7.838633 -3.041635 -1.987396
8.882433 -3.441741 -2.020492
10.168028 -3.934748 -2.050399
10.976929 -4.188021 -1.927018
10.982818 -4.194701 -1.649626
10.972392 -4.193066 -1.369470
0.001028 -0.064545 -0.001352
14.595690 -5.568396 -1.091207
14.584511 -5.567206 -0.727383
0.001028 -0.064545 -0.001352
15.180054 -5.804285 -0.000464
19.928663 -7.604054 0.494481
19.683626 -7.519373 0.981309
0.001028 -0.064545 -0.001352
20.748251 -7.939517 2.070230
0.001028 -0.064545 -0.001352
18.672682 -7.163208 2.807130
18.292473 -7.026124 3.215205
0.001028 -0.064545 -0.001352
2.920892 -1.180118 -1.854857
3.074170 -1.239948 -1.849823
3.255032 -1.309818 -1.853694
3.461057 -1.390093 -1.861438
3.685633 -1.477656 -1.869046
3.939515 -1.576649 -1.879429
4.189046 -1.673338 -1.875031
4.485573 -1.789097 -1.877253
4.826060 -1.922023 -1.882862
5.204648 -2.068872 -1.885252
5.665805 -2.248836 -1.895500
5.896428 -2.340185 -1.813044
6.121367 -2.428305 -1.718543
7.826264 -3.090008 -1.988772
8.858596 -3.492792 -2.019652
10.150370 -3.996941 -2.051497
10.970707 -4.259935 -1.930248
10.974777 -4.265978 -1.652119
10.981088 -4.270684 -1.373630
11.404276 -4.437462 -1.140079
14.603769 -5.670413 -1.094256
14.601984 -5.672772 -0.729879
0.001023 -0.064392 -0.001358
14.944176 -5.816437 -0.000458
19.928402 -7.739166 0.495623
0.001023 -0.064392 -0.001358
19.258026 -7.496741 1.443198
19.328499 -7.531850 1.932881
19.511269 -7.606546 2.445943
18.582233 -7.255013 2.799915
0.001023 -0.064392 -0.001358
18.515331 -7.240592 3.740928
2.911206 -1.195514 -1.852817
3.068983 -1.258112 -1.850804
3.244522 -1.327107 -1.851817
3.448370 -1.407896 -1.858746
3.677433 -1.498697 -1.869045
3.934427 -1.599801 -1.881055
4.183165 -1.698628 -1.876572
4.482517 -1.817459 -1.880161
4.819120 -1.950154 -1.884227
5.191261 -2.097955 -1.884609
5.656693 -2.282656 -1.896687
5.901536 -2.379939 -1.818551
6.116662 -2.466882 -1.721070
7.811071 -3.134203 -1.989224
8.842961 -3.543459 -2.020473
10.137428 -4.056994 -2.053336
0.001020 -0.064236 -0.001364
11.041597 -4.362209 -1.665737
10.980755 -4.343025 -1.376630
14.593954 -5.757071 -1.461825
14.637311 -5.777052 -1.099113
14.623424 -5.777633 -0.732556
0.001020 -0.064236 -0.001364
0.001020 -0.064236 -0.001364
0.001020 -0.064236 -0.001364
20.454464 -8.085469 1.024462
19.095535 -7.556535 1.434153
18.333838 -7.265192 1.837360
18.611612 -7.381954 2.338365
19.608936 -7.778209 2.961174
18.262577 -7.256053 3.224340
18.025759 -7.170206 3.650205
2.906235 -1.212732 -1.853837
3.060436 -1.274971 -1.849824
3.242115 -1.347566 -1.854634
3.440570 -1.427576 -1.858745
3.669113 -1.519696 -1.869044
3.927200 -1.622934 -1.881866
4.168529 -1.720477 -1.874257
4.475809 -1.844458 -1.881613
4.816911 -1.981188 -1.887643
5.186504 -2.130455 -1.887165
5.638515 -2.312913 -1.894896
5.898828 -2.417996 -1.821853
6.099123 -2.500451 -1.720050
7.798683 -3.181121 -1.990597
8.824591 -3.594861 -2.020876
10.127049 -4.120235 -2.055914
11.042804 -4.433559 -1.951611
11.009305 -4.422610 -1.664609
10.987350 -4.418447 -1.380557
0.001016 -0.064084 -0.001371
14.659816 -5.883121 -1.103273
14.653438 -5.886625 -0.735698
0.001016 -0.064084 -0.001371
28.588057 -11.441712 0.000470
19.729151 -7.924002 0.492942
20.159292 -8.103687 1.011996
24.164623 -9.706188 1.819429
0.001016 -0.064084 -0.001371
18.181858 -7.333866 2.289587
18.326706 -7.395642 2.773799
18.374783 -7.422464 3.251615
19.544315 -7.898918 3.966944
2.897977 -1.228656 -1.852818
3.055030 -1.293073 -1.850804
3.231389 -1.364736 -1.852755
3.427700 -1.445214 -1.856053
3.658979 -1.539956 -1.868186
3.911381 -1.642630 -1.878611
4.153781 -1.742219 -1.871942
4.460304 -1.867949 -1.879428
4.809275 -2.010145 -1.889007
5.178037 -2.161552 -1.888441
5.636087 -2.349486 -1.898464
5.906538 -2.460425 -1.828460
6.086787 -2.536093 -1.720550
7.793246 -3.230945 -1.993815
8.809558 -3.647656 -2.022111
10.116257 -4.183478 -2.058489
11.021129 -4.498361 -1.952243
0.001011 -0.063931 -0.001376
10.987899 -4.491848 -1.383786
0.001011 -0.063931 -0.001376
0.001011 -0.063931 -0.001376
14.695620 -6.001375 -0.739488
29.421116 -11.963485 -0.736220
27.665583 -11.259248 0.000466
26.010351 -10.600176 0.651879
0.001011 -0.063931 -0.001376
22.073277 -9.019080 1.665732
18.862295 -7.724131 1.899142
18.454391 -7.566114 2.329364
21.232347 -8.699973 3.221328
19.001108 -7.800270 3.370364
0.001011 -0.063931 -0.001376
2.891215 -1.245171 -1.852817
3.043056 -1.308511 -1.847865
3.228737 -1.385171 -1.855570
3.424649 -1.466808 -1.858744
3.653766 -1.562218 -1.869896
3.907313 -1.667066 -1.881050
4.149177 -1.768063 -1.874251
4.455013 -1.895573 -1.881606
4.797977 -2.037639 -1.889002
5.171134 -2.193338 -1.890357
5.619317 -2.380289 -1.897268
5.903310 -2.498634 -1.831760
6.076032 -2.572416 -1.721556
7.776682 -3.276340 -1.994265
8.783377 -3.695920 -2.020852
10.103271 -4.245996 -2.060694
10.997262 -4.562323 -1.952550
11.015236 -4.572004 -1.673201
10.997161 -4.569171 -1.388174
14.731184 -6.105210 -1.485706
29.900730 -12.333156 -2.259284
0.001008 -0.063775 -0.001383
14.391774 -5.980992 -0.361642
26.979248 -11.162442 0.000476
25.660873 -10.630733 0.644668
18.938751 -7.870383 0.955158
0.001008 -0.063775 -0.001383
18.611761 -7.747266 1.878354
18.254873 -7.607512 2.309642
18.544937 -7.731319 2.820091
17.977068 -7.504002 3.196215
17.775137 -7.427828 3.624739
2.889124 -1.263622 -1.855877
3.043866 -1.329193 -1.852760
3.212940 -1.400207 -1.850876
3.416502 -1.486342 -1.858741
3.645089 -1.583086 -1.869894
3.899687 -1.690076 -1.881859
4.144395 -1.793895 -1.876560
4.444398 -1.921040 -1.881602
4.788287 -2.065810 -1.889682
5.162289 -2.224387 -1.891632
5.604126 -2.411710 -1.896665
5.908693 -2.540596 -1.837815
6.057938 -2.605710 -1.720536
0.001003 -0.063622 -0.001389
8.774937 -3.751564 -2.023747
10.088090 -4.307737 -2.062527
10.998510 -4.636748 -1.957392
10.998233 -4.638967 -1.674572
11.018718 -4.652083 -1.394181
29.985003 -12.563319 -3.029932
30.352594 -12.723003 -2.298807
30.379915 -12.747070 -1.534420
26.907898 -11.308697 -0.676525
27.042252 -11.370584 0.000541
19.848743 -8.370986 0.499570
18.777428 -7.930428 0.949318
18.461706 -7.802065 1.399659
18.725157 -7.920322 1.894380
18.136086 -7.680726 2.300147
19.271027 -8.161516 2.937645
0.001003 -0.063622 -0.001389
17.727037 -7.527509 3.623663
2.885345 -1.281437 -1.857917
3.031713 -1.344514 -1.849821
3.213306 -1.421960 -1.855567
3.411543 -1.507229 -1.860534
3.636270 -1.603891 -1.869891
3.889981 -1.713038 -1.881857
4.134367 -1.817577 -1.876556
4.437046 -1.947892 -1.883052
4.778048 -2.094758 -1.890361
5.149748 -2.253906 -1.891624
5.592255 -2.444515 -1.897252
5.922208 -2.587517 -1.846626
6.034291 -2.636578 -1.717994
0.000999 -0.063470 -0.001395
8.747503 -3.801073 -2.022484
10.057326 -4.365020 -2.061399
0.000999 -0.063470 -0.001395
11.164277 -4.785755 -1.704044
11.030558 -4.731539 -1.399030
30.453493 -12.964702 -3.084632
30.760078 -13.107467 -2.335397
30.804819 -13.132996 -1.559563
26.844585 -11.463985 -0.676513
25.776510 -11.021173 0.000511
26.210968 -11.211451 0.661818
18.924847 -8.120353 0.959155
18.209927 -7.823606 1.384057
18.462103 -7.938824 1.872481
18.060877 -7.771515 2.296235
19.069677 -8.210080 2.914293
18.208273 -7.849711 3.253378
17.624159 -7.603685 3.611477
2.879639 -1.299058 -1.858935
3.025677 -1.363031 -1.850800
3.211687 -1.443648 -1.859322
3.407847 -1.529419 -1.863224
3.625394 -1.624566 -1.869032
3.887110 -1.738137 -1.885105
4.120512 -1.840471 -1.875011
4.420668 -1.971823 -1.880865
4.762816 -2.120590 -1.888986
5.141882 -2.286526 -1.893538
5.579793 -2.478261 -1.897840
5.921677 -2.627524 -1.851025
6.015387 -2.670650 -1.716974
7.114199 -3.148528 -1.837955
8.734821 -3.855120 -2.024547
10.046831 -4.428973 -2.064342
11.782060 -5.124578 -2.107085
11.033191 -4.805215 -1.688164
11.057409 -4.820268 -1.405962
30.915974 -13.377296 -3.139326
31.287289 -13.543888 -2.381178
31.249588 -13.540792 -1.586004
27.545643 -11.954876 -0.695842
25.703817 -11.165216 0.000571
25.463507 -11.072139 0.644603
0.000994 -0.063317 -0.001401
0.000994 -0.063317 -0.001401
19.083370 -8.333819 1.940384
18.532402 -8.102832 2.362287
19.095150 -8.351062 2.925475
18.060003 -7.909380 3.234928
18.049549 -7.912452 3.708200
2.880377 -1.318921 -1.864035
3.018136 -1.380279 -1.850798
3.189118 -1.455607 -1.850870
3.394431 -1.546717 -1.860529
3.619660 -1.646717 -1.870740
3.877409 -1.760350 -1.885102
4.116961 -1.866974 -1.878089
4.411301 -1.997838 -1.881586
4.749173 -2.147075 -1.888296
5.129000 -2.315945 -1.893530
5.569283 -2.511729 -1.899022
5.931457 -2.672265 -1.858732
5.993186 -2.701964 -1.714938
6.814914 -3.065297 -1.765106
8.714627 -3.905978 -2.024944
10.039499 -4.494520 -2.068021
11.774439 -5.201642 -2.110950
11.051076 -4.888305 -1.695095
11.084452 -4.907560 -1.412894
31.391624 -13.796743 -3.195499
31.806850 -13.985229 -2.426674
31.784506 -13.988873 -1.617089
29.952404 -13.198813 -0.758340
25.454519 -11.231660 0.000619
25.081181 -11.078446 0.636563
0.000991 -0.063161 -0.001407
18.581451 -8.235602 1.419472
18.650896 -8.274039 1.901198
18.404036 -8.173145 2.351870
17.847462 -7.931704 2.741160
18.706051 -8.318189 3.359210
18.259365 -8.128788 3.760846
2.869945 -1.333943 -1.861993
3.012082 -1.398186 -1.851774
3.189127 -1.477388 -1.855562
3.387468 -1.566821 -1.861423
3.608822 -1.666649 -1.869880
3.862570 -1.780275 -1.882657
4.103125 -1.888994 -1.876541
4.394985 -2.020782 -1.879398
4.738800 -2.174994 -1.888972
5.121136 -2.347610 -1.895443
5.569054 -2.549843 -1.903779
5.937412 -2.715641 -1.865336
5.984958 -2.739432 -1.716953
6.808181 -3.109104 -1.767859
8.695933 -3.957535 -2.025758
10.017410 -4.553700 -2.068739
11.748271 -5.270792 -2.111572
11.070179 -4.972561 -1.702303
0.000986 -0.063008 -0.001413
31.697853 -14.148514 -3.234772
32.289520 -14.418389 -2.469654
32.320766 -14.445995 -1.648446
26.473619 -11.855133 -0.672061
25.387980 -11.377006 0.000684
25.126930 -11.271339 0.639421
19.292238 -8.676763 0.985416
18.832842 -8.475692 1.442424
18.250666 -8.223382 1.865173
18.572811 -8.375325 2.379578
19.763081 -8.912327 3.043371
20.504150 -9.252898 3.691756
18.478037 -8.352622 3.815718
2.856294 -1.347471 -1.857910
2.997981 -1.412495 -1.847853
3.185743 -1.497746 -1.858374
3.380381 -1.586887 -1.862316
3.602829 -1.688743 -1.871587
3.852605 -1.802331 -1.882652
4.094238 -1.913210 -1.877307
4.383639 -2.045906 -1.879392
4.721438 -2.199778 -1.886914
5.107893 -2.376904 -1.895434
5.559839 -2.584069 -1.905554
5.927290 -2.752011 -1.866977
5.965927 -2.772093 -1.715928
6.794075 -3.149705 -1.768767
8.668029 -4.004956 -2.024491
10.000333 -4.615213 -2.070566
11.730682 -5.343849 -2.113811
11.298173 -5.151566 -1.741781
17.936779 -8.149507 -2.297156
31.870367 -14.445278 -3.260674
32.806419 -14.874800 -2.515554
32.883747 -14.923732 -1.681377
26.297831 -11.958541 -0.669260
29.396627 -13.366675 0.001101
21.297380 -9.710217 0.543214
20.284918 -9.260229 1.038941
19.034861 -8.697536 1.461747
18.246910 -8.347874 1.869684
21.253572 -9.722206 2.730402
20.916153 -9.573376 3.229461
0.000982 -0.062856 -0.001419
0.000982 -0.062856 -0.001419
2.851987 -1.365184 -1.859948
2.994910 -1.431762 -1.850789
3.175815 -1.515181 -1.857431
3.365034 -1.603192 -1.858722
3.603274 -1.713839 -1.876716
3.845542 -1.826532 -1.884273
4.076808 -1.933527 -1.874218
4.373837 -2.071741 -1.880112
4.712081 -2.229159 -1.888272
5.097941 -2.407719 -1.896705
5.552187 -2.619095 -1.907927
5.932181 -2.796629 -1.873579
5.959016 -2.810296 -1.718448
6.788000 -3.195504 -1.771979
8.644486 -4.056145 -2.024470
9.980303 -4.677604 -2.072023
11.707275 -5.414431 -2.115078
14.246573 -6.581408 -2.201871
17.933289 -8.272326 -2.302671
32.293941 -14.860622 -3.312557
33.396252 -15.380049 -2.567579
33.435001 -15.405076 -1.713927
30.616903 -14.125012 -0.780903
26.342505 -12.173007 0.000920
30.671026 -14.169674 0.785087
19.525711 -9.051657 1.002693
19.434481 -9.017988 1.496578
0.000979 -0.062700 -0.001425
21.121874 -9.809231 2.720698
22.002911 -10.225244 3.406648
17.552502 -8.177166 3.177044
18.620426 -8.674951 3.865460
2.848889 -1.384107 -1.863006
2.988327 -1.450099 -1.851766
3.163955 -1.532368 -1.855551
3.360716 -1.625256 -1.861411
3.586847 -1.731975 -1.873288
3.831694 -1.847623 -1.882640
4.077338 -1.962981 -1.879606
4.365212 -2.099071 -1.881558
4.697452 -2.256138 -1.887581
5.085652 -2.438567 -1.897335
5.536924 -2.651834 -1.907915
5.936745 -2.841394 -1.880179
5.958375 -2.852827 -1.722992
6.778111 -3.239694 -1.774268
8.625964 -4.109695 -2.025696
9.959851 -4.739903 -2.073477
11.687858 -5.489443 -2.117317
14.207663 -6.665645 -2.201833
17.940102 -8.404346 -2.309805
32.703896 -15.283666 -3.363691
33.973965 -15.889421 -2.619038
33.993496 -15.905927 -1.747214
29.666822 -13.902105 -0.758702
30.764420 -14.427402 0.001412
29.981779 -14.068486 0.769616
0.000974 -0.062547 -0.001431
0.000974 -0.062547 -0.001431
18.118515 -8.549834 1.866809
18.631866 -8.794390 2.406463
0.000974 -0.062547 -0.001431
0.000974 -0.062547 -0.001431
17.974882 -8.505924 3.741776
2.845885 -1.402526 -1.866061
2.980295 -1.467141 -1.851763
3.158626 -1.551916 -1.857424
3.351664 -1.644431 -1.861406
3.580453 -1.754001 -1.874993
3.820015 -1.868054 -1.881820
4.063001 -1.984704 -1.878057
4.353424 -2.124028 -1.881550
4.683424 -2.281366 -1.886886
5.068472 -2.466037 -1.896044
5.516745 -2.681057 -1.906115
5.938512 -2.882596 -1.885676
5.952707 -2.891922 -1.726016
6.753236 -3.273983 -1.772407
8.605023 -4.158485 -2.026089
9.926491 -4.791894 -2.071968
11.670712 -5.563219 -2.119876
14.179548 -6.748924 -2.203182
0.000971 -0.062391 -0.001437
34.232632 -16.235432 -3.530265
34.529037 -16.383026 -2.668670
34.645771 -16.453178 -1.785417
30.703472 -14.601331 -0.787189
30.634981 -14.575603 0.001506
30.551056 -14.549061 0.786487
24.871765 -11.866743 1.284790
19.364370 -9.257030 1.499348
17.973738 -8.604484 1.856824
17.592899 -8.431094 2.278429
18.050346 -8.652675 2.809640
17.404490 -8.352835 3.167416
0.000971 -0.062391 -0.001437
2.835020 -1.417262 -1.864018
2.975297 -1.485630 -1.853717
3.148411 -1.569173 -1.856481
3.340868 -1.662771 -1.860502
3.580426 -1.779129 -1.880120
3.821103 -1.895416 -1.887507
4.050187 -2.007108 -1.877278
4.343162 -2.149720 -1.882269
4.675661 -2.310595 -1.888928
5.057945 -2.496660 -1.897312
5.508451 -2.715934 -1.908484
5.948158 -2.929116 -1.893928
5.957215 -2.936077 -1.732077
6.729380 -3.310122 -1.771007
8.583040 -4.208646 -2.026480
9.904419 -4.851385 -2.073051
11.651320 -5.636129 -2.122111
14.151539 -6.835418 -2.204808
17.961124 -8.666677 -2.324992
33.855263 -16.296026 -3.500828
0.000967 -0.062239 -0.001443
0.000967 -0.062239 -0.001443
30.024576 -14.491836 -0.771829
30.714960 -14.830395 0.001622
22.302015 -10.794911 0.575388
23.030531 -11.155540 1.192923
19.489050 -9.453903 1.513239
0.000967 -0.062239 -0.001443
18.594515 -9.039001 2.414949
18.457148 -8.976753 2.880999
0.000967 -0.062239 -0.001443
17.584591 -8.570627 3.680759
2.827166 -1.433416 -1.864014
2.968622 -1.503356 -1.854692
3.138097 -1.586359 -1.855537
3.333220 -1.682625 -1.861395
3.568855 -1.798776 -1.879258
3.810481 -1.917238 -1.887499
4.042247 -2.031870 -1.878811
4.324364 -2.171268 -1.879349
4.662650 -2.337337 -1.888918
5.043863 -2.525606 -1.897301
5.493075 -2.747454 -1.908470
5.948825 -2.971610 -1.899424
5.954468 -2.976977 -1.736112
6.705339 -3.346098 -1.769607
8.564308 -4.260428 -2.027703
9.878453 -4.909043 -2.073392
11.627910 -5.707267 -2.123695
14.114100 -6.917490 -2.205042
17.972054 -8.799320 -2.332815
34.450649 -16.825962 -3.572168
34.554150 -16.883957 -2.685161
0.000964 -0.062083 -0.001449
29.622934 -14.509123 -0.763545
30.217817 -14.805927 0.001685
23.711330 -11.641553 0.613634
19.046310 -9.371618 0.989117
21.710857 -10.678870 1.690720
19.061825 -9.391758 1.980422
18.346317 -9.049570 2.389436
18.277487 -9.019891 2.861006
17.749081 -8.768680 3.248309
17.588261 -8.697496 3.691931
2.825405 -1.452571 -1.868090
2.955586 -1.517969 -1.851750
3.137167 -1.608146 -1.860224
3.331845 -1.705594 -1.865874
3.555561 -1.817554 -1.877540
3.801050 -1.940472 -1.888305
4.034144 -2.056596 -1.880344
4.322156 -2.200937 -1.883703
4.649056 -2.364797 -1.888906
5.029589 -2.554454 -1.897288
5.474102 -2.777190 -1.907265
5.959015 -3.020379 -1.908226
5.954916 -3.019666 -1.741159
6.682244 -3.383923 -1.768665
8.526997 -4.304905 -2.024768
9.854804 -4.970026 -2.074471
11.604072 -5.778323 -2.125279
14.101592 -7.014933 -2.209445
17.980240 -8.931474 -2.340402
35.735611 -17.706240 -3.715694
0.000959 -0.061930 -0.001455
30.378208 -15.081038 -1.578477
30.001617 -14.908016 -0.775367
30.597612 -15.216389 0.001840
23.122952 -11.519339 0.600150
0.000959 -0.061930 -0.001455
21.958483 -10.961625 1.715102
18.931263 -9.467243 1.972676
18.061256 -9.039006 2.359042
21.495586 -10.755537 3.374967
18.190033 -9.119026 3.338884
17.687799 -8.872883 3.723483
2.823251 -1.472231 -1.872165
2.948439 -1.536099 -1.852723
3.121622 -1.623422 -1.856464
3.314037 -1.721179 -1.861382
3.546999 -1.838653 -1.878388
3.790171 -1.962182 -1.888297
4.018945 -2.078691 -1.878793
4.299793 -2.220630 -1.879329
4.637415 -2.392233 -1.889580
5.018536 -2.584921 -1.898555
5.461798 -2.810232 -1.908442
5.957336 -3.062275 -1.913169
5.958547 -3.064215 -1.747219
6.664749 -3.423062 -1.769107
8.510163 -4.355814 -2.026403
9.830754 -5.026579 -2.075179
11.582327 -5.853080 -2.127510
14.086151 -7.108264 -2.213293
17.993044 -9.070720 -2.348915
41.407436 -20.812958 -4.317786
0.000954 -0.061777 -0.001461
30.408257 -15.320827 -1.584597
30.015741 -15.130544 -0.777846
28.556631 -14.410611 0.001732
23.234999 -11.746827 0.604942
19.119919 -9.681503 0.998772
0.000954 -0.061777 -0.001461
18.645498 -9.455196 1.948380
18.211491 -9.244595 2.385611
19.439289 -9.872318 3.060847
18.144482 -9.222882 3.339923
17.670111 -8.991180 3.730585
2.815337 -1.487834 -1.872161
2.941728 -1.553188 -1.853698
3.114445 -1.641493 -1.857397
3.311095 -1.742744 -1.864963
3.536707 -1.858895 -1.878379
3.785681 -1.987137 -1.891541
4.004328 -2.099273 -1.877242
4.288942 -2.246042 -1.880045
4.628941 -2.421305 -1.891619
5.002244 -2.612767 -1.897901
5.454383 -2.845820 -1.911403
5.943392 -3.098124 -1.914254
0.000977 -0.061639 -0.001469
6.638363 -3.457687 -1.767243
8.507193 -4.417669 -2.031779
9.804654 -5.086458 -2.075887
11.553339 -5.919282 -2.128118
14.045352 -7.189082 -2.213243
18.006264 -9.203253 -2.357194
16.008867 -8.196228 -1.674818
0.000977 -0.061639 -0.001469
30.158787 -15.406794 -1.575928
30.104889 -15.392727 -0.782308
29.902620 -15.302992 0.002006
21.621527 -11.086826 0.564509
0.000977 -0.061639 -0.001469
17.904993 -9.207520 1.406483
19.176350 -9.865483 2.010010
0.000977 -0.061639 -0.001469
17.854034 -9.201367 2.819416
19.227966 -9.913297 3.550229
0.000977 -0.061639 -0.001469
0.527263 -0.332125 -0.352355
2.934363 -1.571257 -1.854670
3.101864 -1.658167 -1.855512
3.304229 -1.763840 -1.866749
3.527610 -1.880541 -1.879228
3.771267 -2.007068 -1.889904
3.993805 -2.123688 -1.878002
4.275925 -2.271309 -1.880035
4.618600 -2.449484 -1.892972
4.988701 -2.643114 -1.898526
5.434380 -2.876220 -1.910196
5.927504 -3.133019 -1.914785
5.967700 -3.156522 -1.760347
6.616973 -3.494801 -1.766761
8.483702 -4.467316 -2.032165
9.779046 -5.144476 -2.076592
11.520145 -5.988452 -2.128401
14.011137 -7.273292 -2.214305
18.018827 -9.344301 -2.365932
15.859475 -8.238869 -1.664183
16.010393 -8.320289 -1.259204
30.003351 -15.552235 -1.572465
29.885563 -15.504754 -0.778865
0.000972 -0.061486 -0.001475
21.648113 -11.262472 0.567016
21.441940 -11.165367 1.127126
17.993759 -9.383669 1.417729
20.086578 -10.476948 2.111824
17.826118 -9.312743 2.349242
17.751936 -9.278251 2.811683
19.687527 -10.292061 3.646016
17.552372 -9.190332 3.728122
0.518065 -0.331023 -0.347259
2.924083 -1.587179 -1.853685
3.094190 -1.676676 -1.856444
3.299144 -1.785190 -1.869434
3.513871 -1.898995 -1.877508
3.761617 -2.029448 -1.890707
3.986763 -2.149064 -1.880303
4.269723 -2.299198 -1.882931
4.606436 -2.476761 -1.893643
4.973755 -2.671641 -1.898511
5.418101 -2.907323 -1.910180
5.914847 -3.169642 -1.916421
5.972023 -3.202372 -1.766908
6.593655 -3.530876 -1.765817
8.459923 -4.516840 -2.032550
9.749627 -5.200543 -2.076557
11.498079 -6.060910 -2.130626
13.955353 -7.346351 -2.212027
18.026711 -9.479915 -2.373972
15.715079 -8.279115 -1.653916
15.780502 -8.316893 -1.244796
26.899593 -14.146255 -1.414060
26.966118 -14.193184 -0.704917
27.031031 -14.233319 0.001906
21.979868 -11.594831 0.577550
21.581076 -11.395251 1.137951
18.467901 -9.764389 1.459579
20.019260 -10.588511 2.111158
0.000967 -0.061333 -0.001481
0.000967 -0.061333 -0.001481
19.645784 -10.414219 3.649338
17.628178 -9.358867 3.755609
0.521048 -0.336248 -0.350322
2.918325 -1.605473 -1.855637
3.087956 -1.695969 -1.858315
3.279674 -1.798977 -1.864043
3.504817 -1.919891 -1.878354
3.753116 -2.053301 -1.892324
3.974682 -2.171840 -1.880292
4.255138 -2.322729 -1.882193
4.593703 -2.504789 -1.894314
4.960323 -2.700983 -1.899136
5.399924 -2.937411 -1.909566
5.903080 -3.208130 -1.918604
5.981180 -3.251137 -1.774990
6.567811 -3.567023 -1.764412
8.436795 -4.568635 -2.033351
9.722424 -5.259972 -2.077260
11.466846 -6.128703 -2.131231
13.925903 -7.436261 -2.214198
18.024866 -9.611291 -2.380852
15.525021 -8.293724 -1.638824
15.584980 -8.332541 -1.233172
39.990192 -21.294926 -2.107726
0.000965 -0.061178 -0.001487
25.590422 -13.671922 0.001840
21.461256 -11.480544 0.565697
22.136181 -11.849672 1.170915
22.288677 -11.940953 1.767505
18.245195 -9.793944 1.930064
17.937506 -9.633884 2.378449
17.817696 -9.577993 2.839682
18.870489 -10.148882 3.516386
17.278009 -9.301476 3.692321
0.533047 -0.346496 -0.359505
2.902979 -1.619319 -1.851713
