# This PCD file was generated using the MATLAB® pcwrite function
# from Computer Vision Toolbox®.
# .PCD v.7 - Point Cloud Data file format
VERSION .7
FIELDS x y z
SIZE 4 4 4
TYPE F F F
COUNT 1 1 1
WIDTH 1593
HEIGHT 1
VIEWPOINT 0 0 0 1 0 0 0
POINTS 1593
DATA ascii
-3.567314 -4.584436 -1.517091
-3.933050 -5.050475 -1.513556
-4.379790 -5.617686 -1.511317
-4.859057 -6.225602 -1.485556
-5.363771 -6.929445 -1.437672
-6.273311 -8.097936 -1.438024
-8.443084 -10.883669 -1.607185
-10.706157 -13.785232 -1.627597
0.000302 -0.020610 -0.000585
0.000302 -0.020610 -0.000585
-27.385256 -35.164452 -1.035264
-45.578526 -58.490406 -0.001030
0.000302 -0.020610 -0.000585
0.000302 -0.020610 -0.000585
-3.815063 -4.906197 0.432842
-3.279841 -4.217782 0.496353
-10.216906 -13.084712 1.938796
-2.884696 -3.708133 0.657396
-10.518661 -13.455877 2.802695
-7.784224 -9.956134 2.377428
-0.367303 -0.488595 -0.353570
-0.376773 -0.500314 -0.343473
-0.408950 -0.541091 -0.352691
-0.447282 -0.589404 -0.364030
-2.210451 -2.828496 -1.692250
-2.320552 -2.967292 -1.670669
-2.440926 -3.117871 -1.647907
-2.601356 -3.319006 -1.641073
-2.756364 -3.514277 -1.620420
-2.931635 -3.733698 -1.599279
-3.150619 -4.008156 -1.586503
-3.304446 -4.201305 -1.528753
-3.598320 -4.569766 -1.519118
-3.948657 -5.010828 -1.508484
-4.399797 -5.576910 -1.507160
-4.895923 -6.198933 -1.485927
-5.349811 -6.830039 -1.423407
-6.322128 -8.064687 -1.438586
-8.452677 -10.767610 -1.597216
-10.706386 -13.623104 -1.615715
-6.470909 -8.239025 -0.732118
0.000312 -0.020491 -0.000582
0.000312 -0.020491 -0.000582
0.000312 -0.020491 -0.000582
-45.594131 -57.779240 1.707371
0.000312 -0.020491 -0.000582
-3.835706 -4.874629 0.432005
-3.307644 -4.203393 0.496910
-3.462479 -4.396018 0.651913
0.000312 -0.020491 -0.000582
-3.802577 -4.820520 1.005494
0.000312 -0.020491 -0.000582
-0.372116 -0.489044 -0.355608
-0.378442 -0.496641 -0.342491
-0.407548 -0.533060 -0.348932
-0.451661 -0.588090 -0.364924
-2.218682 -2.805706 -1.686260
-2.332942 -2.948020 -1.667412
-2.456424 -3.100742 -1.646363
-2.607522 -3.287826 -1.633070
-2.764716 -3.483524 -1.613578
-2.945864 -3.707742 -1.595437
-3.165179 -3.979381 -1.582332
-3.351276 -4.210604 -1.539227
-3.625656 -4.550354 -1.519625
-3.979757 -4.990918 -1.509407
-4.426813 -5.545253 -1.505498
-4.898207 -6.129116 -1.475931
-5.313995 -6.704769 -1.403631
-6.316566 -7.962915 -1.426897
-6.512828 -8.203777 -1.221896
-6.475779 -8.151365 -0.970447
-6.191125 -7.791132 -0.695426
-6.192276 -7.786979 -0.463879
-6.303598 -7.920851 -0.235315
0.000300 -0.020351 -0.000578
0.000300 -0.020351 -0.000578
0.000300 -0.020351 -0.000578
-3.861084 -4.849229 0.431725
-3.339130 -4.193485 0.498024
0.000300 -0.020351 -0.000578
0.000300 -0.020351 -0.000578
0.000300 -0.020351 -0.000578
-3.245398 -4.066069 0.976614
-0.374833 -0.486749 -0.355603
-0.381180 -0.494321 -0.342487
-0.410501 -0.530569 -0.348928
-0.458276 -0.589530 -0.367614
-2.226748 -2.782895 -1.680268
-2.337623 -2.918374 -1.658464
-2.460208 -3.069183 -1.637112
-2.632133 -3.279878 -1.636707
-2.791106 -3.474250 -1.616999
-2.964640 -3.687658 -1.594157
-3.162687 -3.929799 -1.569821
-3.362773 -4.174079 -1.533163
-3.649225 -4.526279 -1.518613
-3.991995 -4.945940 -1.502953
-4.453321 -5.511186 -1.503422
-4.913284 -6.073890 -1.469638
-5.351143 -6.672402 -1.403309
-6.430607 -8.008502 -1.441934
-6.372924 -7.933946 -1.187104
-6.353777 -7.904505 -0.945368
0.000312 -0.020229 -0.000575
-6.023615 -7.486747 -0.448041
0.000312 -0.020229 -0.000575
-47.009869 -58.204266 -0.001194
0.000312 -0.020229 -0.000575
0.000312 -0.020229 -0.000575
-4.010155 -4.974986 0.445115
0.000312 -0.020229 -0.000575
-3.795259 -4.704410 0.704409
-3.561047 -4.412201 0.794056
0.000312 -0.020229 -0.000575
-3.252515 -4.027365 0.971800
-0.372146 -0.477727 -0.350500
-0.379586 -0.486510 -0.338565
-0.416859 -0.532109 -0.351742
-0.471825 -0.599129 -0.375687
-2.227764 -2.751685 -1.669143
-2.365829 -2.918884 -1.666598
-2.487569 -3.065852 -1.643279
-2.631990 -3.241460 -1.625067
-2.804990 -3.450719 -1.613578
-2.976123 -3.658657 -1.589034
-3.186355 -3.912869 -1.570417
-3.381750 -4.148572 -1.530958
-3.648122 -4.472145 -1.507470
-4.012869 -4.913724 -1.500187
-4.473991 -5.473999 -1.500095
-4.935773 -6.032569 -1.466307
-5.391733 -6.641956 -1.403637
-6.288852 -7.740896 -1.400184
-6.260337 -7.700340 -1.157648
-6.207847 -7.630457 -0.916943
-5.934617 -7.292913 -0.657063
-5.873207 -7.212447 -0.433693
-28.529819 -34.943821 -1.047967
-47.427521 -58.034801 -0.001245
0.000298 -0.020092 -0.000571
0.000298 -0.020092 -0.000571
-10.709448 -13.096934 1.181228
-4.049519 -4.963202 0.595552
-4.610588 -5.643992 0.849818
-3.587525 -4.393031 0.794334
-3.739658 -4.576790 0.967883
-3.226871 -3.949215 0.957358
-0.376903 -0.478150 -0.352536
-0.389931 -0.493680 -0.345421
-0.414115 -0.522813 -0.347043
-0.470508 -0.590833 -0.372093
-2.256092 -2.754034 -1.678556
-2.371516 -2.892811 -1.659274
-2.498666 -3.044666 -1.639423
-2.657604 -3.234745 -1.629431
-2.810919 -3.418949 -1.606053
-3.001853 -3.647170 -1.591594
-3.203840 -3.888447 -1.568033
-3.408410 -4.133949 -1.532612
-3.683582 -4.462843 -1.511522
-4.016515 -4.862654 -1.491426
-4.507793 -5.451043 -1.500929
-4.927590 -5.952531 -1.453718
-5.409793 -6.588776 -1.398775
-6.178196 -7.519063 -1.366227
-6.147660 -7.476630 -1.129119
-5.861137 -7.124016 -0.859906
-5.826520 -7.079517 -0.640741
-5.765652 -7.000758 -0.422887
-28.828434 -34.897579 -1.051572
-45.965012 -55.609676 -0.001267
0.000310 -0.019969 -0.000568
-38.506676 -46.522919 2.814437
-10.770817 -13.022994 1.179965
-4.291402 -5.197248 0.626759
0.000310 -0.019969 -0.000568
-3.667530 -4.439865 0.806580
-3.440519 -4.163351 0.884233
-3.233102 -3.910795 0.952545
-0.380628 -0.477171 -0.353554
-0.389324 -0.487266 -0.342477
-0.421514 -0.525725 -0.350796
-0.472625 -0.586623 -0.371194
-2.271808 -2.740855 -1.678553
-2.389673 -2.879977 -1.660088
-2.504199 -3.015939 -1.631714
-2.664112 -3.204973 -1.622156
-2.827421 -3.397750 -1.603999
-3.009286 -3.613726 -1.584552
-3.156147 -3.786409 -1.534075
-3.424110 -4.103214 -1.528753
-3.681737 -4.408826 -1.500379
-4.036418 -4.828173 -1.488198
-4.527345 -5.409102 -1.496771
-4.969016 -5.930588 -1.455572
-5.542257 -6.671111 -1.423097
-6.066542 -7.295067 -1.331991
-6.037782 -7.257936 -1.101285
0.000297 -0.019829 -0.000563
0.000297 -0.019829 -0.000563
0.000297 -0.019829 -0.000563
-5.756511 -6.903459 -0.208996
-38.771973 -46.348236 -0.001194
-62.354481 -74.499725 2.253627
-38.024384 -45.406063 2.760000
-10.929769 -13.056619 1.188884
0.000297 -0.019829 -0.000563
0.000297 -0.019829 -0.000563
-4.031222 -4.819808 0.880335
-3.698676 -4.420725 0.943889
-3.292140 -3.935607 0.963284
-0.376671 -0.466887 -0.347430
-0.389829 -0.482159 -0.340515
-0.427924 -0.527129 -0.353610
-0.482917 -0.591857 -0.376574
-2.287902 -2.727205 -1.678553
-2.397837 -2.856274 -1.654392
-2.521930 -3.000900 -1.631713
-2.679358 -3.184710 -1.619972
-2.838310 -3.371254 -1.599211
-3.024422 -3.588456 -1.581350
-3.234017 -3.833000 -1.560884
-3.431389 -4.064248 -1.521586
-3.708933 -4.388272 -1.500887
-4.062762 -4.803251 -1.487738
-4.549427 -5.372381 -1.493861
-4.980031 -5.874808 -1.448907
-5.628697 -6.693805 -1.435097
-5.961457 -7.085812 -1.299981
-5.939637 -7.054899 -1.075770
-5.735543 -6.808363 -0.829812
0.000308 -0.019710 -0.000561
-5.578485 -6.615360 -0.403509
-5.797231 -6.869067 -0.208999
-48.609501 -57.428226 -0.001398
0.000308 -0.019710 -0.000561
0.000308 -0.019710 -0.000561
-11.136272 -13.148550 1.203104
0.000308 -0.019710 -0.000561
-4.057208 -4.796277 0.732279
-3.645835 -4.310416 0.790715
-3.785319 -4.471394 0.959451
-3.770036 -4.450243 1.095475
-0.387065 -0.473731 -0.354567
-0.393636 -0.481088 -0.341490
-0.429699 -0.523180 -0.352667
-0.487350 -0.590303 -0.377469
-2.285827 -2.693246 -1.665716
-2.417691 -2.846455 -1.656831
-2.534237 -2.980602 -1.628629
-2.691467 -3.162027 -1.616333
-2.848995 -3.344736 -1.594422
-3.047383 -3.573733 -1.582630
-3.218617 -3.770722 -1.543010
-3.450840 -4.039933 -1.519933
-3.746635 -4.381386 -1.505952
-4.069930 -4.756041 -1.480361
-4.572509 -5.337076 -1.491367
-4.979028 -5.805699 -1.438911
-5.670863 -6.665667 -1.436072
-5.856716 -6.881038 -1.268528
-5.840669 -6.857349 -1.050720
-5.558438 -6.522323 -0.798784
0.000295 -0.019570 -0.000556
-5.491652 -6.437296 -0.394565
0.000295 -0.019570 -0.000556
-44.452682 -51.910309 -0.001365
-17.635588 -20.591570 0.628228
-10.950016 -12.783848 0.783522
-11.639119 -13.582230 1.248987
0.000295 -0.019570 -0.000556
-4.085942 -4.774212 0.732512
-4.128826 -4.822378 0.889519
-3.760665 -4.391068 0.946806
-4.144265 -4.833478 1.196190
-0.387500 -0.468691 -0.352524
-0.399778 -0.482577 -0.344427
-0.433829 -0.521828 -0.353604
-0.482551 -0.577802 -0.371184
-2.294075 -2.671714 -1.660581
-2.435622 -2.833305 -1.657643
-2.548134 -2.961195 -1.626315
-2.703404 -3.139313 -1.612695
-2.873592 -3.333327 -1.597157
-3.062834 -3.550266 -1.580068
-3.233898 -3.744790 -1.540030
-3.479682 -4.025054 -1.522137
-3.750101 -4.334788 -1.497341
-4.083908 -4.715530 -1.475288
-4.592764 -5.298728 -1.488042
-4.982567 -5.742714 -1.430394
-5.674047 -6.589970 -1.426995
-5.760074 -6.687177 -1.239023
-5.734306 -6.652645 -1.024509
-5.479661 -6.353562 -0.782063
0.000283 -0.019430 -0.000552
-5.381830 -6.233826 -0.384036
0.000283 -0.019430 -0.000552
-17.854414 -20.613100 -0.000893
-17.970848 -20.732676 0.635775
0.000283 -0.019430 -0.000552
-11.757269 -13.556529 1.253023
-11.179748 -12.886946 1.589542
0.000283 -0.019430 -0.000552
-11.533635 -13.275408 2.468711
-3.753374 -4.331999 0.938700
-3.927921 -4.529310 1.126207
-0.388879 -0.465089 -0.351500
-0.398909 -0.476269 -0.341485
-0.436645 -0.519250 -0.353599
-0.490359 -0.580355 -0.374771
-2.314060 -2.663775 -1.664003
-2.451266 -2.819550 -1.657643
-2.568166 -2.950953 -1.628626
-2.715170 -3.116571 -1.609058
-2.892051 -3.317099 -1.597156
-3.058089 -3.503976 -1.567263
-3.271662 -3.744634 -1.547775
-3.503251 -4.006883 -1.522688
-3.779989 -4.318811 -1.499367
-4.115196 -4.698376 -1.477133
-4.612723 -5.260333 -1.484717
-4.960876 -5.651858 -1.414841
-5.639242 -6.476305 -1.409162
-5.669481 -6.508642 -1.211745
-5.648343 -6.479819 -1.002704
0.000295 -0.019308 -0.000549
-5.330719 -6.110024 -0.566658
0.000295 -0.019308 -0.000549
0.000295 -0.019308 -0.000549
0.000295 -0.019308 -0.000549
-17.927933 -20.451561 0.630194
0.000295 -0.019308 -0.000549
-11.562731 -13.183277 1.224421
-12.623540 -14.380753 1.783093
0.000295 -0.019308 -0.000549
-11.463517 -13.047150 2.438088
-3.737715 -4.264271 0.928650
-8.083344 -9.192754 2.302949
-0.392569 -0.464008 -0.352517
-0.406156 -0.479057 -0.345400
-0.435986 -0.512645 -0.350780
-0.481759 -0.563989 -0.365792
-2.320877 -2.640790 -1.658010
-2.467834 -2.804828 -1.657642
-2.583759 -2.934621 -1.627855
-2.731718 -3.099363 -1.608329
-2.906547 -3.294151 -1.594420
-3.083136 -3.491847 -1.569823
-3.284174 -3.715617 -1.543604
-3.505116 -3.961482 -1.513316
-3.763536 -4.250581 -1.483157
-4.135113 -4.665029 -1.474367
-4.617716 -5.203527 -1.476399
-4.937939 -5.559132 -1.398919
-5.644942 -6.408122 -1.401382
-5.580628 -6.330837 -1.184744
-5.563016 -6.308705 -0.981133
-5.375568 -6.092458 -0.757354
-5.374671 -6.087142 -0.567497
-5.225354 -5.916470 -0.368104
0.000283 -0.019168 -0.000544
-17.827452 -20.109755 -0.000916
-18.158051 -20.475016 0.634123
-18.720942 -21.094202 1.313646
0.000283 -0.019168 -0.000544
-11.423314 -12.860807 1.602715
-12.317967 -13.861590 2.166102
-10.957076 -12.323583 2.314785
-3.648585 -4.113718 0.900443
-8.103314 -9.109265 2.293688
-0.402080 -0.469236 -0.358635
-0.407730 -0.475199 -0.344416
-0.448326 -0.520444 -0.358289
-0.483789 -0.559657 -0.364891
-2.329898 -2.620525 -1.653730
-2.470429 -2.775468 -1.648691
-2.594861 -2.912232 -1.623998
-2.754398 -3.088989 -1.611236
-2.930374 -3.282821 -1.597155
-3.087873 -3.456999 -1.562140
-3.305392 -3.696519 -1.543604
-3.503325 -3.913953 -1.502841
-3.776176 -4.215779 -1.478599
-4.079741 -4.549911 -1.445315
-4.638714 -5.168827 -1.473906
-4.977997 -5.541571 -1.401513
-5.535383 -6.209639 -1.365066
-5.492740 -6.159728 -1.158579
-5.478324 -6.139302 -0.959792
-5.206862 -5.831921 -0.728741
0.000293 -0.019048 -0.000542
0.000293 -0.019048 -0.000542
0.000293 -0.019048 -0.000542
-31.825594 -35.471455 -0.001233
-17.717829 -19.742136 0.614624
0.000293 -0.019048 -0.000542
-12.087973 -13.460902 1.263321
0.000293 -0.019048 -0.000542
-11.615944 -12.922242 2.029519
-3.378769 -3.769813 0.708889
-3.705729 -4.131282 0.908873
0.000293 -0.019048 -0.000542
-0.402285 -0.464295 -0.356591
-0.405585 -0.467616 -0.340495
-0.445204 -0.511248 -0.353590
-0.497580 -0.568752 -0.372966
-2.337554 -2.598900 -1.648595
-2.464166 -2.736701 -1.634046
-2.613450 -2.900303 -1.625538
-2.759484 -3.059171 -1.603962
-2.940267 -3.256034 -1.592366
-3.105071 -3.436227 -1.560858
-3.313651 -3.663182 -1.537647
-3.511444 -3.877955 -1.496777
-3.797657 -4.190985 -1.477587
-4.049386 -4.464369 -1.425486
-4.645449 -5.115071 -1.466421
-4.986828 -5.485675 -1.394847
-5.450723 -6.046767 -1.335883
-5.411036 -5.998661 -1.134084
-5.401756 -5.986255 -0.940538
-5.156337 -5.711134 -0.717221
-5.099786 -5.644724 -0.531638
-5.072789 -5.612962 -0.352822
-29.762745 -32.815155 -1.029444
-32.234852 -35.514084 -0.001263
-18.456839 -20.335430 0.636322
-11.306034 -12.455447 0.783019
-12.171854 -13.398348 1.264011
-12.510137 -13.760436 1.732914
-11.739491 -12.909391 2.038104
-3.382970 -3.731135 0.705272
0.000280 -0.018908 -0.000537
-8.191504 -8.997718 2.289236
-0.401431 -0.457966 -0.353528
-0.420020 -0.477925 -0.350288
-0.448131 -0.508457 -0.353586
-0.497214 -0.561705 -0.370270
-2.350349 -2.582208 -1.646883
-2.494573 -2.738510 -1.643808
-2.634238 -2.888699 -1.627850
-2.786291 -3.052218 -1.609053
-2.948694 -3.227837 -1.586891
-3.134274 -3.427374 -1.565338
-3.330046 -3.637705 -1.535262
-3.524481 -3.847645 -1.492917
-3.810528 -4.155455 -1.473028
-4.077550 -4.443711 -1.426408
-4.644194 -5.055044 -1.456857
-4.974222 -5.409087 -1.382627
-5.367805 -5.884624 -1.307024
-5.333033 -5.844573 -1.110701
-5.313584 -5.819236 -0.919197
0.000293 -0.018786 -0.000534
0.000293 -0.018786 -0.000534
0.000293 -0.018786 -0.000534
-29.825512 -32.495113 -1.024963
-32.638859 -35.545818 -0.001294
-17.200760 -18.728527 0.589130
-17.527399 -19.070368 1.206312
-17.042315 -18.536512 1.758883
-12.219373 -13.286736 1.682010
0.000293 -0.018786 -0.000534
-3.800299 -4.141037 0.787374
-3.404258 -3.708846 0.824255
0.000293 -0.018786 -0.000534
-0.414483 -0.466869 -0.362705
-0.417921 -0.470248 -0.346365
-0.456922 -0.512232 -0.358279
-2.270726 -2.468527 -1.677807
-2.381053 -2.585726 -1.658005
-2.497758 -2.710584 -1.635672
-2.634376 -2.855785 -1.617828
-2.799916 -3.031892 -1.606868
-2.967100 -3.210690 -1.586891
-3.146089 -3.400824 -1.561496
-3.328694 -3.594602 -1.525134
-3.522870 -3.801843 -1.482994
-3.823739 -4.121984 -1.468974
-4.106938 -4.424304 -1.427791
-4.605047 -4.955144 -1.435649
-5.014560 -5.390287 -1.385219
-5.294211 -5.737648 -1.281084
-5.262860 -5.701756 -1.089267
-5.241562 -5.674772 -0.901103
-5.092507 -5.510059 -0.699385
-4.976944 -5.383549 -0.512383
0.000278 -0.018649 -0.000530
-29.915314 -32.218769 -1.021688
-33.075619 -35.607758 -0.001325
-17.344908 -18.668633 0.590369
-11.283167 -12.142344 0.771550
-11.340776 -12.199882 1.163013
-12.868378 -13.830904 1.760389
-12.993345 -13.955216 2.227388
-3.836134 -4.131991 0.789880
-3.426782 -3.690505 0.824580
-3.592397 -3.865228 0.991057
-0.404132 -0.450526 -0.351479
-0.421701 -0.468981 -0.347342
-0.460986 -0.510735 -0.359213
-2.289683 -2.460499 -1.681395
-2.394557 -2.570526 -1.657148
-2.505710 -2.688034 -1.630789
-2.643082 -2.832372 -1.613201
-2.807002 -3.004740 -1.601047
-2.975135 -3.182469 -1.581417
-3.153825 -3.370105 -1.555733
-3.332221 -3.557168 -1.517387
-3.538005 -3.774370 -1.480236
-3.855243 -4.108231 -1.472014
-4.116194 -4.383480 -1.422258
-4.567599 -4.858705 -1.415272
-5.080471 -5.398365 -1.394850
-5.217760 -5.590276 -1.254819
-5.187147 -5.555617 -1.066998
-5.168061 -5.531338 -0.883009
-4.919651 -5.262688 -0.671514
-4.901254 -5.241201 -0.501498
-4.927520 -5.265470 -0.336327
0.000290 -0.018527 -0.000527
-33.514149 -35.665852 -0.001358
-18.638468 -19.829479 0.630530
0.000290 -0.018527 -0.000527
-11.829281 -12.578706 1.205688
-11.857743 -12.600058 1.612153
0.000290 -0.018527 -0.000527
-12.018779 -12.757424 2.460588
-3.418043 -3.639028 0.817447
-8.411641 -8.921677 2.306998
-0.411326 -0.453067 -0.355558
-0.426688 -0.468945 -0.349298
-0.465009 -0.509233 -0.360150
-2.290185 -2.432872 -1.671521
-2.405466 -2.552640 -1.654580
-2.526065 -2.678735 -1.634042
-2.654164 -2.811618 -1.610116
-2.829279 -2.993801 -1.603956
-2.991997 -3.163801 -1.580732
-3.175676 -3.354510 -1.557012
-3.359099 -3.544723 -1.520366
-3.558239 -3.752417 -1.479684
-3.838664 -4.043834 -1.456818
-4.118415 -4.335641 -1.414418
-4.580533 -4.816630 -1.410697
-5.055697 -5.310627 -1.379666
-5.147952 -5.452564 -1.230499
-5.115389 -5.416289 -1.045843
0.000278 -0.018386 -0.000523
0.000278 -0.018386 -0.000523
0.000278 -0.018386 -0.000523
0.000278 -0.018386 -0.000523
0.000278 -0.018386 -0.000523
-33.937916 -35.702667 -0.001389
-18.481997 -19.437876 0.621425
-12.183933 -12.811410 0.823040
-12.204127 -12.828084 1.236365
0.000278 -0.018386 -0.000523
-4.002453 -4.213712 0.677462
-11.047187 -11.593308 2.247952
-10.124861 -10.619468 2.407678
-4.623703 -4.856297 1.260244
-0.416212 -0.453038 -0.357594
-0.425658 -0.462569 -0.346356
-0.472736 -0.511500 -0.363901
-2.308988 -2.424681 -1.675109
-2.421270 -2.539923 -1.655433
-2.538015 -2.659612 -1.631599
-2.668912 -2.794839 -1.609344
-2.828263 -2.958545 -1.593771
-3.014523 -3.149922 -1.582783
-3.194828 -3.336041 -1.557011
-3.383330 -3.529312 -1.522152
-3.573662 -3.724190 -1.476926
-3.834915 -3.993684 -1.446685
-4.156106 -4.323615 -1.418569
-4.603469 -4.783622 -1.409034
-5.058309 -5.250746 -1.371889
-5.078092 -5.317276 -1.206503
-4.818303 -5.042666 -0.979032
-4.817218 -5.039746 -0.813182
-4.808683 -5.027320 -0.648473
0.000263 -0.018250 -0.000518
-4.717626 -4.927263 -0.318155
0.000263 -0.018250 -0.000518
-34.375004 -35.735527 -0.001419
-17.952776 -18.665590 0.599983
-12.271218 -12.755337 0.823965
0.000263 -0.018250 -0.000518
-12.450541 -12.923272 1.672136
-4.023778 -4.187612 0.676998
0.000263 -0.018250 -0.000518
0.000263 -0.018250 -0.000518
0.000263 -0.018250 -0.000518
-0.415184 -0.446730 -0.354531
-0.423420 -0.454907 -0.342434
-0.475639 -0.508570 -0.363899
-2.309512 -2.396716 -1.665237
-2.429897 -2.518894 -1.651152
-2.562098 -2.653992 -1.637291
-2.687904 -2.781475 -1.610884
-2.849572 -2.945580 -1.595950
-3.029859 -3.129706 -1.581414
-3.201218 -3.303337 -1.550608
-3.386769 -3.491281 -1.514406
-3.593581 -3.702059 -1.476375
-3.857065 -3.969360 -1.446179
-4.186275 -4.305048 -1.420412
-4.558335 -4.682774 -1.386995
-4.972902 -5.103385 -1.340781
-5.013262 -5.187758 -1.183804
-4.848538 -5.016129 -0.979309
-4.736210 -4.896936 -0.794623
-4.841082 -5.001440 -0.648845
-4.821959 -4.979975 -0.484475
0.000276 -0.018127 -0.000515
0.000276 -0.018127 -0.000515
-34.825535 -35.789188 -0.001452
0.000276 -0.018127 -0.000515
0.000276 -0.018127 -0.000515
-17.539188 -18.001907 1.755619
-12.201924 -12.520645 1.629036
0.000276 -0.018127 -0.000515
-4.010777 -4.123557 0.806023
-10.409479 -10.665273 2.445601
-3.545949 -3.642673 0.954773
-0.418861 -0.445420 -0.355547
-0.433268 -0.459789 -0.348308
-0.485886 -0.513244 -0.369529
-2.320674 -2.380691 -1.663439
-2.449314 -2.509895 -1.654574
-2.573365 -2.635174 -1.634851
-2.702480 -2.764505 -1.610111
-2.871584 -2.934319 -1.598860
-3.034533 -3.098692 -1.574572
-3.221418 -3.286067 -1.551246
-3.417417 -3.482479 -1.519172
-3.616081 -3.682547 -1.476925
-3.915103 -3.982748 -1.459348
-4.216344 -4.286290 -1.422257
-4.560371 -4.631273 -1.379508
-4.912233 -4.983732 -1.316710
-4.950336 -5.064296 -1.162078
-4.889715 -5.000726 -0.981815
-4.680714 -4.784413 -0.780703
0.000263 -0.017987 -0.000511
0.000263 -0.017987 -0.000511
-4.724248 -4.820254 -0.314799
0.000263 -0.017987 -0.000511
-35.251183 -35.811737 -0.001481
0.000263 -0.017987 -0.000511
0.000263 -0.017987 -0.000511
-12.467728 -12.655497 1.240531
0.000263 -0.017987 -0.000511
-12.141826 -12.307847 2.019478
-4.063589 -4.129848 0.811869
-10.259646 -10.391767 2.396318
-3.565381 -3.620665 0.954405
-0.421255 -0.442933 -0.355543
-0.433265 -0.454758 -0.346346
-0.482411 -0.504132 -0.364832
-2.342627 -2.376450 -1.669720
-2.449166 -2.481944 -1.645159
-2.583237 -2.615003 -1.631595
-2.709943 -2.741402 -1.605485
-2.882565 -2.912828 -1.595948
-3.050900 -3.079698 -1.573886
-3.239592 -3.267911 -1.551246
-3.423221 -3.449701 -1.513213
-3.624883 -3.649298 -1.471963
-3.918014 -3.941545 -1.452256
-4.255979 -4.276955 -1.427329
-4.552259 -4.570238 -1.369112
-4.857327 -4.871881 -1.294489
-4.889469 -4.946786 -1.141323
-4.858295 -4.911940 -0.969845
-4.763239 -4.814459 -0.789982
-4.580026 -4.626757 -0.606849
-4.560806 -4.604160 -0.452936
-4.763657 -4.806425 -0.315637
0.000276 -0.017865 -0.000508
-35.702206 -35.854668 -0.001512
0.000276 -0.017865 -0.000508
-12.511881 -12.563798 0.825436
-12.565620 -12.608819 1.243035
0.000276 -0.017865 -0.000508
-18.919884 -18.955694 3.129451
-13.585373 -13.606635 2.699622
0.000276 -0.017865 -0.000508
0.000276 -0.017865 -0.000508
-0.424971 -0.441520 -0.356561
-0.442023 -0.458204 -0.351241
-0.491556 -0.507351 -0.369523
-2.355319 -2.361115 -1.668820
-2.462455 -2.465970 -1.644302
-2.587795 -2.589639 -1.625083
-2.719505 -2.718644 -1.601629
-2.899678 -2.895554 -1.595947
-3.069799 -3.063285 -1.574569
-3.250753 -3.240497 -1.547402
-3.432673 -3.418450 -1.508445
-3.659380 -3.641771 -1.477475
-3.934341 -3.911300 -1.449723
-4.281797 -4.253631 -1.427790
-4.720298 -4.684106 -1.411529
-4.794304 -4.753927 -1.270416
-4.829128 -4.828435 -1.120570
-4.796572 -4.794319 -0.952028
0.000263 -0.017725 -0.000503
-4.538086 -4.530578 -0.597744
-4.517793 -4.508785 -0.446098
0.000263 -0.017725 -0.000503
-20.222662 -20.091558 -0.662639
-20.231684 -20.093390 -0.001086
-20.231882 -20.079466 0.660421
-12.455487 -12.359893 0.816862
-12.531569 -12.430860 1.232569
-12.673550 -12.562683 1.662824
-12.426531 -12.309507 2.043156
-12.271931 -12.152268 2.424650
-13.017586 -12.880527 3.005805
-3.559046 -3.532184 0.941816
-0.427406 -0.438933 -0.356557
-0.440822 -0.451852 -0.348299
-0.484301 -0.494470 -0.362007
-2.364958 -2.343617 -1.666125
-2.473920 -2.449097 -1.642589
-2.597326 -2.569463 -1.621829
-2.721831 -2.689893 -1.593919
-2.908228 -2.870846 -1.591580
-3.091296 -3.049384 -1.576621
-3.263815 -3.216310 -1.544841
-3.450828 -3.397166 -1.507848
-3.680183 -3.620511 -1.477474
-3.941483 -3.873569 -1.444149
-4.212894 -4.137611 -1.396891
-4.723292 -4.633487 -1.404460
-4.731493 -4.638238 -1.246714
-4.772362 -4.717344 -1.101113
-4.739294 -4.683141 -0.935325
0.000273 -0.017605 -0.000501
-4.561146 -4.501463 -0.597372
0.000273 -0.017605 -0.000501
-18.166044 -17.856106 -1.188349
-20.316469 -19.953688 -0.661953
-19.316057 -18.965294 -0.001066
-20.325607 -19.941557 0.659715
0.000273 -0.017605 -0.000501
0.000273 -0.017605 -0.000501
-12.902109 -12.642598 1.683250
-21.804384 -21.338461 3.565147
0.000273 -0.017605 -0.000501
0.000273 -0.017605 -0.000501
-7.086984 -6.935398 1.865252
-0.427373 -0.433923 -0.354513
-0.438326 -0.444303 -0.344376
-0.485775 -0.490309 -0.361065
-2.373180 -2.324851 -1.662533
-2.482707 -2.429631 -1.639163
-2.625099 -2.567049 -1.629961
-2.739829 -2.676609 -1.595458
-2.928624 -2.857810 -1.593760
-3.097925 -3.020927 -1.571145
-3.284907 -3.199967 -1.546119
-3.479819 -3.386414 -1.512017
-3.687054 -3.585765 -1.471959
-3.976119 -3.862800 -1.448708
-4.263112 -4.138872 -1.405653
-4.680831 -4.539494 -1.384082
-4.678811 -4.534365 -1.225975
-4.722983 -4.615322 -1.083601
-4.685185 -4.576909 -0.919455
-4.454522 -4.349420 -0.726183
-4.591185 -4.479152 -0.597927
-4.398891 -4.290792 -0.429490
-17.911467 -17.404636 -1.165150
-19.434872 -18.870129 -0.629717
-17.876991 -17.352795 -0.001030
0.000261 -0.017465 -0.000496
-18.666332 -18.092743 1.210673
-12.606257 -12.220304 1.226003
-12.638204 -12.242641 1.639595
-12.670046 -12.264787 2.059869
-13.417752 -12.982942 2.621400
-12.718996 -12.299122 2.903996
0.000261 -0.017465 -0.000496
-0.434719 -0.436098 -0.358590
-0.445808 -0.446474 -0.348291
-0.494858 -0.493493 -0.365756
-2.368384 -2.293681 -1.649967
-2.487407 -2.406416 -1.633173
-2.622591 -2.535320 -1.619384
-2.755079 -2.660671 -1.595457
-2.939527 -2.835629 -1.590850
-3.115153 -3.002920 -1.571144
-3.315490 -3.192665 -1.551880
-3.504659 -3.371485 -1.514400
-3.710315 -3.567004 -1.473060
-4.009378 -3.850412 -1.452759
-4.219236 -4.049590 -1.383516
-4.587943 -4.398852 -1.349149
-4.627965 -4.433945 -1.205975
-4.666877 -4.508569 -1.064793
-4.628552 -4.470111 -0.903309
-4.403474 -4.250615 -0.713887
0.000273 -0.017343 -0.000493
0.000273 -0.017343 -0.000493
-4.498651 -4.334478 -0.291403
-17.949789 -17.230036 -0.578430
-17.934593 -17.209352 -0.001038
0.000273 -0.017343 -0.000493
-20.415295 -19.559778 1.316823
-19.347519 -18.531103 1.871459
-19.638378 -18.796173 2.533928
-18.946144 -18.121517 3.063447
-18.845560 -18.019014 3.661687
-12.749512 -12.187426 2.894913
-3.664725 -3.513219 0.953669
-0.437119 -0.433462 -0.358587
-0.453318 -0.448578 -0.352207
-0.489914 -0.483201 -0.360119
-2.363305 -2.262642 -1.637401
-2.510304 -2.400633 -1.639160
-2.628207 -2.510782 -1.613687
-2.774287 -2.648431 -1.597767
-2.936781 -2.800581 -1.580662
-3.128713 -2.980384 -1.569090
-3.285554 -3.127805 -1.529469
-3.516980 -3.344561 -1.511419
-3.704753 -3.519715 -1.462585
-4.007472 -3.804544 -1.444147
-4.169496 -3.954891 -1.359535
-4.596774 -4.355326 -1.344158
-4.578295 -4.334824 -1.186346
-4.611158 -4.403961 -1.046307
-4.583111 -4.374218 -0.889389
0.000261 -0.017203 -0.000489
-4.343318 -4.141903 -0.559461
0.000261 -0.017203 -0.000489
-4.443719 -4.232754 -0.286275
-17.984718 -17.065783 -0.576394
-18.071072 -17.135578 -0.001048
0.000261 -0.017203 -0.000489
-19.989067 -18.932384 1.282264
-13.210428 -12.509184 1.270483
-18.815830 -17.797098 2.414117
-21.962755 -20.763363 3.531900
0.000261 -0.017203 -0.000489
-12.804235 -12.095224 2.891018
0.000261 -0.017203 -0.000489
-0.435821 -0.427196 -0.355523
-0.449524 -0.439775 -0.347305
-0.484935 -0.472911 -0.354483
-2.373963 -2.246016 -1.635605
-2.528356 -2.389275 -1.641725
-2.645171 -2.497987 -1.615313
-2.787143 -2.629282 -1.596224
-2.953221 -2.782994 -1.580661
-3.148452 -2.964767 -1.570457
-3.303929 -3.108142 -1.529469
-3.546414 -3.332640 -1.515589
-3.740292 -3.512648 -1.468649
-4.027028 -3.777946 -1.443133
-4.172179 -3.912097 -1.353078
-4.552999 -4.264610 -1.324196
-4.535496 -4.245286 -1.168939
-4.565197 -4.308820 -1.030092
-4.528738 -4.273037 -0.874077
-4.446865 -4.193155 -0.712957
-4.287836 -4.040997 -0.549239
0.000246 -0.017066 -0.000484
0.000246 -0.017066 -0.000484
-18.263535 -17.125460 -0.582071
-18.380968 -17.229385 -0.001064
0.000246 -0.017066 -0.000484
-13.386892 -12.535207 0.853806
-19.099041 -17.870253 1.827089
-3.746988 -3.517350 0.477790
-21.980837 -20.535042 3.515166
-12.489182 -11.671038 2.399856
-7.202362 -6.733142 1.617249
-6.641602 -6.205896 1.709739
-0.440696 -0.426889 -0.357560
-0.458338 -0.442984 -0.352200
-0.488862 -0.471169 -0.355417
-2.398542 -2.243128 -1.643680
-2.541963 -2.374558 -1.641723
-2.663438 -2.486310 -1.617750
-2.814317 -2.624351 -1.603160
-2.954071 -2.751886 -1.572656
-3.169505 -2.950296 -1.572508
-3.316119 -3.083785 -1.526905
-3.538810 -3.287410 -1.504266
-3.751882 -3.483099 -1.465339
-4.047189 -3.753254 -1.442626
-4.184521 -3.878646 -1.349849
-4.504028 -4.170569 -1.302986
-4.491830 -4.156375 -1.151531
-4.518986 -4.216512 -1.014202
-4.482045 -4.180732 -0.860436
0.000258 -0.016944 -0.000482
-4.251081 -3.960583 -0.541619
-4.256921 -3.964592 -0.406599
-4.264055 -3.968455 -0.271733
-18.580275 -17.222359 -0.589004
-18.704302 -17.331034 -0.001078
0.000258 -0.016944 -0.000482
-20.261555 -18.746067 1.285598
-19.279160 -17.831650 1.834473
0.000258 -0.016944 -0.000482
-22.190542 -20.492928 3.529788
-5.354198 -4.955858 1.023104
0.000258 -0.016944 -0.000482
-3.577684 -3.312561 0.915906
-0.440517 -0.421884 -0.355516
-0.460786 -0.440205 -0.352197
-0.500563 -0.476583 -0.361987
-2.412652 -2.230349 -1.644574
-2.548832 -2.353644 -1.637442
-2.675333 -2.467874 -1.616122
-2.822482 -2.601739 -1.599303
-2.968389 -2.733446 -1.571926
-3.175761 -2.921159 -1.567033
-3.329513 -3.060689 -1.524983
-3.549113 -3.259135 -1.500690
-3.749659 -3.439913 -1.456516
-4.058634 -3.720629 -1.439078
-4.197277 -3.844459 -1.346620
-4.460632 -4.081714 -1.283438
-4.446546 -4.066018 -1.133754
-4.471868 -4.124878 -0.998310
-4.414736 -4.069571 -0.842896
0.000246 -0.016804 -0.000477
-4.283967 -3.945353 -0.542920
-4.277308 -3.936459 -0.406319
-4.291168 -3.947752 -0.272011
-18.875151 -17.294561 -0.595193
-39.459702 -36.111248 -0.001756
0.000246 -0.016804 -0.000477
-20.512058 -18.759747 1.294620
0.000246 -0.016804 -0.000477
0.000246 -0.016804 -0.000477
0.000246 -0.016804 -0.000477
0.000246 -0.016804 -0.000477
0.000246 -0.016804 -0.000477
-3.566073 -3.263998 0.908132
-0.444181 -0.420292 -0.356534
-0.462001 -0.436159 -0.351213
-2.326493 -2.127417 -1.670930
-2.423090 -2.213466 -1.642777
-2.568950 -2.344861 -1.641718
-2.689386 -2.452310 -1.616121
-2.826813 -2.574916 -1.593134
-3.004691 -2.734937 -1.582838
-3.163142 -2.876240 -1.552666
-3.351189 -3.045156 -1.526903
-3.566304 -3.237237 -1.500093
-3.790705 -3.437467 -1.464785
-4.092813 -3.708744 -1.443636
-4.217801 -3.818797 -1.346157
-4.417850 -3.997695 -1.264723
-4.397494 -3.976574 -1.115606
-4.421627 -4.030505 -0.981771
-4.385204 -3.996041 -0.832872
0.000256 -0.016684 -0.000474
-4.164052 -3.790042 -0.524893
-4.143051 -3.769672 -0.391525
0.000256 -0.016684 -0.000474
-4.173310 -3.793076 -0.131288
0.000256 -0.016684 -0.000474
0.000256 -0.016684 -0.000474
0.000256 -0.016684 -0.000474
0.000256 -0.016684 -0.000474
-3.900018 -3.535776 0.489496
0.000256 -0.016684 -0.000474
0.000256 -0.016684 -0.000474
-5.356635 -4.841506 1.183802
-3.556948 -3.218307 0.901099
-0.447709 -0.418826 -0.357550
-0.461730 -0.431122 -0.349251
-2.336928 -2.113080 -1.669988
-2.437976 -2.202163 -1.644570
-2.570185 -2.319055 -1.634015
-2.701585 -2.435908 -1.615305
-2.842424 -2.560200 -1.593903
-3.006414 -2.705037 -1.575560
-3.174859 -2.854646 -1.550611
-3.386950 -3.042081 -1.535224
-3.577660 -3.210171 -1.497112
-3.781064 -3.390510 -1.453756
-4.098100 -3.670835 -1.438063
-4.225883 -3.783409 -1.342005
-4.364731 -3.904403 -1.243096
-4.355632 -3.893562 -1.099309
-4.371973 -3.941052 -0.965881
-4.249603 -3.829853 -0.803084
-4.146917 -3.735079 -0.651009
-4.124241 -3.712132 -0.517272
-4.138665 -3.723734 -0.389151
-5.388581 -4.839848 -0.337913
0.000244 -0.016544 -0.000470
0.000244 -0.016544 -0.000470
0.000244 -0.016544 -0.000470
0.000244 -0.016544 -0.000470
0.000244 -0.016544 -0.000470
-5.367699 -4.804163 0.670402
-5.385872 -4.816953 0.843069
-5.379506 -4.809601 1.011972
-5.387268 -4.813087 1.184451
-3.557696 -3.181972 0.896657
-0.453894 -0.419522 -0.360607
-0.468035 -0.431788 -0.352186
-2.347639 -2.098289 -1.669047
-2.453173 -2.190348 -1.646364
-2.590165 -2.310081 -1.638291
-2.712742 -2.417753 -1.613675
-2.851488 -2.538775 -1.590817
-3.014866 -2.681386 -1.571920
-3.193968 -2.838673 -1.551977
-3.401459 -3.019907 -1.533942
-3.597419 -3.190654 -1.497706
-3.809069 -3.376194 -1.457063
-4.120527 -3.648330 -1.438568
-4.238741 -3.751164 -1.339236
-4.340045 -3.837722 -1.229787
-4.314417 -3.812475 -1.083383
-4.332504 -3.860668 -0.952259
-4.185551 -3.728971 -0.786935
-4.172714 -3.714967 -0.651703
-4.154407 -3.696107 -0.518385
-4.074797 -3.624329 -0.381195
-4.223719 -3.753547 -0.263619
-4.209024 -3.737893 -0.131053
-5.397723 -4.787118 -0.000647
-5.387453 -4.774678 0.166238
-5.392210 -4.775519 0.334752
-5.397730 -4.778695 0.502714
-5.408619 -4.784902 0.672074
-5.416396 -4.788365 0.843534
-5.420385 -4.790205 1.014478
-5.438472 -4.802742 1.189637
-5.454680 -4.813581 1.367993
-0.451103 -0.412154 -0.356522
-0.475731 -0.433469 -0.356102
-2.361270 -2.085360 -1.669984
-2.459303 -2.169733 -1.641874
-2.599640 -2.290972 -1.635722
-2.721441 -2.396675 -1.610418
-2.869177 -2.524110 -1.592357
-3.024991 -2.658430 -1.569009
-3.214880 -2.823267 -1.554028
-3.413503 -2.994557 -1.531379
-3.613306 -3.166615 -1.496513
-3.850665 -3.372358 -1.465331
-4.147828 -3.628777 -1.440593
-4.254936 -3.720721 -1.337391
-4.294734 -3.752722 -1.210656
-4.267142 -3.726084 -1.065975
-4.292893 -3.780138 -0.938637
-4.223879 -3.718311 -0.789996
-4.175141 -3.673011 -0.648686
0.000244 -0.016282 -0.000463
-4.028552 -3.540848 -0.374913
0.000244 -0.016282 -0.000463
0.000244 -0.016282 -0.000463
-5.427416 -4.756215 -0.000647
-5.423098 -4.749092 0.166470
-5.427878 -4.749882 0.335219
-5.446938 -4.764820 0.504667
-5.471327 -4.782705 0.676346
0.000244 -0.016282 -0.000463
-13.353698 -11.636800 2.486938
-7.297050 -6.361840 1.588068
-10.785306 -9.388481 2.691279
-0.455969 -0.411676 -0.358560
-0.482068 -0.434022 -0.359039
-2.370478 -2.069287 -1.668103
-2.479764 -2.162432 -1.647256
-2.611331 -2.274651 -1.634863
-2.728177 -2.374868 -1.606349
-2.858424 -2.485711 -1.578479
-3.037339 -2.638402 -1.567551
-3.218185 -2.793531 -1.547869
-3.426282 -2.971019 -1.529456
-3.619792 -3.135678 -1.491746
-3.881567 -3.360051 -1.469741
-4.148028 -3.587037 -1.433499
-4.264384 -3.685888 -1.333700
-4.243490 -3.665312 -1.190277
-4.231776 -3.652655 -1.051900
-4.253342 -3.702238 -0.925340
0.000256 -0.016159 -0.000460
0.000256 -0.016159 -0.000460
-4.010352 -3.485513 -0.495340
0.000256 -0.016159 -0.000460
0.000256 -0.016159 -0.000460
0.000256 -0.016159 -0.000460
-5.478836 -4.745676 -0.000647
-5.492635 -4.754242 0.167768
0.000256 -0.016159 -0.000460
0.000256 -0.016159 -0.000460
0.000256 -0.016159 -0.000460
-3.982554 -3.443115 0.613840
-4.071876 -3.518717 0.754275
-7.351405 -6.335046 1.591958
0.000256 -0.016159 -0.000460
-0.458239 -0.408912 -0.358556
-0.481837 -0.428831 -0.357074
-2.367486 -2.042857 -1.657773
-2.488005 -2.144501 -1.644561
-2.617415 -2.253583 -1.630582
-2.744488 -2.361368 -1.607974
-2.866969 -2.464295 -1.575394
-3.041034 -2.611076 -1.561730
-3.241265 -2.780930 -1.551288
-3.446132 -2.953566 -1.530734
-3.656590 -3.130744 -1.499489
-3.893448 -3.331279 -1.466981
-4.162625 -3.557950 -1.431471
-4.232063 -3.615761 -1.317097
-4.207772 -3.592555 -1.174473
-4.192712 -3.577216 -1.037084
-4.213042 -3.624923 -0.912042
-3.998433 -3.439892 -0.740438
0.000241 -0.016023 -0.000455
-3.989407 -3.427289 -0.490320
-3.941448 -3.385099 -0.363187
-5.508139 -4.720809 -0.338469
0.000241 -0.016023 -0.000455
0.000241 -0.016023 -0.000455
0.000241 -0.016023 -0.000455
0.000241 -0.016023 -0.000455
0.000241 -0.016023 -0.000455
-4.135224 -3.535614 0.506033
-3.897808 -3.331198 0.597817
-4.025573 -3.438653 0.742031
-7.294407 -6.213275 1.571858
-3.621186 -3.090435 0.894444
-0.461812 -0.407245 -0.359573
-0.484194 -0.425925 -0.357072
-2.372372 -2.023359 -1.653075
-2.505682 -2.134625 -1.648148
-2.626107 -2.234850 -1.628013
-2.763526 -2.350116 -1.611226
-2.869750 -2.438089 -1.569223
-3.060198 -2.596997 -1.563910
-3.252811 -2.758465 -1.549234
-3.460072 -2.931119 -1.529453
-3.637937 -3.078782 -1.484593
-3.918337 -3.313643 -1.469186
-4.179977 -3.531314 -1.430457
-4.193130 -3.541115 -1.298648
-4.169887 -3.519061 -1.158251
-4.154447 -3.503600 -1.022638
-4.168976 -3.545650 -0.898096
-3.965173 -3.371901 -0.730692
0.000229 -0.015882 -0.000451
-4.039386 -3.429854 -0.494035
-3.921172 -3.328733 -0.359555
0.000229 -0.015882 -0.000451
0.000229 -0.015882 -0.000451
-42.948563 -36.234913 -0.001960
0.000229 -0.015882 -0.000451
0.000229 -0.015882 -0.000451
-25.022358 -21.079973 2.285842
-11.864756 -9.996762 1.445642
-3.968514 -3.352045 0.605714
-4.025503 -3.398723 0.738415
0.000229 -0.015882 -0.000451
0.000229 -0.015882 -0.000451
-0.462747 -0.403336 -0.358548
-0.494575 -0.429710 -0.362946
-2.400149 -2.023127 -1.664340
-2.506870 -2.110863 -1.640966
-2.633289 -2.214925 -1.624588
-2.771294 -2.329364 -1.607970
-2.875124 -2.414320 -1.564597
-3.056417 -2.563691 -1.554449
-3.271433 -2.741966 -1.550600
-3.459322 -2.896474 -1.521767
-3.673139 -3.072299 -1.491739
-3.929868 -3.284750 -1.466427
-4.210548 -3.515730 -1.434002
-4.153478 -3.467042 -1.280200
-4.132793 -3.447377 -1.142445
-4.121509 -3.435578 -1.009674
-4.136248 -3.477136 -0.886744
-3.935804 -3.308234 -0.721782
0.000241 -0.015760 -0.000448
-4.028397 -3.380889 -0.490317
0.000241 -0.015760 -0.000448
-16.779818 -14.017071 -1.020194
-30.742348 -25.649117 -0.930851
-43.535778 -36.303284 -0.001991
0.000241 -0.015760 -0.000448
0.000241 -0.015760 -0.000448
0.000241 -0.015760 -0.000448
-4.350011 -3.632665 0.527209
-11.732729 -9.763832 1.782976
-4.034241 -3.366514 0.736469
-4.271749 -3.561231 0.911490
-3.674474 -3.063355 0.898889
-0.467604 -0.402742 -0.360587
-0.484863 -0.416719 -0.354125
-2.392619 -1.993392 -1.651191
-2.531300 -2.106503 -1.649040
-2.640323 -2.195003 -1.621163
-2.779335 -2.308099 -1.604713
-2.900297 -2.406974 -1.570760
-3.063834 -2.540009 -1.550809
-3.280303 -2.716404 -1.547176
-3.456839 -2.860721 -1.513441
-3.692137 -3.052189 -1.492333
-3.926904 -3.242947 -1.458155
-4.220167 -3.482702 -1.430454
-4.118222 -3.396528 -1.263135
-4.098615 -3.378016 -1.127473
-4.087008 -3.366084 -0.996339
-4.095267 -3.402834 -0.873771
0.000226 -0.015623 -0.000444
0.000226 -0.015623 -0.000444
-4.038505 -3.349895 -0.489199
-3.964218 -3.286244 -0.359971
-16.673628 -13.766329 -1.008919
-23.305475 -19.221737 -0.702428
-44.120735 -36.349480 -0.002022
0.000226 -0.015623 -0.000444
-23.375877 -19.245256 1.410290
0.000226 -0.015623 -0.000444
0.000226 -0.015623 -0.000444
0.000226 -0.015623 -0.000444
-4.314331 -3.555968 0.783781
-7.221292 -5.937070 1.533604
-4.336455 -3.570304 1.055877
-0.469910 -0.399816 -0.360582
-0.483190 -0.410389 -0.351182
-2.400192 -1.975692 -1.648373
-2.542254 -2.090205 -1.648141
-2.641608 -2.170501 -1.614315
-2.798158 -2.296546 -1.607964
-2.911559 -2.387274 -1.569216
-3.094203 -2.535141 -1.558810
-3.288497 -2.691422 -1.543754
-3.487858 -2.852600 -1.519841
-3.696212 -3.019928 -1.486970
-3.954360 -3.227438 -1.461462
-4.214522 -3.437487 -1.421840
-4.081691 -3.327278 -1.246070
-4.065647 -3.313065 -1.113332
-4.055240 -3.302262 -0.984116
-4.067920 -3.339639 -0.863715
-4.026167 -3.304346 -0.731244
-3.942506 -3.233706 -0.594850
-10.559418 -8.628467 -1.272138
-3.990719 -3.269541 -0.360667
-16.581415 -13.525738 -0.998481
-23.313301 -19.003824 -0.699368
-44.602123 -36.317009 -0.002048
0.000239 -0.015501 -0.000441
-24.796047 -20.175217 1.488962
-22.380260 -18.198116 2.015131
-4.386742 -3.578306 0.526656
0.000239 -0.015501 -0.000441
-13.907328 -11.294145 2.515583
0.000239 -0.015501 -0.000441
-4.414892 -3.592158 1.069950
-0.474727 -0.399218 -0.362619
-0.488089 -0.409755 -0.353139
-2.404228 -1.956584 -1.643675
-2.532946 -2.059006 -1.634676
-2.663819 -2.163070 -1.620303
-2.809419 -2.279618 -1.607149
-2.906055 -2.355816 -1.559193
-3.097037 -2.507819 -1.552988
-3.296074 -2.666996 -1.540331
-3.505612 -2.833532 -1.520479
-3.683690 -2.974545 -1.475050
-3.945261 -3.183507 -1.451535
-4.223580 -3.404568 -1.418293
-4.043960 -3.259242 -1.229003
-4.031153 -3.246644 -1.098773
-4.017351 -3.233263 -0.970410
-4.029599 -3.270871 -0.851715
-4.013633 -3.256813 -0.725674
-3.975866 -3.223994 -0.597168
0.000226 -0.015361 -0.000436
0.000226 -0.015361 -0.000436
-16.516529 -13.320068 -0.990095
0.000226 -0.015361 -0.000436
-45.149937 -36.345749 -0.002076
0.000226 -0.015361 -0.000436
-25.070515 -20.159689 1.498451
-22.588728 -18.159000 2.024748
-4.292254 -3.460630 0.512914
-4.482826 -3.611001 0.671448
-13.911343 -11.169145 2.505006
0.000226 -0.015361 -0.000436
-7.129620 -5.723560 1.720107
-0.474238 -0.394200 -0.360575
-0.498541 -0.413325 -0.359013
-2.416749 -1.943677 -1.644611
-2.546045 -2.045388 -1.635572
-2.683227 -2.153187 -1.624578
-2.808498 -2.251409 -1.599011
-2.907936 -2.329717 -1.553023
-3.102591 -2.482856 -1.548620
-3.311739 -2.647269 -1.540329
-3.514349 -2.807289 -1.517276
-3.700657 -2.953170 -1.475049
-3.941384 -3.142003 -1.443263
-4.241514 -3.378858 -1.417783
-4.015830 -3.197617 -1.214706
-3.999631 -3.182471 -1.085047
-3.987034 -3.170233 -0.958557
-3.997381 -3.206853 -0.841011
0.000236 -0.015241 -0.000433
-8.662813 -6.924162 -1.294591
-10.486629 -8.372673 -1.251884
-12.830211 -10.232999 -1.147837
0.000236 -0.015241 -0.000433
-23.743135 -18.903233 -0.705702
-45.732510 -36.369698 -0.002106
-23.648243 -18.807383 0.699992
0.000236 -0.015241 -0.000433
-22.670916 -18.004761 2.022511
-3.977126 -3.168981 0.472984
0.000236 -0.015241 -0.000433
-4.461758 -3.549426 0.799370
-4.328094 -3.441067 0.906311
-4.414146 -3.507920 1.059956
-0.477813 -0.392325 -0.361593
-0.481731 -0.395111 -0.345293
-2.425371 -1.926992 -1.642730
-2.542620 -2.017940 -1.625696
-2.694442 -2.135988 -1.623719
-2.828515 -2.240715 -1.603076
-2.939014 -2.325988 -1.562272
-3.115721 -2.463118 -1.547889
-3.310564 -2.615275 -1.532802
-3.530852 -2.786263 -1.517274
-3.740542 -2.948714 -1.483984
-3.965363 -3.123882 -1.445467
-4.265961 -3.357089 -1.419301
-3.980454 -3.132322 -1.198563
-3.965407 -3.118284 -1.070906
-3.950937 -3.104728 -0.945592
-3.957355 -3.136515 -0.828685
0.000224 -0.015101 -0.000429
-8.666162 -6.843046 -1.289024
-10.448394 -8.241220 -1.241477
-12.876272 -10.148977 -1.146721
0.000224 -0.015101 -0.000429
-23.785547 -18.707617 -0.703664
-23.208654 -18.247606 -0.001284
0.000224 -0.015101 -0.000429
0.000224 -0.015101 -0.000429
-23.612471 -18.531267 2.096975
-4.490532 -3.534033 0.531676
-21.666384 -16.980650 3.216842
-4.263680 -3.352651 0.760411
-4.243578 -3.334510 0.884592
-4.159139 -3.266108 0.994053
-0.482693 -0.391552 -0.363630
-0.483902 -0.392206 -0.345290
-2.443318 -1.918285 -1.647421
-2.554103 -2.003140 -1.625694
-2.716582 -2.128088 -1.629707
-2.844562 -2.226002 -1.604699
-2.949358 -2.306633 -1.560727
-3.126804 -2.442737 -1.546432
-3.330383 -2.598916 -1.534852
-3.545244 -2.764601 -1.516631
-3.748311 -2.919991 -1.480407
-3.994384 -3.108411 -1.449323
-4.026564 -3.132196 -1.333691
-3.949619 -3.070421 -1.183803
-3.938863 -3.059881 -1.058842
-3.920983 -3.043856 -0.934108
-3.930123 -3.078368 -0.819278
-7.248286 -5.660541 -1.291941
-8.659873 -6.757524 -1.282295
-10.394971 -8.102560 -1.229584
-12.863678 -10.015989 -1.140303
-3.684716 -2.878780 -0.218200
-24.222792 -18.826591 -0.713383
-23.232613 -18.044548 -0.001287
-23.392277 -18.161833 0.686071
-23.480635 -18.217140 1.384188
-23.753389 -18.415234 2.099757
-4.512887 -3.508438 0.531863
-21.648970 -16.766806 3.199883
-4.331985 -3.364723 0.769041
-4.147628 -3.219861 0.860604
-4.031578 -3.129046 0.959253
-0.484937 -0.388539 -0.363625
-0.494433 -0.395571 -0.351164
-2.450350 -1.900408 -1.644602
-2.570099 -1.991097 -1.628383
-2.713300 -2.099691 -1.620292
-2.857608 -2.208973 -1.604698
-2.957039 -2.284479 -1.557641
-3.133756 -2.418350 -1.542792
-3.336713 -2.572120 -1.530744
-3.564507 -2.745692 -1.517909
-3.757902 -2.891766 -1.477425
-3.985163 -3.063519 -1.439398
-3.937385 -3.025869 -1.298230
-3.918188 -3.009000 -1.169043
-3.903977 -2.995978 -1.044701
-3.893569 -2.985844 -0.923365
-3.901303 -3.018760 -0.809548
-7.253368 -5.595597 -1.286930
-8.647744 -6.665954 -1.274638
-10.355896 -7.973914 -1.219364
-12.826243 -9.865263 -1.131790
-3.657264 -2.822677 -0.215587
-24.016640 -18.439083 -0.704093
0.000222 -0.014842 -0.000422
-23.307440 -17.875511 0.680455
0.000222 -0.014842 -0.000422
-23.790781 -18.219364 2.093476
-22.263577 -17.038374 2.613467
-21.762142 -16.648855 3.201968
-4.592570 -3.522789 0.811620
-4.122627 -3.161553 0.851529
0.000222 -0.014842 -0.000422
-0.482910 -0.382567 -0.360561
-0.497923 -0.393738 -0.352141
-2.449598 -1.878009 -1.637087
-2.589631 -1.983073 -1.633765
-2.734975 -2.092034 -1.626279
-2.847605 -2.176785 -1.592492
-2.954956 -2.256652 -1.549929
-3.147133 -2.400679 -1.542789
-3.338503 -2.544828 -1.525269
-3.585731 -2.730202 -1.520468
-3.772395 -2.869452 -1.476826
-4.009248 -3.047599 -1.442153
-3.909378 -2.969875 -1.283537
-3.887738 -2.952447 -1.155205
-3.871659 -2.938137 -1.031805
-3.865628 -2.931480 -0.912994
-3.866184 -2.957361 -0.798843
-7.248775 -5.529770 -1.280802
-3.670157 -2.805132 -0.538923
-3.661076 -2.796195 -0.429530
-3.649449 -2.786340 -0.321016
-3.633097 -2.771892 -0.213253
-23.975704 -18.195896 -0.699914
-48.144711 -36.510139 -0.002222
-23.127838 -17.533747 0.672338
0.000211 -0.014699 -0.000417
0.000211 -0.014699 -0.000417
0.000211 -0.014699 -0.000417
0.000211 -0.014699 -0.000417
-4.383891 -3.325887 0.771549
-4.254592 -3.225864 0.875198
-4.263313 -3.230098 1.005539
-0.486400 -0.380678 -0.361577
-0.501505 -0.391773 -0.353117
-2.457460 -1.861627 -1.635206
-2.605203 -1.971225 -1.636455
-2.736766 -2.068530 -1.620286
-2.857455 -2.157533 -1.590862
-2.981102 -2.249437 -1.556865
-3.172737 -2.391337 -1.548607
-3.354955 -2.525982 -1.525950
-3.604345 -2.711648 -1.521746
-3.797925 -2.854429 -1.480399
-4.013308 -3.013279 -1.437188
-3.879827 -2.912450 -1.268337
-3.862996 -2.897767 -1.142750
-3.843446 -2.881078 -1.019742
-3.838740 -2.875486 -0.902621
-3.671710 -2.775978 -0.755384
-3.660348 -2.765444 -0.644088
-3.644866 -2.752807 -0.532888
-3.638820 -2.746240 -0.425066
-3.630709 -2.738182 -0.317943
-3.599343 -2.713663 -0.210362
-24.148745 -18.109037 -0.701918
-48.834187 -36.578678 -0.002253
-23.002577 -17.231283 0.665797
0.000222 -0.014580 -0.000414
0.000222 -0.014580 -0.000414
-4.097069 -3.074515 0.476523
0.000222 -0.014580 -0.000414
-4.155796 -3.114964 0.728138
-4.156466 -3.113163 0.851210
-12.328733 -9.201797 2.896008
-0.494065 -0.381774 -0.365656
-2.380923 -1.782630 -1.666933
-2.488227 -1.861619 -1.648349
-2.613896 -1.953474 -1.634657
-2.751459 -2.054754 -1.621994
-2.871213 -2.142006 -1.591673
-3.000241 -2.235975 -1.559945
-3.181881 -2.369569 -1.546421
-3.364813 -2.503150 -1.523896
-3.603051 -2.678335 -1.514700
-3.811141 -2.830118 -1.479205
-4.028961 -2.988851 -1.436634
-3.851276 -2.856642 -1.253646
-3.835662 -2.843023 -1.129835
-3.813718 -2.825790 -1.007679
-3.810330 -2.821254 -0.892249
-3.643659 -2.721074 -0.746302
-3.630004 -2.709965 -0.636012
-3.633928 -2.710886 -0.528940
-3.622961 -2.700763 -0.421347
-3.641525 -2.713538 -0.317521
-3.581592 -2.667155 -0.208400
-24.366583 -18.054087 -0.705222
-49.537426 -36.662048 -0.002285
-23.449963 -17.349985 0.675761
-23.445139 -17.340017 1.358192
-23.251003 -17.183950 2.019831
-4.106068 -3.045560 0.475597
0.000209 -0.014440 -0.000410
0.000209 -0.014440 -0.000410
-4.184800 -3.097997 0.853481
-3.950248 -2.923028 0.923718
-0.503062 -0.383956 -0.370752
-2.386535 -1.766090 -1.663991
-2.485687 -1.838171 -1.639895
-2.624667 -1.938730 -1.634655
-2.752938 -2.031285 -1.616002
-2.874560 -2.118839 -1.586789
-3.011111 -2.217968 -1.559172
-3.196872 -2.352198 -1.547148
-3.385159 -2.488043 -1.526630
-3.621388 -2.659655 -1.515978
-3.839620 -2.817011 -1.483969
-4.021178 -2.947344 -1.427809
-3.823815 -2.802367 -1.239458
-3.806263 -2.787533 -1.116459
-3.787607 -2.771916 -0.996449
-3.782420 -2.766091 -0.881875
-3.638015 -2.685392 -0.742084
-3.640680 -2.685374 -0.635174
-3.655335 -2.695124 -0.529865
-3.655558 -2.693324 -0.423390
-3.565250 -2.625214 -0.309563
-3.552813 -2.615132 -0.205881
-25.907904 -18.965197 -0.746643
-26.281630 -19.224398 -0.001406
-26.224697 -19.175661 0.752669
-23.150761 -16.917217 1.335470
-23.339773 -17.042656 2.018991
-4.130418 -3.025714 0.476343
0.000222 -0.014317 -0.000407
-4.135187 -3.025846 0.718404
-4.301956 -3.144986 0.873582
-3.916070 -2.863113 0.911873
-0.491326 -0.370733 -0.360546
-2.406781 -1.758926 -1.670845
-2.486446 -1.816013 -1.633320
-2.623021 -1.913553 -1.626574
-2.776582 -2.023256 -1.622844
-2.895518 -2.108547 -1.591667
-3.022626 -2.198865 -1.558398
-3.200112 -2.325428 -1.542052
-3.385627 -2.458487 -1.520470
-3.627789 -2.631355 -1.512134
-3.849979 -2.789595 -1.481584
-4.030195 -2.918397 -1.425050
-3.797889 -2.748986 -1.225779
-3.773200 -2.730202 -1.102160
-3.757367 -2.716806 -0.984385
-3.750309 -2.709739 -0.870762
-3.672961 -2.677543 -0.745973
-3.681663 -2.682833 -0.639625
-3.685655 -2.683749 -0.531951
-3.569766 -2.597906 -0.411678
0.000207 -0.014180 -0.000403
-3.529312 -2.565799 -0.203641
-19.246590 -13.918087 -0.552393
0.000207 -0.014180 -0.000403
-26.812939 -19.362488 0.766248
0.000207 -0.014180 -0.000403
-27.648762 -19.943432 2.381840
-25.577152 -18.436588 2.939391
0.000207 -0.014180 -0.000403
-4.142798 -2.994928 0.716736
-3.861615 -2.790562 0.780870
-3.921724 -2.831679 0.909284
-0.501760 -0.373781 -0.366664
-2.406844 -1.737819 -1.663985
-2.498208 -1.802569 -1.634256
-2.630998 -1.896218 -1.624776
-2.780742 -2.001858 -1.618563
