# This PCD file was generated using the MATLAB® pcwrite function
# from Computer Vision Toolbox®.
# .PCD v.7 - Point Cloud Data file format
VERSION .7
FIELDS x y z
SIZE 4 4 4
TYPE F F F
COUNT 1 1 1
WIDTH 1632
HEIGHT 1
VIEWPOINT 0 0 0 1 0 0 0
POINTS 1632
DATA ascii
2.850580 -3.170654 -1.882784
3.034957 -3.374763 -1.881403
3.278555 -3.644067 -1.900860
3.539787 -3.931725 -1.913419
3.829026 -4.251763 -1.922346
4.183312 -4.643662 -1.940350
4.572780 -5.073009 -1.949578
5.023407 -5.571773 -1.956174
5.576921 -6.182239 -1.966177
6.182908 -6.853219 -1.956429
6.603165 -7.320645 -1.853038
8.605816 -9.446130 -2.096490
8.674866 -9.524754 -1.808607
10.713217 -11.759048 -1.856909
10.740742 -11.797250 -1.488847
0.001575 -0.052205 -0.001299
13.034595 -14.320705 -0.905855
0.001575 -0.052205 -0.001299
0.001575 -0.052205 -0.001299
51.117340 -56.110249 1.746879
39.430492 -43.323364 2.718533
0.001575 -0.052205 -0.001299
51.228626 -56.329361 7.085252
0.001575 -0.052205 -0.001299
51.293736 -56.459183 10.700166
0.001575 -0.052205 -0.001299
0.001575 -0.052205 -0.001299
0.388363 -0.479187 -0.343159
0.408694 -0.501946 -0.342331
0.437507 -0.533951 -0.346941
0.489387 -0.591671 -0.366661
2.663728 -2.998899 -1.881865
2.833804 -3.188227 -1.883581
3.021950 -3.398882 -1.885241
3.260325 -3.665516 -1.902298
3.517406 -3.951903 -1.913399
3.806048 -4.275001 -1.922965
4.165736 -4.677451 -1.944498
4.546379 -5.101972 -1.950656
4.996719 -5.606207 -1.958172
5.544148 -6.216998 -1.967069
6.193337 -6.943858 -1.972208
6.563854 -7.361326 -1.853743
8.567494 -9.512928 -2.100337
8.604232 -9.556757 -1.805214
10.668303 -11.845424 -1.860799
10.694311 -11.882372 -1.491765
0.001590 -0.052079 -0.001300
12.885313 -14.321218 -0.901108
0.001590 -0.052079 -0.001300
0.001590 -0.052079 -0.001300
0.001590 -0.052079 -0.001300
50.595440 -56.222202 3.511224
0.001590 -0.052079 -0.001300
50.672070 -56.365528 7.053268
0.001590 -0.052079 -0.001300
50.743111 -56.502888 10.653187
0.001590 -0.052079 -0.001300
0.001590 -0.052079 -0.001300
0.395065 -0.491520 -0.351320
0.403764 -0.501541 -0.340368
0.432362 -0.533679 -0.345060
0.482693 -0.590331 -0.363965
2.649116 -3.016734 -1.883561
2.814491 -3.202993 -1.882752
3.001413 -3.414712 -1.884453
3.238237 -3.682701 -1.901552
3.491141 -3.967737 -1.911326
3.786736 -4.302374 -1.925507
4.135252 -4.696951 -1.942687
4.515957 -5.126483 -1.950078
4.960813 -5.630409 -1.956624
5.507258 -6.247203 -1.966575
6.200309 -7.031898 -1.987153
6.524283 -7.401792 -1.854447
8.577386 -9.634011 -2.116193
8.643138 -9.710783 -1.824951
10.673072 -11.987950 -1.873515
10.704327 -12.031217 -1.502687
12.250969 -13.767017 -1.290245
12.764396 -14.351789 -0.898325
0.001578 -0.051939 -0.001299
0.001578 -0.051939 -0.001299
39.693413 -44.600887 1.374069
37.453762 -42.116341 2.615829
0.001578 -0.051939 -0.001299
50.112839 -56.392719 7.020726
0.001578 -0.051939 -0.001299
50.195011 -56.543606 10.606486
0.001578 -0.051939 -0.001299
0.001578 -0.051939 -0.001299
0.387981 -0.488503 -0.347236
0.396544 -0.498489 -0.336445
0.435439 -0.542641 -0.349754
0.490228 -0.605013 -0.372041
2.635587 -3.035857 -1.886113
2.797514 -3.220374 -1.883549
2.985659 -3.435942 -1.886749
3.219745 -3.703938 -1.902989
3.468549 -3.987635 -1.911306
3.765962 -4.328231 -1.927407
4.110965 -4.723404 -1.943855
4.487947 -5.153707 -1.950605
4.933733 -5.664550 -1.958623
5.476647 -6.284519 -1.968390
6.200052 -7.112922 -2.000019
6.479259 -7.436120 -1.853667
8.680293 -9.861923 -2.155415
8.622833 -9.800303 -1.832427
10.746270 -12.209816 -1.898541
10.745929 -12.217872 -1.518260
12.037134 -13.684611 -1.275912
12.644841 -14.382918 -0.895634
0.001567 -0.051799 -0.001298
0.001567 -0.051799 -0.001298
0.001567 -0.051799 -0.001298
0.001567 -0.051799 -0.001298
0.001567 -0.051799 -0.001298
49.572071 -56.434772 6.990594
0.001567 -0.051799 -0.001298
0.001567 -0.051799 -0.001298
0.001567 -0.051799 -0.001298
0.001567 -0.051799 -0.001298
0.391106 -0.497049 -0.352335
0.393973 -0.500632 -0.336443
0.430279 -0.542335 -0.347872
0.478797 -0.598253 -0.365753
2.620756 -3.053576 -1.887810
2.785864 -3.245024 -1.888414
2.963704 -3.450154 -1.885189
3.198664 -3.722269 -1.902969
3.448849 -4.012256 -1.913339
3.740032 -4.348265 -1.926743
4.089014 -4.752615 -1.946215
4.460113 -5.182984 -1.951680
4.903877 -5.695637 -1.959608
5.440861 -6.318221 -1.968819
6.172151 -7.165678 -2.004560
6.436645 -7.475769 -1.854000
8.621097 -9.908626 -2.154717
8.593529 -9.883935 -1.838507
10.697021 -12.295271 -1.902196
10.720233 -12.330379 -1.524524
11.849850 -13.633846 -1.264516
12.467608 -14.346917 -0.888831
0.001582 -0.051674 -0.001299
48.505684 -55.750462 -0.012996
0.001582 -0.051674 -0.001299
0.001582 -0.051674 -0.001299
0.001582 -0.051674 -0.001299
0.001582 -0.051674 -0.001299
0.001582 -0.051674 -0.001299
0.001582 -0.051674 -0.001299
0.001582 -0.051674 -0.001299
0.001582 -0.051674 -0.001299
0.380583 -0.490107 -0.345189
0.394697 -0.506757 -0.339379
0.421589 -0.538051 -0.343173
0.463869 -0.587404 -0.356773
2.604618 -3.069846 -1.888651
2.772202 -3.266404 -1.891652
2.943499 -3.467536 -1.885172
3.176254 -3.739065 -1.902222
3.422316 -4.027628 -1.911265
3.709044 -4.362394 -1.923518
4.060626 -4.774477 -1.945594
4.430512 -5.208445 -1.951655
4.881394 -5.735381 -1.963634
5.402156 -6.346338 -1.967863
6.133614 -7.201359 -2.004939
6.392545 -7.508455 -1.853221
8.570221 -9.968399 -2.156613
10.520096 -12.229250 -2.265353
10.699483 -12.445559 -1.915603
10.723973 -12.482576 -1.535442
11.805336 -13.740964 -1.268082
12.353935 -14.387175 -0.886702
36.848175 -42.828869 -1.320836
37.067894 -43.113949 -0.010081
0.001570 -0.051533 -0.001298
0.001570 -0.051533 -0.001298
0.001570 -0.051533 -0.001298
48.488918 -56.499825 6.929586
0.001570 -0.051533 -0.001298
48.576668 -56.680820 10.472497
0.001570 -0.051533 -0.001298
0.001570 -0.051533 -0.001298
0.382595 -0.497314 -0.349268
0.391023 -0.507493 -0.338397
0.422288 -0.544275 -0.345987
0.463184 -0.592560 -0.358565
2.596566 -3.095647 -1.895481
2.759583 -3.289134 -1.895705
2.926775 -3.486583 -1.886696
3.153780 -3.755740 -1.901476
3.394499 -4.041397 -1.908507
3.682942 -4.382092 -1.922855
4.030912 -4.794734 -1.944378
4.401988 -5.235183 -1.952179
4.844835 -5.758818 -1.962084
5.375911 -6.389072 -1.971523
6.093631 -7.240458 -2.005734
6.336770 -7.532598 -1.849847
8.521136 -10.023438 -2.158185
10.463986 -12.306050 -2.268358
10.743637 -12.637930 -1.935980
10.750044 -12.654221 -1.549149
11.780700 -13.872327 -1.273885
12.206339 -14.376672 -0.881768
0.001559 -0.051393 -0.001297
47.817223 -56.253071 -0.012422
0.001559 -0.051393 -0.001297
47.873917 -56.378361 3.434833
0.001559 -0.051393 -0.001297
47.945847 -56.541775 6.900011
0.001559 -0.051393 -0.001297
48.034725 -56.705494 10.426071
0.001559 -0.051393 -0.001297
0.001559 -0.051393 -0.001297
0.377738 -0.496815 -0.347226
0.386052 -0.506988 -0.336433
0.418227 -0.545282 -0.345045
0.463430 -0.599264 -0.361256
2.581960 -3.115008 -1.898034
2.739712 -3.303420 -1.894874
2.908729 -3.506570 -1.888220
3.135338 -3.778508 -1.903639
3.370243 -4.059278 -1.907801
3.659626 -4.406621 -1.924113
4.001474 -4.816953 -1.943757
4.377016 -5.266186 -1.954358
4.815882 -5.793253 -1.964082
5.344337 -6.425737 -1.973336
6.057174 -7.281279 -2.007362
6.303698 -7.580871 -1.852774
8.351099 -9.942465 -2.129900
10.393276 -12.365939 -2.268295
10.711048 -12.751390 -1.943579
10.739264 -12.793745 -1.558388
11.761356 -14.011480 -1.280385
12.072286 -14.390597 -0.878144
12.020618 -14.339202 -0.437526
47.285683 -56.280766 -0.012090
0.001547 -0.051253 -0.001296
47.334740 -56.417858 3.420355
0.001547 -0.051253 -0.001296
47.409985 -56.566418 6.869877
0.001547 -0.051253 -0.001296
0.001547 -0.051253 -0.001296
0.001547 -0.051253 -0.001296
0.001547 -0.051253 -0.001296
0.375149 -0.498827 -0.347222
0.384535 -0.510398 -0.337411
0.414242 -0.546184 -0.344103
0.455683 -0.596282 -0.357661
0.482754 -0.628968 -0.357360
2.718612 -3.316197 -1.893230
2.893495 -3.528783 -1.891286
3.113293 -3.794383 -1.902892
3.347132 -4.078486 -1.907781
3.629227 -4.419570 -1.920890
3.979686 -4.844949 -1.946117
4.344475 -5.288202 -1.953229
4.783734 -5.819888 -1.964051
5.310045 -6.459260 -1.974226
6.011736 -7.308812 -2.005661
6.284141 -7.643065 -1.859407
8.318046 -10.019025 -2.136015
10.326001 -12.429969 -2.269067
10.721715 -12.913414 -1.958843
10.752384 -12.959250 -1.570975
11.776560 -14.193807 -1.290800
11.938433 -14.398272 -0.874333
46.613731 -56.094482 -1.704121
0.001562 -0.051127 -0.001296
0.001562 -0.051127 -0.001296
0.001562 -0.051127 -0.001296
0.001562 -0.051127 -0.001296
0.001562 -0.051127 -0.001296
0.001562 -0.051127 -0.001296
0.001562 -0.051127 -0.001296
0.001562 -0.051127 -0.001296
0.001562 -0.051127 -0.001296
0.375931 -0.504756 -0.350281
0.384180 -0.515082 -0.339368
0.418193 -0.556510 -0.349734
0.454918 -0.601445 -0.359454
0.484009 -0.637179 -0.360780
2.704405 -3.337289 -1.896467
2.874049 -3.544751 -1.891269
3.090528 -3.810678 -1.902146
3.326271 -4.100451 -1.909129
3.601604 -4.437313 -1.919585
3.958085 -4.875027 -1.949072
4.317911 -5.317444 -1.954856
4.750456 -5.847198 -1.964022
5.274297 -6.491084 -1.974655
5.971073 -7.347235 -2.006456
0.001551 -0.050987 -0.001295
8.222100 -10.016448 -2.125581
8.529993 -10.396952 -1.887569
8.593131 -10.477139 -1.580704
10.764998 -13.121929 -1.583377
0.001551 -0.050987 -0.001295
11.798513 -14.392027 -0.869868
46.113888 -56.147018 -1.697345
0.001551 -0.050987 -0.001295
35.583954 -43.382641 1.292659
0.001551 -0.050987 -0.001295
0.001551 -0.050987 -0.001295
0.001551 -0.050987 -0.001295
0.001551 -0.050987 -0.001295
0.001551 -0.050987 -0.001295
0.001551 -0.050987 -0.001295
0.001551 -0.050987 -0.001295
0.367793 -0.500165 -0.345176
0.378116 -0.513155 -0.336425
0.412957 -0.556101 -0.347853
0.448243 -0.599817 -0.356757
0.489643 -0.651112 -0.367624
2.683136 -3.349831 -1.894822
2.856771 -3.565900 -1.893564
3.078743 -3.841821 -1.908676
3.301733 -4.117940 -1.908424
3.577922 -4.461409 -1.920844
3.924585 -4.892340 -1.946662
4.288735 -5.343570 -1.955381
4.717221 -5.876641 -1.964499
5.237139 -6.521200 -1.974622
5.924064 -7.375269 -2.004755
6.270314 -7.808946 -1.881932
8.281285 -10.210221 -2.156357
8.308926 -10.247669 -1.851575
0.001539 -0.050847 -0.001294
10.790335 -13.312065 -1.598565
11.738846 -14.482938 -1.304633
11.767423 -14.528258 -0.873811
0.001539 -0.050847 -0.001294
46.680843 -57.548035 -0.011310
35.580811 -43.906414 1.302204
46.803543 -57.780323 3.454380
46.907787 -57.928955 5.198057
0.001539 -0.050847 -0.001294
0.001539 -0.050847 -0.001294
0.001539 -0.050847 -0.001294
0.001539 -0.050847 -0.001294
0.001539 -0.050847 -0.001294
0.366274 -0.503470 -0.346193
0.373272 -0.512473 -0.334463
0.410030 -0.558320 -0.347849
0.442843 -0.599470 -0.354959
0.487312 -0.655189 -0.368476
2.670969 -3.373631 -1.899688
2.834179 -3.579270 -1.892004
3.058021 -3.860787 -1.909383
3.281784 -4.141134 -1.910455
3.553644 -4.483263 -1.921461
3.895468 -4.913228 -1.946042
4.260593 -5.371030 -1.956456
4.686012 -5.906574 -1.965482
5.199800 -6.551095 -1.974588
5.863470 -7.386173 -1.998475
6.274619 -7.906209 -1.896715
8.139750 -10.154627 -2.134565
8.175585 -10.202642 -1.834807
8.393497 -10.480622 -1.566200
10.802421 -13.484004 -1.611707
11.744308 -14.660530 -1.314482
0.001552 -0.050725 -0.001295
45.191109 -56.352791 -1.686921
46.717094 -58.274250 -0.011095
46.803440 -58.423000 1.725937
46.848999 -58.521030 3.482822
46.977966 -58.702366 5.243469
47.073143 -58.862656 7.016666
0.001552 -0.050725 -0.001295
47.234211 -59.126030 10.618567
47.291218 -59.239071 12.435434
0.001552 -0.050725 -0.001295
0.365793 -0.508112 -0.348231
0.372775 -0.517197 -0.336420
0.403812 -0.556386 -0.345029
0.440790 -0.603264 -0.355854
0.489422 -0.664902 -0.372751
2.660305 -3.400727 -1.906180
2.817255 -3.599720 -1.894298
3.037190 -3.879641 -1.910090
3.259806 -4.163337 -1.911802
3.528081 -4.503512 -1.921438
3.874507 -4.944400 -1.949591
4.228988 -5.396080 -1.956429
4.654644 -5.936361 -1.966466
5.163575 -6.584735 -1.975477
5.818652 -7.419143 -1.998021
6.279034 -8.007943 -1.912237
8.023685 -10.128598 -2.119261
8.083183 -10.210511 -1.827511
8.503928 -10.743178 -1.598189
10.816594 -13.661191 -1.625404
11.754242 -14.851662 -1.325309
0.001543 -0.050581 -0.001294
44.692348 -56.392529 -1.680096
0.001543 -0.050581 -0.001294
46.845425 -59.169262 1.740319
46.909782 -59.292328 3.512949
46.996990 -59.444450 5.285134
47.123703 -59.646702 7.077085
47.181622 -59.740734 8.886424
47.282001 -59.910030 10.709255
47.323307 -60.004711 12.537475
0.001543 -0.050581 -0.001294
0.354569 -0.499315 -0.340065
0.367825 -0.516505 -0.334456
0.398625 -0.555858 -0.343148
0.433068 -0.600092 -0.352259
0.490345 -0.673259 -0.376171
2.634204 -3.407219 -1.901280
2.795015 -3.614774 -1.893508
3.016248 -3.898391 -1.910798
3.237223 -4.183367 -1.912464
3.500049 -4.520620 -1.920134
3.845113 -4.964994 -1.948971
4.196940 -5.418667 -1.955849
4.621871 -5.964437 -1.966942
5.128284 -6.617291 -1.976366
5.779855 -7.454467 -1.998816
6.286508 -8.109379 -1.928131
7.206208 -9.212494 -1.917702
8.025788 -10.258287 -1.827737
8.448951 -10.804218 -1.599759
10.862313 -13.886286 -1.644494
11.767376 -15.044495 -1.336414
0.001534 -0.050438 -0.001293
0.001534 -0.050438 -0.001293
0.001534 -0.050438 -0.001293
46.899460 -59.963875 1.755815
0.001534 -0.050438 -0.001293
47.093086 -60.274902 5.335154
47.188904 -60.418518 7.137685
47.275032 -60.571579 8.969804
47.363201 -60.727448 10.806894
47.408009 -60.806068 12.649881
0.001534 -0.050438 -0.001293
0.357337 -0.507937 -0.345165
0.365232 -0.518419 -0.334455
0.396879 -0.559328 -0.344085
0.429993 -0.602359 -0.352256
0.486753 -0.675928 -0.376168
2.617087 -3.425082 -1.902890
2.772803 -3.627256 -1.891946
2.996340 -3.918509 -1.912234
3.215677 -4.204766 -1.913811
3.473090 -4.539052 -1.919469
3.819093 -4.989931 -1.950138
4.167153 -5.444126 -1.956373
4.585378 -5.987736 -1.965897
5.091577 -6.648096 -1.976793
5.741796 -7.496211 -2.000857
6.296170 -8.221114 -1.945874
0.001522 -0.050298 -0.001292
7.800440 -10.089901 -1.789518
8.544759 -11.051904 -1.629426
9.372442 -12.126341 -1.429196
8.410454 -10.894350 -0.962501
11.929156 -15.437407 -0.911528
0.001522 -0.050298 -0.001292
0.001522 -0.050298 -0.001292
46.985252 -60.768524 1.772004
0.001522 -0.050298 -0.001292
47.142120 -61.057892 5.380725
0.001522 -0.050298 -0.001292
47.330082 -61.366158 9.047389
47.420792 -61.527367 10.900926
47.487823 -61.658054 12.768779
0.001522 -0.050298 -0.001292
0.357758 -0.513999 -0.348223
0.362451 -0.520438 -0.334452
0.393851 -0.561530 -0.344082
0.425616 -0.603331 -0.351354
0.490718 -0.688702 -0.382155
2.599843 -3.442859 -1.904500
2.756025 -3.649359 -1.895012
2.973331 -3.936063 -1.912213
3.196288 -4.229050 -1.916528
3.446411 -4.559436 -1.919446
3.798992 -5.024493 -1.954879
4.141860 -5.475523 -1.959102
4.553621 -6.019317 -1.967387
5.059419 -6.684900 -1.979066
5.702404 -7.533674 -2.002067
6.309741 -8.336832 -1.964729
7.107482 -9.303967 -1.919555
7.700305 -10.079503 -1.779716
7.726109 -10.120284 -1.484717
0.001535 -0.050175 -0.001293
7.784841 -10.207633 -0.897605
11.859567 -15.536296 -0.913130
0.001535 -0.050175 -0.001293
0.001535 -0.050175 -0.001293
47.025032 -61.570171 1.787559
0.001535 -0.050175 -0.001293
47.217583 -61.887817 5.430204
47.334213 -62.084789 7.269492
47.379940 -62.188995 9.127538
47.485149 -62.348843 10.998304
47.548576 -62.476551 12.881848
0.001535 -0.050175 -0.001293
0.352993 -0.513163 -0.346179
0.356572 -0.518202 -0.331509
0.394093 -0.567862 -0.346896
0.423500 -0.607055 -0.352249
0.485955 -0.689942 -0.381296
2.553802 -3.422663 -1.884954
2.738608 -3.669448 -1.897307
2.948662 -3.950002 -1.910737
3.171045 -4.245742 -1.915821
3.421551 -4.580582 -1.920064
3.772585 -5.049183 -1.956045
4.105929 -5.492995 -1.956868
4.519168 -6.045279 -1.967355
5.021153 -6.713782 -1.979033
5.656887 -7.563113 -2.001197
0.001523 -0.050035 -0.001292
7.044538 -9.332002 -1.916911
7.990760 -10.582713 -1.860729
7.676418 -10.175534 -1.486290
0.001523 -0.050035 -0.001292
0.001523 -0.050035 -0.001292
29.986822 -39.680161 -2.324349
0.001523 -0.050035 -0.001292
47.017395 -62.254951 -0.009962
47.061806 -62.358223 1.802887
0.001523 -0.050035 -0.001292
0.001523 -0.050035 -0.001292
0.001523 -0.050035 -0.001292
0.001523 -0.050035 -0.001292
0.001523 -0.050035 -0.001292
0.001523 -0.050035 -0.001292
0.001523 -0.050035 -0.001292
0.348254 -0.512293 -0.344135
0.356990 -0.524280 -0.334445
0.383685 -0.560082 -0.340318
0.419209 -0.607907 -0.351348
0.483323 -0.694018 -0.382147
2.433690 -3.302556 -1.810079
2.718824 -3.686489 -1.898058
2.926177 -3.966781 -1.910717
3.150200 -4.268296 -1.917851
3.398810 -4.604621 -1.921962
3.741471 -5.067622 -1.954827
4.080273 -5.524111 -1.959597
4.488051 -6.075713 -1.968845
4.988500 -6.750227 -1.981303
5.614717 -7.596985 -2.001574
6.328819 -8.563234 -2.000954
6.987454 -9.367531 -1.915891
7.868237 -10.545987 -1.846190
7.594188 -10.187611 -1.481595
0.001514 -0.049892 -0.001291
0.001514 -0.049892 -0.001291
0.001514 -0.049892 -0.001291
0.001514 -0.049892 -0.001291
0.001514 -0.049892 -0.001291
0.001514 -0.049892 -0.001291
0.001514 -0.049892 -0.001291
0.001514 -0.049892 -0.001291
0.001514 -0.049892 -0.001291
0.001514 -0.049892 -0.001291
0.001514 -0.049892 -0.001291
47.717075 -64.216637 13.127455
0.001514 -0.049892 -0.001291
0.348650 -0.518286 -0.347193
0.354253 -0.526185 -0.334442
0.380730 -0.562131 -0.340314
0.417066 -0.611616 -0.352243
0.478531 -0.695194 -0.381287
2.395386 -3.289925 -1.795416
2.405195 -3.305545 -1.692173
2.441285 -3.356798 -1.606531
3.128104 -4.289256 -1.919199
3.372536 -4.623975 -1.921938
3.706867 -5.081252 -1.951822
4.047569 -5.545833 -1.959018
4.455578 -6.104422 -1.969826
4.951019 -6.780276 -1.981731
5.576954 -7.636913 -2.003614
6.325081 -8.661168 -2.015360
6.929006 -9.401118 -1.914545
7.531878 -10.218524 -1.780954
7.534539 -10.229428 -1.481311
7.522213 -10.220074 -1.182697
7.556099 -10.269523 -0.891300
0.001502 -0.049752 -0.001290
0.001502 -0.049752 -0.001290
0.001502 -0.049752 -0.001290
47.238503 -64.112175 1.838462
0.001502 -0.049752 -0.001290
47.428951 -64.439575 5.582579
0.001502 -0.049752 -0.001290
0.001502 -0.049752 -0.001290
0.001502 -0.049752 -0.001290
0.001502 -0.049752 -0.001290
0.001502 -0.049752 -0.001290
0.347982 -0.522924 -0.349231
0.351493 -0.528068 -0.334439
0.380905 -0.568451 -0.343129
0.413818 -0.613862 -0.352239
0.466285 -0.686120 -0.374437
2.366422 -3.290648 -1.788075
2.373378 -3.301320 -1.682904
0.001515 -0.049629 -0.001291
0.001515 -0.049629 -0.001291
0.001515 -0.049629 -0.001291
3.672236 -5.094656 -1.948816
4.014895 -5.569597 -1.958989
4.424061 -6.134525 -1.971315
4.914441 -6.814099 -1.983079
5.539919 -7.680813 -2.006488
6.336218 -8.784314 -2.035323
6.870405 -9.434341 -1.913199
7.522880 -10.333208 -1.793157
7.503953 -10.310973 -1.486830
7.481148 -10.287169 -1.185433
7.495361 -10.314021 -0.891248
7.607423 -10.471214 -0.604240
0.001515 -0.049629 -0.001291
0.001515 -0.049629 -0.001291
0.001515 -0.049629 -0.001291
0.001515 -0.049629 -0.001291
0.001515 -0.049629 -0.001291
0.001515 -0.049629 -0.001291
0.001515 -0.049629 -0.001291
0.001515 -0.049629 -0.001291
0.001515 -0.049629 -0.001291
0.001515 -0.049629 -0.001291
0.343164 -0.522058 -0.347189
0.344566 -0.524351 -0.330517
0.378847 -0.571987 -0.344065
0.408373 -0.613265 -0.350441
0.457205 -0.681398 -0.370154
2.344534 -3.299639 -1.785618
2.338946 -3.294235 -1.672092
0.001506 -0.049486 -0.001290
0.001506 -0.049486 -0.001290
0.001506 -0.049486 -0.001290
3.638890 -5.111545 -1.947001
3.984179 -5.594045 -1.959512
4.389044 -6.162104 -1.971791
4.878835 -6.846892 -1.984429
5.497028 -7.714015 -2.006864
6.348783 -8.908370 -2.055654
6.808844 -9.466785 -1.911528
7.680471 -10.676388 -1.845190
7.784853 -10.828642 -1.555027
0.001506 -0.049486 -0.001290
7.461840 -10.392455 -0.894269
14.582488 -20.279140 -1.166566
0.001506 -0.049486 -0.001290
0.001506 -0.049486 -0.001290
0.001506 -0.049486 -0.001290
0.001506 -0.049486 -0.001290
0.001506 -0.049486 -0.001290
0.001506 -0.049486 -0.001290
0.001506 -0.049486 -0.001290
0.001506 -0.049486 -0.001290
0.001506 -0.049486 -0.001290
0.001506 -0.049486 -0.001290
0.337433 -0.519683 -0.344125
0.350938 -0.538954 -0.339332
0.372763 -0.569712 -0.341245
0.407192 -0.618377 -0.352233
0.453560 -0.683879 -0.370150
2.329441 -3.319295 -1.788854
2.322374 -3.310519 -1.673618
0.001495 -0.049346 -0.001289
0.001495 -0.049346 -0.001289
0.001495 -0.049346 -0.001289
3.605273 -5.126047 -1.944591
3.953461 -5.620582 -1.960586
4.353768 -6.187117 -1.971758
4.840667 -6.878732 -1.985315
5.459403 -7.757530 -2.009737
6.306345 -8.960165 -2.058942
6.751077 -9.500860 -1.910506
7.677140 -10.805445 -1.859618
8.810551 -12.398142 -1.773875
0.001495 -0.049346 -0.001289
14.908013 -20.976149 -1.800270
14.889932 -20.958235 -1.200628
0.001495 -0.049346 -0.001289
0.001495 -0.049346 -0.001289
0.001495 -0.049346 -0.001289
0.001495 -0.049346 -0.001289
0.001495 -0.049346 -0.001289
7.692315 -10.893353 1.237802
0.001495 -0.049346 -0.001289
7.655334 -10.852948 1.858261
0.001495 -0.049346 -0.001289
0.001495 -0.049346 -0.001289
0.339573 -0.528547 -0.349222
0.342999 -0.533756 -0.334430
0.374749 -0.578983 -0.345937
0.399693 -0.614792 -0.348639
0.445732 -0.680421 -0.366723
0.500736 -0.759082 -0.387764
2.301921 -3.322583 -1.672829
0.001508 -0.049223 -0.001289
2.319807 -3.351624 -1.470271
0.001508 -0.049223 -0.001289
2.339561 -3.383377 -1.272374
3.919103 -5.639948 -1.959454
4.318366 -6.211940 -1.971727
4.803512 -6.909538 -1.986202
5.415174 -7.786143 -2.009282
6.254271 -8.991877 -2.058156
6.686946 -9.529305 -1.908186
7.607113 -10.837991 -1.857613
8.299005 -11.828046 -1.684907
0.001508 -0.049223 -0.001289
14.774701 -21.043539 -1.798628
14.815078 -21.116299 -1.204533
0.001508 -0.049223 -0.001289
0.001508 -0.049223 -0.001289
0.001508 -0.049223 -0.001289
0.001508 -0.049223 -0.001289
47.665833 -68.032455 5.797380
0.001508 -0.049223 -0.001289
0.001508 -0.049223 -0.001289
0.001508 -0.049223 -0.001289
0.001508 -0.049223 -0.001289
0.001508 -0.049223 -0.001289
0.331985 -0.523247 -0.344119
0.339307 -0.534102 -0.333448
0.367755 -0.575135 -0.342178
0.397552 -0.618343 -0.349534
0.437057 -0.675347 -0.362441
0.497799 -0.763219 -0.388573
2.280467 -3.330703 -1.670500
2.287726 -3.342349 -1.567151
2.300266 -3.362836 -1.469570
2.300175 -3.363881 -1.364679
2.317636 -3.391525 -1.270568
3.890040 -5.664773 -1.960529
4.290525 -6.245369 -1.974736
4.770673 -6.944103 -1.988473
5.376338 -7.822536 -2.010905
6.204259 -9.026510 -2.058111
6.623759 -9.551765 -1.905217
7.509418 -10.826515 -1.848367
8.201354 -11.828399 -1.678348
8.201415 -11.837111 -1.342162
14.739300 -21.243479 -1.808578
0.001496 -0.049083 -0.001288
26.289108 -37.894592 -1.074919
0.001496 -0.049083 -0.001288
0.001496 -0.049083 -0.001288
0.001496 -0.049083 -0.001288
7.613094 -11.035378 0.932211
0.001496 -0.049083 -0.001288
0.001496 -0.049083 -0.001288
7.598831 -11.034861 1.874784
0.001496 -0.049083 -0.001288
0.001496 -0.049083 -0.001288
0.331201 -0.527839 -0.346156
0.335524 -0.534467 -0.332466
0.363717 -0.575641 -0.341236
0.389199 -0.613104 -0.345042
0.433330 -0.677784 -0.362438
0.495630 -0.769032 -0.390197
2.266739 -3.351231 -1.674336
2.275533 -3.366478 -1.572227
2.286951 -3.385586 -1.473658
2.290096 -3.391386 -1.370424
2.306410 -3.417686 -1.275318
3.857733 -5.689177 -1.961049
4.251506 -6.267362 -1.973689
4.728598 -6.970526 -1.987975
5.328784 -7.855077 -2.010864
6.151537 -9.067317 -2.058803
6.565598 -9.584717 -1.904194
7.475680 -10.914785 -1.855831
8.108646 -11.839252 -1.673179
8.112004 -11.852801 -1.338568
7.438968 -10.881260 -0.921148
7.449474 -10.900495 -0.616100
0.001487 -0.048940 -0.001287
7.498759 -10.988395 -0.002323
7.510736 -11.009830 0.306147
0.001487 -0.048940 -0.001287
0.001487 -0.048940 -0.001287
7.433112 -10.920533 1.226277
7.402946 -10.880339 1.531811
0.001487 -0.048940 -0.001287
0.001487 -0.048940 -0.001287
0.001487 -0.048940 -0.001287
0.325452 -0.525384 -0.343093
0.333612 -0.537746 -0.333442
0.361564 -0.579099 -0.342171
0.385831 -0.615254 -0.345038
0.430696 -0.681603 -0.363288
0.496602 -0.779295 -0.394261
2.256422 -3.378224 -1.681257
2.261610 -3.387088 -1.575847
2.278238 -3.414124 -1.480482
2.275068 -3.410653 -1.372968
3.478883 -5.194500 -1.939717
3.831660 -5.720712 -1.964328
4.214557 -6.289992 -1.973150
4.690863 -7.000725 -1.988863
5.287331 -7.887816 -2.011656
6.097817 -9.096493 -2.057646
6.497851 -9.607042 -1.900902
7.488699 -11.068893 -1.874712
8.012918 -11.849195 -1.667779
8.016123 -11.862645 -1.334229
14.899325 -22.016685 -1.859333
15.025168 -22.218628 -1.252170
0.001477 -0.048796 -0.001286
0.001477 -0.048796 -0.001286
47.649338 -70.490509 1.966889
0.001477 -0.048796 -0.001286
0.001477 -0.048796 -0.001286
7.415775 -11.026056 1.233572
7.326043 -10.901225 1.528848
0.001477 -0.048796 -0.001286
0.001477 -0.048796 -0.001286
0.001477 -0.048796 -0.001286
0.321810 -0.525611 -0.342068
0.330867 -0.539453 -0.333439
0.354673 -0.575109 -0.338412
0.385651 -0.621712 -0.347728
0.427046 -0.683935 -0.363285
0.493386 -0.783504 -0.395069
2.252174 -3.412107 -1.692034
2.258940 -3.424705 -1.587472
2.935394 -4.439612 -1.923807
0.001490 -0.048674 -0.001287
3.450265 -5.215889 -1.940287
3.791479 -5.731340 -1.960439
4.184994 -6.323663 -1.976157
4.651845 -7.029092 -1.989288
5.237481 -7.914003 -2.010367
6.054930 -9.148715 -2.061303
6.457606 -9.662685 -1.904746
7.963665 -11.914218 -2.010555
7.921482 -11.855656 -1.662382
7.923464 -11.867378 -1.329708
8.289705 -12.422963 -1.043790
32.800842 -49.035881 -2.754662
0.001490 -0.048674 -0.001287
0.001490 -0.048674 -0.001287
47.759827 -71.509941 1.988258
0.001490 -0.048674 -0.001287
48.009510 -71.990433 6.040596
7.395832 -11.137612 1.241241
7.244710 -10.914954 1.524958
7.232560 -10.904807 1.830999
0.001490 -0.048674 -0.001287
7.349347 -11.092382 2.496980
0.318023 -0.525935 -0.341045
0.329881 -0.544175 -0.335396
0.353491 -0.580005 -0.340287
0.382252 -0.623854 -0.347725
0.420282 -0.681793 -0.360714
0.488145 -0.784671 -0.394252
2.518015 -3.857941 -1.908657
2.704822 -4.143754 -1.917784
2.911109 -4.457874 -1.924468
3.125314 -4.786006 -1.919158
3.415371 -5.229759 -1.937877
3.753428 -5.744914 -1.957653
4.146664 -6.346636 -1.975619
4.615880 -7.062129 -1.991098
5.200721 -7.956963 -2.013654
5.906421 -9.037098 -2.028288
5.633852 -8.544322 -1.676662
7.903991 -11.972933 -2.012722
7.828294 -11.867516 -1.657447
7.827953 -11.875823 -1.325370
0.001479 -0.048534 -0.001286
31.898321 -48.304409 -2.702627
0.001479 -0.048534 -0.001286
0.001479 -0.048534 -0.001286
47.821884 -72.529442 2.009087
0.001479 -0.048534 -0.001286
0.001479 -0.048534 -0.001286
0.001479 -0.048534 -0.001286
7.223823 -11.023959 1.534301
7.189552 -10.975894 1.836062
0.001479 -0.048534 -0.001286
0.001479 -0.048534 -0.001286
0.322813 -0.539137 -0.349205
0.325096 -0.542995 -0.333432
0.352351 -0.584842 -0.342162
0.375984 -0.621404 -0.345028
0.417607 -0.685564 -0.361566
0.481906 -0.784269 -0.392621
2.507149 -3.889248 -1.917119
2.682218 -4.160680 -1.918490
2.886702 -4.475992 -1.925129
3.107295 -4.818069 -1.924896
3.387554 -5.252384 -1.939040
3.717423 -5.761449 -1.955969
4.110324 -6.370253 -1.975585
4.578598 -7.093329 -1.992444
5.156179 -7.988273 -2.014029
5.567918 -8.628923 -1.928969
0.001467 -0.048394 -0.001285
0.001467 -0.048394 -0.001285
7.737306 -11.877328 -1.652513
7.736860 -11.885532 -1.321404
8.152161 -12.525646 -1.044361
31.903980 -48.922058 -2.726637
0.001467 -0.048394 -0.001285
0.001467 -0.048394 -0.001285
47.887405 -73.545479 2.029969
0.001467 -0.048394 -0.001285
37.003864 -56.904648 4.738163
34.898384 -53.709728 5.966657
7.207057 -11.136823 1.544342
7.166432 -11.078382 1.846414
7.041745 -10.894574 2.122359
0.001467 -0.048394 -0.001285
0.316234 -0.535058 -0.345120
0.321309 -0.543263 -0.332451
0.348289 -0.585226 -0.341219
0.374611 -0.626415 -0.346819
0.410996 -0.683264 -0.358995
0.474682 -0.782281 -0.390175
2.485000 -3.903478 -1.917099
2.662533 -4.182177 -1.921379
2.861168 -4.492396 -1.925106
3.075679 -4.829355 -1.922309
3.356531 -5.270067 -1.938419
3.678254 -5.772919 -1.952632
4.074915 -6.395298 -1.976059
4.539016 -7.121067 -1.992869
5.111444 -8.019331 -2.014404
5.498288 -8.629243 -1.921886
5.499252 -8.551996 -1.665547
5.516228 -8.581409 -1.429783
7.644299 -11.883146 -1.647114
7.642696 -11.889583 -1.316883
8.055338 -12.533668 -1.041086
31.530125 -48.962013 -2.718457
0.001482 -0.048268 -0.001286
0.001482 -0.048268 -0.001286
47.985023 -74.630234 2.052664
0.001482 -0.048268 -0.001286
0.001482 -0.048268 -0.001286
34.268257 -53.410194 5.911602
0.001482 -0.048268 -0.001286
0.001482 -0.048268 -0.001286
6.999421 -10.966337 2.128573
6.944635 -10.889049 2.423484
0.311570 -0.533823 -0.343077
0.321257 -0.549364 -0.335387
0.346143 -0.588571 -0.342155
0.367430 -0.622392 -0.343226
0.407323 -0.685471 -0.358991
0.462602 -0.772530 -0.383663
2.464737 -3.920690 -1.918620
2.639686 -4.198866 -1.922085
2.836545 -4.510240 -1.925767
3.050130 -4.850038 -1.923564
3.323349 -5.284329 -1.936604
3.643184 -5.790611 -1.951499
4.040389 -6.421788 -1.977040
4.498244 -7.146950 -1.992833
5.070706 -8.056749 -2.016442
5.430945 -8.632380 -1.915545
5.427896 -8.548425 -1.658691
5.452107 -8.589511 -1.425841
7.629450 -12.010559 -1.658656
7.627898 -12.017195 -1.326115
7.925467 -12.488822 -1.033483
31.392883 -49.370098 -2.730800
0.001471 -0.048128 -0.001285
0.001471 -0.048128 -0.001285
0.001471 -0.048128 -0.001285
0.001471 -0.048128 -0.001285
36.157696 -57.028347 4.714068
34.433994 -54.353096 5.994317
32.957306 -52.063599 7.196383
0.001471 -0.048128 -0.001285
6.970228 -11.059658 2.139002
6.847470 -10.873885 2.411322
0.306930 -0.532554 -0.341033
0.319279 -0.552526 -0.336362
0.343965 -0.591908 -0.343091
0.366985 -0.628903 -0.345916
0.402679 -0.686128 -0.358131
0.453438 -0.767383 -0.379591
2.441422 -3.933112 -1.917828
2.613781 -4.210708 -1.920609
2.810031 -4.526850 -1.925744
3.022444 -4.867382 -1.923540
3.295171 -5.306462 -1.937768
3.606006 -5.807098 -1.949816
4.000563 -6.439887 -1.975488
4.457100 -7.175022 -1.993257
5.027275 -8.093184 -2.018064
5.363293 -8.637627 -1.909574
5.363107 -8.554360 -1.653783
5.385515 -8.596415 -1.421620
7.644082 -12.186942 -1.676926
7.644776 -12.197299 -1.341110
7.818632 -12.483102 -1.029090
0.001459 -0.047988 -0.001284
0.001459 -0.047988 -0.001284
0.001459 -0.047988 -0.001284
5.759686 -9.228703 0.249799
0.001459 -0.047988 -0.001284
0.001459 -0.047988 -0.001284
34.510632 -55.194271 6.064788
0.001459 -0.047988 -0.001284
33.358818 -53.414352 8.840439
0.001459 -0.047988 -0.001284
6.812087 -10.956298 2.421004
0.304966 -0.535693 -0.342051
0.314442 -0.551313 -0.334400
0.341671 -0.595301 -0.344027
0.361627 -0.627875 -0.344116
0.401765 -0.692986 -0.360696
0.445410 -0.763612 -0.376331
2.425147 -3.958369 -1.923204
2.591002 -4.229163 -1.922041
2.786183 -4.546010 -1.927088
2.993813 -4.885093 -1.923515
3.265930 -5.329022 -1.938932
3.571775 -5.825978 -1.949233
3.966634 -6.469937 -1.977480
4.418034 -7.203726 -1.994142
4.988072 -8.133512 -2.020935
5.295190 -8.638095 -1.902862
5.286504 -8.543982 -1.645630
5.317394 -8.596855 -1.416564
7.660021 -12.373657 -1.696355
7.659760 -12.382694 -1.356474
7.753229 -12.537927 -1.029863
0.001448 -0.047847 -0.001283
0.001448 -0.047847 -0.001283
0.001448 -0.047847 -0.001283
0.001448 -0.047847 -0.001283
0.001448 -0.047847 -0.001283
34.355148 -55.612228 4.563937
0.001448 -0.047847 -0.001283
0.001448 -0.047847 -0.001283
33.228939 -53.893509 8.888294
0.001448 -0.047847 -0.001283
6.787473 -11.061605 2.435500
0.302147 -0.537294 -0.342048
0.307888 -0.547028 -0.330478
0.334796 -0.591079 -0.340266
0.358297 -0.629816 -0.344114
0.393417 -0.687357 -0.356412
0.441286 -0.766025 -0.376327
2.412238 -3.987879 -1.930894
2.566640 -4.241827 -1.921291
2.760237 -4.561835 -1.927065
2.968732 -4.904815 -1.924770
3.237406 -5.348666 -1.939501
3.534454 -5.839743 -1.946998
3.928712 -6.488539 -1.976434
4.378807 -7.232234 -1.995028
4.944886 -8.164423 -2.021724
5.237959 -8.652263 -1.899485
5.217895 -8.542182 -1.639424
5.255657 -8.606927 -1.413178
7.717748 -12.627387 -1.725064
7.584488 -12.419662 -1.355668
5.743536 -9.419657 -0.770296
5.729331 -9.403662 -0.513298
5.743923 -9.431045 -0.257131
5.761023 -9.466256 -0.001719
0.001463 -0.047722 -0.001283
0.001463 -0.047722 -0.001283
33.479702 -54.899483 4.489762
0.001463 -0.047722 -0.001283
0.001463 -0.047722 -0.001283
32.174526 -52.862492 8.687659
30.781319 -50.594608 9.719422
0.001463 -0.047722 -0.001283
0.298510 -0.537359 -0.341024
0.309621 -0.556057 -0.335374
0.330854 -0.591296 -0.339325
0.357802 -0.636240 -0.346802
0.388798 -0.687929 -0.355553
0.439031 -0.771540 -0.377950
0.486267 -0.849986 -0.392906
2.549205 -4.267569 -1.926363
2.733261 -4.575918 -1.926359
2.939765 -4.920081 -1.924106
3.203871 -5.362165 -1.937685
3.501064 -5.859858 -1.946969
3.899549 -6.524167 -1.980453
4.342377 -7.265505 -1.997296
4.901718 -8.201862 -2.023763
5.178740 -8.669559 -1.896476
5.154013 -8.544029 -1.634191
5.188866 -8.608111 -1.408402
7.677248 -12.719392 -1.731728
7.554503 -12.526402 -1.362668
7.716300 -12.803613 -1.044251
5.675980 -9.433638 -0.513156
0.001451 -0.047582 -0.001282
0.001451 -0.047582 -0.001282
5.660205 -9.425639 0.252630
0.001451 -0.047582 -0.001282
33.425961 -55.526897 4.525600
32.454308 -53.955940 5.866921
30.679686 -51.027500 6.954536
30.322733 -50.473473 8.266061
30.701567 -51.143177 9.790028
0.001451 -0.047582 -0.001282
0.293838 -0.536029 -0.338981
0.300338 -0.547270 -0.328513
0.327620 -0.593105 -0.339322
0.347897 -0.627477 -0.340517
0.385911 -0.691627 -0.356405
0.432852 -0.770848 -0.376319
0.483373 -0.855872 -0.394442
2.524144 -4.282485 -1.926342
2.709217 -4.596742 -1.928385
2.913718 -4.942172 -1.926000
3.173279 -5.382583 -1.938254
3.461599 -5.872103 -1.944180
3.859118 -6.543732 -1.979407
4.299505 -7.291004 -1.997259
4.855258 -8.234013 -2.024551
5.331899 -9.044949 -1.971987
0.001440 -0.047442 -0.001281
5.139024 -8.640295 -1.408636
5.610632 -9.432675 -1.278302
5.591491 -9.407942 -1.018788
5.599889 -9.429319 -0.765594
5.587460 -9.412083 -0.510124
5.594970 -9.431977 -0.255267
5.596333 -9.441590 -0.001620
0.001440 -0.047442 -0.001281
0.001440 -0.047442 -0.001281
34.939491 -58.824760 4.778015
32.133022 -54.145588 5.867013
30.634388 -51.642227 7.013788
30.110043 -50.798717 8.290253
30.935400 -52.230721 9.963404
0.001440 -0.047442 -0.001281
0.296256 -0.546447 -0.345099
0.300998 -0.554849 -0.332429
0.326263 -0.597879 -0.341196
0.347263 -0.633936 -0.343205
0.381267 -0.692129 -0.355545
0.426041 -0.768394 -0.373875
0.485266 -0.869636 -0.399834
2.500652 -4.298397 -1.927046
2.684747 -4.613279 -1.929047
2.887402 -4.961985 -1.927255
3.142522 -5.400625 -1.938226
3.432934 -5.897836 -1.946356
3.817741 -6.559018 -1.977346
4.261968 -7.319793 -1.998605
4.816403 -8.272660 -2.027420
5.335172 -9.166032 -1.991939
5.219954 -8.883788 -1.687611
0.001455 -0.047316 -0.001282
5.549433 -9.452683 -1.276628
5.514258 -9.400365 -1.014465
5.527194 -9.425916 -0.762755
0.001455 -0.047316 -0.001282
5.517528 -9.424232 -0.254149
5.522504 -9.436311 -0.001568
5.514767 -9.430517 0.251105
5.499971 -9.412689 0.504889
33.148613 -56.527119 4.576378
33.447346 -57.080933 6.165391
29.974350 -51.198799 6.930212
30.528994 -52.165482 8.485877
30.649628 -52.412590 9.965617
30.162346 -51.620560 11.253685
0.286447 -0.536112 -0.336934
0.302446 -0.563959 -0.337324
0.323087 -0.599607 -0.341193
0.342090 -0.632703 -0.341408
0.376639 -0.692609 -0.354685
0.417284 -0.762788 -0.369803
0.482377 -0.875463 -0.401371
2.478955 -4.317427 -1.929207
2.661248 -4.633401 -1.931075
2.860028 -4.980037 -1.927870
3.111638 -5.418476 -1.938197
3.401139 -5.920700 -1.947429
3.773420 -6.569028 -1.973767
4.222950 -7.349116 -1.999951
4.769957 -8.301807 -2.027793
5.262947 -9.162414 -1.984486
5.229634 -9.017568 -1.707347
5.337362 -9.205966 -1.491228
5.487229 -9.470612 -1.274725
5.438293 -9.393937 -1.010328
5.450043 -9.417761 -0.759496
0.001443 -0.047176 -0.001281
5.439370 -9.414194 -0.252985
0.001443 -0.047176 -0.001281
5.441600 -9.429087 0.250272
5.438968 -9.431952 0.504285
0.001443 -0.047176 -0.001281
0.001443 -0.047176 -0.001281
29.654564 -51.327320 6.924667
29.516853 -51.109009 8.286319
30.283541 -52.476871 9.944811
29.820759 -51.716515 11.237288
0.286209 -0.542095 -0.339993
0.295981 -0.559498 -0.333402
0.319024 -0.599784 -0.340251
0.339596 -0.636064 -0.342301
0.371116 -0.691487 -0.352970
0.413162 -0.765042 -0.369799
0.475769 -0.874885 -0.399825
2.457115 -4.336340 -1.931367
2.633879 -4.646880 -1.930368
2.836288 -5.004503 -1.931046
3.076890 -5.429538 -1.935787
3.369178 -5.943377 -1.948501
3.733892 -6.587137 -1.972720
4.181802 -7.374849 -2.000373
4.722359 -8.328988 -2.027750
5.217192 -9.204369 -1.987031
5.239902 -9.155165 -1.727731
5.268769 -9.208934 -1.486727
5.420022 -9.479504 -1.271660
5.360616 -9.383499 -1.005821
0.001434 -0.047033 -0.001280
0.001434 -0.047033 -0.001280
5.367478 -9.413979 -0.252101
0.001434 -0.047033 -0.001280
0.001434 -0.047033 -0.001280
5.359061 -9.417849 0.501912
32.205185 -56.395382 4.535948
31.655897 -55.478386 5.952918
0.001434 -0.047033 -0.001280
29.794525 -52.280861 8.448836
30.142485 -52.933044 9.998572
0.001434 -0.047033 -0.001280
0.282504 -0.542097 -0.338970
0.289590 -0.554988 -0.329480
0.314084 -0.598394 -0.338369
0.337070 -0.639417 -0.343194
0.365620 -0.690327 -0.351255
0.407087 -0.764153 -0.368168
0.471895 -0.879069 -0.400591
2.431463 -4.348650 -1.930617
2.612093 -4.672105 -1.934448
2.808636 -5.022260 -1.931660
3.044914 -5.445359 -1.935163
3.330379 -5.956420 -1.946265
3.692371 -6.601632 -1.970659
4.140194 -7.402789 -2.001259
4.678907 -8.366938 -2.030202
5.186867 -9.277857 -1.996242
5.253625 -9.301752 -1.749734
5.204579 -9.222656 -1.483896
5.357795 -9.496577 -1.269755
5.283220 -9.372464 -1.001312
0.001422 -0.046892 -0.001279
0.001422 -0.046892 -0.001279
5.287885 -9.399314 -0.250845
0.001422 -0.046892 -0.001279
0.001422 -0.046892 -0.001279
0.001422 -0.046892 -0.001279
5.326970 -9.494860 0.756973
31.436047 -55.859303 5.974008
30.116724 -53.537872 7.176513
29.676479 -52.798225 8.504213
29.671640 -52.831970 9.946322
0.001422 -0.046892 -0.001279
0.273659 -0.533097 -0.331824
0.286569 -0.556556 -0.329477
0.309090 -0.597026 -0.336488
0.330931 -0.636580 -0.340499
0.364562 -0.697020 -0.353819
0.404713 -0.769520 -0.369789
0.464247 -0.876874 -0.398273
2.411194 -4.370574 -1.934232
2.586327 -4.688557 -1.935107
2.781782 -5.041514 -1.932914
3.017507 -5.469338 -1.937518
3.297233 -5.977034 -1.946785
3.652703 -6.619257 -1.969612
4.098734 -7.428067 -2.001683
4.635255 -8.397931 -2.031408
5.180053 -9.387318 -2.013600
5.260333 -9.442828 -1.770439
5.228063 -9.388863 -1.505839
5.299715 -9.524573 -1.269242
5.206464 -9.365253 -0.997177
5.401505 -9.718260 -0.775954
0.001435 -0.046770 -0.001280
0.001435 -0.046770 -0.001280
5.215608 -9.404081 -0.001373
0.001435 -0.046770 -0.001280
0.001435 -0.046770 -0.001280
0.001435 -0.046770 -0.001280
0.001435 -0.046770 -0.001280
0.001435 -0.046770 -0.001280
31.366613 -56.561302 9.082015
28.616373 -51.626316 9.689152
29.133741 -52.601337 11.319542
0.269278 -0.531470 -0.329781
0.288759 -0.567154 -0.335351
0.308557 -0.603230 -0.339301
0.327629 -0.638274 -0.340495
0.358198 -0.694220 -0.351249
0.399670 -0.770101 -0.368972
0.454273 -0.869613 -0.393644
2.388960 -4.389145 -1.936392
2.561376 -4.706529 -1.936451
2.754806 -5.060624 -1.934169
2.987168 -5.488154 -1.938087
3.267673 -6.004211 -1.949512
3.612970 -6.636658 -1.968567
4.056157 -7.451387 -2.001643
4.585643 -8.425132 -2.031364
5.190560 -9.538453 -2.039473
0.001426 -0.046627 -0.001279
5.201951 -9.468945 -1.513863
5.246737 -9.553870 -1.269194
5.133211 -9.355655 -0.993041
5.313017 -9.689632 -0.771161
0.001426 -0.046627 -0.001279
5.137453 -9.382196 -0.248706
0.001426 -0.046627 -0.001279
0.001426 -0.046627 -0.001279
0.001426 -0.046627 -0.001279
5.174678 -9.476556 0.750791
30.706257 -56.061726 5.958044
0.001426 -0.046627 -0.001279
0.001426 -0.046627 -0.001279
28.404684 -51.968075 9.721841
28.792065 -52.697243 11.304628
0.259808 -0.520824 -0.321616
0.287347 -0.571786 -0.337308
0.306932 -0.608007 -0.341175
0.325823 -0.643207 -0.342287
0.354329 -0.696177 -0.351244
0.395507 -0.772255 -0.368969
0.445869 -0.865667 -0.390556
2.369379 -4.414567 -1.941462
2.534517 -4.721063 -1.936427
2.723222 -5.073411 -1.932862
2.954823 -5.505627 -1.938057
3.230583 -6.017711 -1.947827
3.571067 -6.652728 -1.967013
4.019023 -7.484753 -2.004372
4.540123 -8.456413 -2.032568
5.208606 -9.702974 -2.068308
5.281144 -9.739926 -1.814763
5.157104 -9.515987 -1.516598
5.213998 -9.628309 -1.274944
5.058905 -9.350809 -0.989278
0.001414 -0.046486 -0.001278
5.218315 -9.655796 -0.511180
5.059110 -9.370174 -0.247543
0.001414 -0.046486 -0.001278
0.001414 -0.046486 -0.001278
0.001414 -0.046486 -0.001278
5.074734 -9.421815 0.744143
30.431643 -56.326725 5.967803
0.001414 -0.046486 -0.001278
27.417274 -50.813717 8.107541
0.001414 -0.046486 -0.001278
28.348732 -52.624683 11.253056
0.251375 -0.511568 -0.314472
0.279371 -0.564073 -0.331428
0.303689 -0.609621 -0.341172
0.321544 -0.643365 -0.341386
0.353141 -0.702841 -0.353807
0.391301 -0.774364 -0.368963
0.435897 -0.858300 -0.385925
2.342440 -4.424710 -1.939984
2.513764 -4.747037 -1.941191
2.698710 -5.097224 -1.936038
2.926059 -5.527470 -1.939816
3.197967 -6.039467 -1.948899
3.532059 -6.671322 -1.966472
3.988953 -7.531676 -2.010789
4.493485 -8.485733 -2.033357
5.156632 -9.739604 -2.069740
5.342000 -9.987339 -1.855242
5.018186 -9.388344 -1.491500
4.953068 -9.274679 -1.224099
4.985492 -9.342769 -0.985328
0.001428 -0.046364 -0.001279
5.067665 -9.507652 -0.501722
4.987433 -9.365496 -0.246613
0.001428 -0.046364 -0.001279
0.001428 -0.046364 -0.001279
0.001428 -0.046364 -0.001279
4.997180 -9.406705 0.740704
29.992849 -56.286400 5.945422
0.001428 -0.046364 -0.001279
0.001428 -0.046364 -0.001279
26.642414 -50.106533 9.315759
27.873964 -52.464005 11.184444
0.251112 -0.517428 -0.317530
0.278813 -0.570143 -0.334362
0.297152 -0.604984 -0.337414
0.315592 -0.640321 -0.338691
0.346822 -0.699928 -0.351236
0.384550 -0.771619 -0.366519
0.426050 -0.850864 -0.381296
2.320659 -4.444568 -1.942870
2.486658 -4.761288 -1.941166
2.670479 -5.114219 -1.936652
2.895341 -5.545768 -1.940383
3.164304 -6.059335 -1.949419
3.500179 -6.703403 -1.969984
3.940379 -7.544047 -2.007985
4.451195 -8.523445 -2.036225
5.108033 -9.782900 -2.072651
5.346598 -10.134625 -1.876914
4.955976 -9.401180 -1.488946
0.001416 -0.046224 -0.001278
4.913283 -9.335964 -0.981566
0.001416 -0.046224 -0.001278
4.970206 -9.455255 -0.497388
4.916915 -9.362079 -0.245730
4.919486 -9.370731 -0.001182
4.914021 -9.368131 0.243461
4.915202 -9.378117 0.490648
4.919071 -9.389274 0.737123
30.028276 -57.141781 6.017799
0.001416 -0.046224 -0.001278
28.237347 -53.803024 8.533120
0.001416 -0.046224 -0.001278
27.145525 -51.810520 11.011770
0.250773 -0.523290 -0.320587
0.272575 -0.565423 -0.330441
0.293108 -0.604977 -0.336472
0.312990 -0.643571 -0.339584
0.339719 -0.695365 -0.347811
0.382065 -0.776931 -0.368143
0.420565 -0.851530 -0.380521
2.293593 -4.454416 -1.941393
2.462945 -4.782059 -1.943878
2.643881 -5.134414 -1.938547
2.864514 -5.563902 -1.940951
3.132301 -6.082435 -1.951042
3.460002 -6.719855 -1.968935
3.882828 -7.538815 -2.000569
4.406831 -8.557482 -2.038261
5.051909 -9.812006 -2.072602
5.350581 -10.284037 -1.898908
4.946066 -9.513682 -1.502258
4.827186 -9.293812 -1.219132
4.840401 -9.326877 -0.977618
4.837862 -9.325821 -0.732882
4.837534 -9.332953 -0.489423
4.841056 -9.347512 -0.244569
4.850033 -9.368579 -0.001134
4.839998 -9.357080 0.242487
4.827343 -9.340502 0.487247
4.841290 -9.371233 0.733544
29.636801 -57.193302 6.005453
26.950893 -52.057556 6.849880
27.843634 -53.802677 8.507784
26.302885 -50.870510 9.401550
26.701778 -51.684639 10.952409
0.239349 -0.507761 -0.309362
0.268777 -0.565288 -0.329458
0.291488 -0.609645 -0.338345
0.308713 -0.643622 -0.338683
0.337627 -0.700387 -0.349518
0.377714 -0.779033 -0.368138
0.416749 -0.855426 -0.381286
2.268186 -4.467414 -1.941371
2.438250 -4.803144 -1.946590
2.612806 -5.146030 -1.937239
2.836188 -5.586962 -1.943305
3.094686 -6.097336 -1.949907
3.424180 -6.744698 -1.970421
3.827714 -7.540781 -1.994997
4.358039 -8.586806 -2.039047
4.995703 -9.845171 -2.073293
5.374731 -10.475947 -1.928684
4.778333 -9.326116 -1.467977
0.001395 -0.045940 -0.001276
4.772337 -9.326110 -0.974598
4.766347 -9.322271 -0.730325
4.765755 -9.324965 -0.487514
4.771020 -9.343065 -0.243687
4.770011 -9.348971 -0.001086
4.771741 -9.356178 0.241791
4.766461 -9.353751 0.486550
4.765914 -9.360556 0.730522
28.154585 -55.131886 5.771427
0.001395 -0.045940 -0.001276
0.001395 -0.045940 -0.001276
26.812450 -52.616493 9.695284
26.339821 -51.711208 10.926006
0.235834 -0.507500 -0.308340
0.268847 -0.572953 -0.333374
0.288948 -0.612804 -0.339282
0.304368 -0.643713 -0.337783
0.334542 -0.703838 -0.350369
0.370890 -0.776232 -0.365694
0.406951 -0.847870 -0.376658
2.239390 -4.475655 -1.939164
2.409986 -4.817378 -1.946565
2.585928 -5.168064 -1.939773
2.810163 -5.617198 -1.948043
3.063930 -6.125750 -1.953183
3.381785 -6.759570 -1.968867
3.782316 -7.561473 -1.994497
4.309955 -8.617617 -2.040251
4.941028 -9.881518 -2.074723
5.393190 -10.665878 -1.957808
4.785917 -9.477777 -1.487409
5.442878 -10.777354 -1.405957
0.001408 -0.045818 -0.001276
4.695921 -9.319967 -0.727905
0.001408 -0.045818 -0.001276
0.001408 -0.045818 -0.001276
0.001408 -0.045818 -0.001276
0.001408 -0.045818 -0.001276
0.001408 -0.045818 -0.001276
4.695331 -9.358230 0.728197
28.508135 -56.649403 5.912940
0.001408 -0.045818 -0.001276
26.063169 -51.860508 8.151436
0.001408 -0.045818 -0.001276
26.400837 -52.598679 11.080707
0.230854 -0.504087 -0.305277
0.266575 -0.575896 -0.334350
0.286462 -0.615889 -0.340217
0.311294 -0.666092 -0.349444
0.331661 -0.707164 -0.351220
0.369230 -0.783038 -0.368129
0.407274 -0.859967 -0.381278
2.218780 -4.496278 -1.942778
2.382492 -4.828944 -1.945857
2.564061 -5.195859 -1.944869
2.779857 -5.634354 -1.948609
3.031674 -6.146071 -1.954255
3.347707 -6.785137 -1.970858
3.736851 -7.575353 -1.992614
4.266147 -8.645908 -2.041454
4.887756 -9.907937 -2.074672
5.417645 -10.867797 -1.989199
4.792570 -9.622881 -1.506006
5.452085 -10.950523 -1.424454
0.001399 -0.045675 -0.001275
4.628035 -9.313751 -0.725346
0.001399 -0.045675 -0.001275
0.001399 -0.045675 -0.001275
0.001399 -0.045675 -0.001275
0.001399 -0.045675 -0.001275
0.001399 -0.045675 -0.001275
4.626407 -9.350199 0.725593
0.001399 -0.045675 -0.001275
0.001399 -0.045675 -0.001275
0.001399 -0.045675 -0.001275
26.160364 -52.807098 9.675711
0.001399 -0.045675 -0.001275
0.227521 -0.503679 -0.304253
0.265163 -0.580372 -0.336306
0.280145 -0.611001 -0.336458
0.303876 -0.659666 -0.344954
0.324669 -0.702446 -0.347795
0.356114 -0.766975 -0.359177
0.395385 -0.847177 -0.374336
2.196415 -4.515534 -1.945668
2.357405 -4.847508 -1.947888
2.537717 -5.217206 -1.947407
2.753535 -5.662137 -1.952755
3.004946 -6.180544 -1.959739
3.306306 -6.798948 -1.969309
3.693438 -7.596596 -1.992580
4.218499 -8.677952 -2.043079
4.831792 -9.941931 -2.075741
5.435760 -11.057003 -2.018328
4.740875 -9.657284 -1.507078
5.463152 -11.126760 -1.443423
0.001387 -0.045534 -0.001274
4.555236 -9.300717 -0.722239
4.550153 -9.294293 -0.481605
0.001387 -0.045534 -0.001274
0.001387 -0.045534 -0.001274
4.745032 -9.711368 0.249040
0.001387 -0.045534 -0.001274
4.554324 -9.338893 0.722703
31.082850 -63.543423 6.596639
25.714005 -52.597511 6.842301
27.508541 -56.314072 8.803118
24.868244 -50.957291 9.309474
26.490538 -54.301853 11.376380
0.219539 -0.494061 -0.297108
0.254350 -0.566106 -0.326505
0.279102 -0.617284 -0.339270
0.292413 -0.645230 -0.335975
0.320750 -0.704212 -0.347790
0.354352 -0.773816 -0.361613
0.393834 -0.856014 -0.377414
2.169861 -4.528344 -1.945657
2.328068 -4.857461 -1.946507
2.507821 -5.233735 -1.948035
2.723495 -5.685112 -1.955125
2.970432 -6.199344 -1.960278
3.265340 -6.816545 -1.968787
3.644840 -7.607070 -1.989798
4.172979 -8.710768 -2.045141
4.774745 -9.969443 -2.075722
5.429021 -11.209597 -2.040350
4.713159 -9.741271 -1.515964
7.389465 -15.261800 -1.975823
4.491444 -9.301160 -0.960699
4.481865 -9.285357 -0.719013
4.478646 -9.286803 -0.479816
0.001398 -0.045415 -0.001271
4.514498 -9.372938 -0.000934
0.001398 -0.045415 -0.001271
0.001398 -0.045415 -0.001271
4.483417 -9.328894 0.719929
29.049620 -60.264896 6.238611
28.114237 -58.376823 7.573183
0.001398 -0.045415 -0.001271
24.517414 -50.980301 9.287829
0.001398 -0.045415 -0.001271
0.213225 -0.487419 -0.292003
0.259639 -0.584731 -0.337277
0.275038 -0.617149 -0.338326
0.288958 -0.646771 -0.335971
0.323189 -0.718961 -0.354630
