# This PCD file was generated using the MATLAB® pcwrite function
# from Computer Vision Toolbox®.
# .PCD v.7 - Point Cloud Data file format
VERSION .7
FIELDS x y z
SIZE 4 4 4
TYPE F F F
COUNT 1 1 1
WIDTH 1637
HEIGHT 1
VIEWPOINT 0 0 0 1 0 0 0
POINTS 1637
DATA ascii
-4.043525 7.233020 -1.184661
-4.454791 7.983368 -1.085424
-4.967553 8.922569 -0.968657
-6.129620 11.044971 -0.897632
-7.436280 13.428708 -0.728683
-9.597168 17.377638 -0.472817
-4.200883 7.551394 -0.005984
-4.073447 7.322227 0.190974
-4.066518 7.315907 0.389128
-3.907070 7.030826 0.563696
-4.130228 7.445101 0.797753
0.002275 -0.113842 -0.003180
-2.968594 5.327292 0.866051
-2.951456 5.300517 1.008090
-4.402510 7.963927 1.727255
-0.276289 0.398466 -0.349208
-0.283224 0.411667 -0.339399
-0.309529 0.460329 -0.350797
-0.343812 0.523979 -0.367751
-0.443155 0.707735 -0.445855
-1.840578 3.286370 -1.726547
-1.937871 3.468948 -1.706519
-2.062263 3.701931 -1.698874
-2.102077 3.777230 -1.614836
-2.149415 3.868181 -1.534158
-2.284115 4.121096 -1.506617
-2.455419 4.440377 -1.488881
-2.617328 4.744555 -1.450014
-2.809954 5.104102 -1.409660
-3.001791 5.464842 -1.352079
-3.277355 5.981781 -1.309628
-3.683036 6.667698 -1.273769
-4.015339 7.282413 -1.188859
-4.421849 8.037721 -1.089162
-4.930938 8.983510 -0.972032
-6.073844 11.096006 -0.898915
-7.436687 13.622028 -0.736687
0.002285 -0.113726 -0.003177
-4.147162 7.557990 -0.005993
-3.906637 7.119475 0.185054
-3.929372 7.167764 0.380048
-3.804287 6.939216 0.554657
0.002285 -0.113726 -0.003177
-11.255858 20.781544 2.764685
-4.255775 7.792753 1.255941
-4.233260 7.757715 1.462418
0.002285 -0.113726 -0.003177
-0.271715 0.397161 -0.347164
-0.281014 0.414959 -0.340378
-0.307891 0.465351 -0.352673
-0.339291 0.524512 -0.366851
-0.435010 0.704035 -0.442429
-1.819242 3.293817 -1.724924
-1.919829 3.485067 -1.708838
-2.037634 3.708949 -1.696694
-2.111468 3.849082 -1.639490
-2.130906 3.888980 -1.537368
-2.271375 4.156227 -1.514375
-2.421030 4.439302 -1.483921
-2.603846 4.787006 -1.458136
-2.789001 5.137507 -1.414286
-3.000840 5.540915 -1.366247
-3.250508 6.016309 -1.312977
-3.653272 6.706325 -1.277029
-3.970830 7.302054 -1.188315
-4.382360 8.077193 -1.091037
-4.895408 9.043496 -0.975404
-6.016728 11.144984 -0.900059
-7.333956 13.620687 -0.734370
0.002271 -0.113592 -0.003173
-3.798886 7.011909 -0.005796
-3.843314 7.101400 0.183989
-3.883633 7.183343 0.379664
-3.756143 6.947058 0.553534
0.002271 -0.113592 -0.003173
-11.277102 21.112774 2.799853
0.002271 -0.113592 -0.003173
-4.201777 7.808250 1.467259
-4.114444 7.650429 1.649594
-0.269569 0.400371 -0.348183
-0.277972 0.416712 -0.340375
-0.303732 0.465698 -0.351731
-0.338100 0.531322 -0.369544
-0.426917 0.700265 -0.439002
-1.800467 3.306000 -1.725741
-1.899939 3.497831 -1.709614
-2.016470 3.722405 -1.697427
0.002280 -0.113476 -0.003170
-2.120173 3.924802 -1.546345
-2.255624 4.186263 -1.520346
-2.398346 4.460105 -1.486136
-2.573783 4.798614 -1.457130
-2.758727 5.153613 -1.414295
-2.963693 5.549563 -1.364174
-3.214260 6.033320 -1.312616
-3.610246 6.720387 -1.275743
-3.949361 7.365204 -1.194744
-4.370366 8.169168 -1.099892
-4.903943 9.187918 -0.987725
-5.923914 11.126634 -0.895875
-7.142114 13.448938 -0.723045
-4.604589 8.639467 -0.236048
-4.094908 7.674548 -0.006045
-3.791494 7.104077 0.183473
-3.852710 7.226938 0.380761
-3.720079 6.977532 0.554216
0.002280 -0.113476 -0.003170
-11.298591 21.451971 2.835947
-4.172752 7.857292 1.258411
-4.437970 8.371028 1.566911
-4.087004 7.707224 1.656604
-0.260964 0.391436 -0.341034
-0.274832 0.418496 -0.340372
-0.297836 0.462921 -0.348911
-0.333451 0.531874 -0.368644
-0.426409 0.710878 -0.443281
-1.780145 3.316754 -1.725746
-1.878469 3.509162 -1.709620
-1.992636 3.730781 -1.695976
-2.117794 3.975546 -1.681263
-2.112589 3.967357 -1.557886
-2.227339 4.192552 -1.517965
-2.371195 4.474400 -1.486141
-2.551697 4.825526 -1.460686
-2.738152 5.190763 -1.419845
-2.960670 5.624029 -1.377926
-3.201334 6.095511 -1.321901
-3.583329 6.768074 -1.280628
-3.901275 7.381610 -1.193642
-4.324830 8.202128 -1.100838
-4.876246 9.269979 -0.993336
-5.893944 11.232520 -0.901505
-7.050521 13.469937 -0.721945
-9.316835 17.842800 -0.479508
-3.723659 7.072093 -0.005827
-3.751382 7.131905 0.183597
-3.808565 7.245590 0.380564
-3.685299 7.013793 0.555315
-3.763936 7.169064 0.759007
-11.647573 22.432758 2.956129
0.002268 -0.113339 -0.003166
-4.318482 8.259779 1.541657
-4.084256 7.812868 1.673964
-0.262866 0.402202 -0.347156
-0.273460 0.423268 -0.342330
-0.296251 0.467869 -0.350787
-0.331472 0.537040 -0.370438
-0.424944 0.719878 -0.446706
-1.754539 3.315704 -1.720051
-1.855710 3.514816 -1.707308
-1.973873 3.748962 -1.698893
-2.107907 4.014579 -1.692223
-2.116653 4.033579 -1.578398
-2.208582 4.217330 -1.522146
-2.351728 4.501809 -1.490564
-2.525860 4.845441 -1.462215
-2.704923 5.201374 -1.418467
-2.932801 5.653829 -1.380851
-3.193846 6.172333 -1.334153
-3.576451 6.849546 -1.292010
-3.896970 7.479833 -1.205652
-4.271108 8.212152 -1.098990
0.002278 -0.113223 -0.003164
-5.787600 11.186495 -0.895218
-6.973681 13.507436 -0.721877
-9.230631 17.930088 -0.480438
-3.692238 7.113121 -0.005847
-3.729983 7.190249 0.184545
-3.821575 7.376079 0.386195
-3.873579 7.484669 0.590431
-3.733343 7.216240 0.761586
0.002278 -0.113223 -0.003164
-11.502200 22.489342 3.552657
0.002278 -0.113223 -0.003164
-4.078656 7.915238 1.690585
-0.261361 0.406955 -0.349196
-0.271838 0.428121 -0.344289
-0.293581 0.471319 -0.351725
-0.327635 0.539150 -0.370434
-0.415920 0.714457 -0.442423
-1.736415 3.329141 -1.721683
-1.838309 3.534125 -1.711170
-1.949234 3.757399 -1.697443
-2.084093 4.026770 -1.692230
-2.126102 4.113886 -1.604039
-2.179423 4.223671 -1.519767
-2.332905 4.530869 -1.495537
-2.506830 4.881219 -1.468308
-2.688261 5.244823 -1.425863
-2.910968 5.693494 -1.386274
-3.154990 6.185498 -1.333049
-3.544912 6.890145 -1.295595
-3.844247 7.484606 -1.202875
-4.223440 8.241009 -1.099471
-4.827161 9.443056 -1.005677
-5.728761 11.232234 -0.896220
-6.917987 13.598636 -0.724531
-9.147763 18.032860 -0.481746
-3.631690 7.096898 -0.005845
-3.687512 7.214176 0.184579
-3.832756 7.509396 0.391916
-3.784976 7.417863 0.583477
0.002263 -0.113089 -0.003159
-10.516116 20.840155 2.730650
-11.380800 22.573013 3.555389
-10.408298 20.653387 3.805413
-4.149811 8.176683 1.740473
-0.252979 0.397820 -0.342048
-0.263274 0.418900 -0.337425
-0.288656 0.469990 -0.349843
-0.321486 0.536366 -0.367738
-0.411164 0.716989 -0.442420
-1.715764 3.337589 -1.720873
-1.804144 3.518360 -1.698831
-1.929412 3.773705 -1.699632
-2.058572 4.035483 -1.690864
-2.130358 4.183881 -1.625834
-2.156985 4.241425 -1.521561
-2.313799 4.559849 -1.500511
-2.485770 4.911315 -1.472879
-2.673776 5.293483 -1.434645
-2.901753 5.759373 -1.397945
-3.135207 6.237158 -1.340108
-3.501001 6.903502 -1.294308
-3.816373 7.538648 -1.207910
-4.193019 8.300885 -1.104137
-4.784514 9.495783 -1.008303
-5.668691 11.275872 -0.897082
-6.871860 13.704543 -0.728029
-9.060076 18.119377 -0.482676
-3.580339 7.098118 -0.005849
-3.642610 7.230042 0.184429
-3.681417 7.314903 0.380711
-3.677756 7.310946 0.573466
-3.664646 7.291142 0.764894
-10.439410 20.989519 2.742192
0.002273 -0.112973 -0.003157
0.002273 -0.112973 -0.003157
-6.445232 12.946884 2.735913
-0.252325 0.404039 -0.345107
-0.261749 0.423672 -0.339383
-0.285286 0.471776 -0.349841
-0.319308 0.541546 -0.369533
-0.410362 0.727589 -0.446700
-1.695875 3.347550 -1.720876
-1.783203 3.528821 -1.698835
-1.904542 3.779863 -1.697453
-2.036294 4.050768 -1.692240
-2.136408 4.259193 -1.649551
-2.141104 4.272774 -1.528127
-2.286015 4.571500 -1.499966
-2.455102 4.922197 -1.471872
-2.653695 5.331654 -1.440656
-2.873044 5.786668 -1.400453
-3.104630 6.267612 -1.342714
-3.459694 6.921916 -1.293993
-3.784494 7.585503 -1.211829
-4.151517 8.339277 -1.106013
-4.758960 9.584071 -1.014660
-5.717310 11.541285 -0.915326
-6.754380 13.666870 -0.724020
-8.975199 18.212654 -0.483795
-3.548444 7.138503 -0.005869
-3.607301 7.265391 0.184783
0.002261 -0.112835 -0.003153
-3.557018 7.172586 0.561097
-3.629841 7.328363 0.766548
-10.183683 20.774426 2.706480
0.002261 -0.112835 -0.003153
-3.994351 8.093870 1.493385
-6.359639 12.962697 2.731453
-0.251595 0.410259 -0.348168
-0.258672 0.425319 -0.339380
-0.281925 0.473550 -0.349839
-0.313987 0.540298 -0.367734
-0.404729 0.728449 -0.445842
-1.672919 3.352738 -1.718439
-1.763005 3.540817 -1.699611
-1.884546 3.795942 -1.699641
-2.011566 4.062911 -1.692245
-2.142466 4.336408 -1.673910
-2.134044 4.323002 -1.541253
-2.258214 4.585130 -1.499971
-2.431955 4.948592 -1.475429
-2.625585 5.356214 -1.442972
-2.869345 5.869001 -1.415871
-3.084575 6.323260 -1.350515
-3.412246 6.927641 -1.291406
-3.770726 7.673896 -1.222165
-4.117506 8.393555 -1.109982
-4.689202 9.582774 -1.011692
-5.683697 11.648773 -0.921095
-6.657575 13.669692 -0.722168
-8.905210 18.337980 -0.485760
-3.548824 7.249631 -0.005915
-3.573468 7.304188 0.185229
-3.525440 7.211271 0.373195
-3.589032 7.350116 0.573165
-3.619298 7.419892 0.773755
0.002246 -0.112701 -0.003148
-6.493134 13.416038 2.100794
0.002246 -0.112701 -0.003148
-6.274939 12.979737 2.727364
-0.249962 0.414980 -0.350208
-0.254709 0.425397 -0.338398
-0.278434 0.475346 -0.349837
-0.310095 0.542278 -0.367733
-0.398172 0.727701 -0.444129
-1.650581 3.357501 -1.716000
-1.738132 3.544683 -1.696530
-1.862134 3.808876 -1.700373
-1.988309 4.076265 -1.692934
-2.124964 4.367992 -1.680966
-2.138768 4.401248 -1.563924
-2.238530 4.613812 -1.504946
-2.406840 4.973540 -1.478481
-2.601556 5.387207 -1.447136
-2.836531 5.889091 -1.416713
-3.052521 6.351716 -1.352750
-3.368731 6.944332 -1.290767
-3.726693 7.697397 -1.222457
-4.091787 8.469957 -1.116743
-4.656443 9.662669 -1.017118
-5.611605 11.672421 -0.920416
-6.610050 13.781224 -0.725948
-8.825685 18.453812 -0.487444
-3.517545 7.293556 -0.005935
-3.543155 7.354300 0.185949
-3.493950 7.257470 0.374479
-3.481916 7.235582 0.562741
-3.581006 7.451544 0.774854
-6.547293 13.726077 1.781985
-6.487150 13.605515 2.124371
-6.337112 13.300758 2.429116
-6.223208 13.071960 2.738798
-0.244737 0.411887 -0.347142
-0.253114 0.430161 -0.340355
-0.278056 0.483470 -0.353593
-0.304819 0.540969 -0.365934
-0.394098 0.731757 -0.444983
-1.631363 3.368741 -1.716817
-1.717842 3.556445 -1.697304
-1.827675 3.794363 -1.689456
-1.964963 4.089483 -1.693624
-2.098341 4.378576 -1.680331
-2.143476 4.479359 -1.586591
-2.212917 4.630244 -1.506055
-2.382443 4.997978 -1.481530
-2.571486 5.405749 -1.448068
-2.800273 5.901902 -1.415890
-3.021890 6.383564 -1.355728
-3.335608 6.979810 -1.293703
-3.691794 7.740366 -1.225818
-4.065994 8.543863 -1.123269
-4.606875 9.703874 -1.018626
-5.562334 11.744410 -0.923519
-6.514700 13.786622 -0.724284
-8.745805 18.562389 -0.488986
-3.494369 7.355481 -0.005962
-3.511962 7.400055 0.186577
-3.513201 7.409713 0.381217
-3.561996 7.517749 0.582859
-3.530658 7.457724 0.773360
-6.129219 13.038083 1.688617
-6.421470 13.671491 2.128790
-6.382270 13.600169 2.476657
-6.209408 13.241374 2.766498
-0.246787 0.424350 -0.354285
-0.249246 0.430163 -0.339373
-0.269437 0.473991 -0.347013
-0.303298 0.547710 -0.368626
-0.388470 0.732507 -0.444125
-1.611300 3.378218 -1.716820
-1.694361 3.561378 -1.694994
-1.802794 3.799869 -1.687277
-1.940730 4.100852 -1.693630
-2.072441 4.390712 -1.680337
-2.151321 4.566319 -1.612243
-2.187984 4.648278 -1.507717
-2.353805 5.013511 -1.482043
-2.544563 5.431216 -1.450846
-2.771336 5.930522 -1.418812
-3.000836 6.436724 -1.363156
-3.287256 6.982920 -1.290789
-3.659863 7.790381 -1.230294
-4.021938 8.579878 -1.124912
-4.568698 9.770141 -1.022743
-5.540038 11.875971 -0.931251
-6.442986 13.842183 -0.725245
-8.666664 18.674295 -0.490620
-9.543462 20.584398 -0.010974
-3.422648 7.320413 0.184050
-3.474874 7.440847 0.381761
0.002251 -0.112335 -0.003139
-3.527794 7.566726 0.782419
-6.046787 13.058841 1.686741
-6.323846 13.668763 2.122657
-6.281849 13.590177 2.468221
-5.247408 11.345378 2.366908
-0.237975 0.413386 -0.346116
-0.248284 0.436479 -0.342312
-0.270447 0.485301 -0.352649
-0.300243 0.551213 -0.369522
-0.389607 0.748032 -0.450973
-1.588911 3.382587 -1.714381
-1.670904 3.566177 -1.692683
-1.777165 3.803539 -1.684368
-1.915675 4.110389 -1.692949
-2.046492 4.402708 -1.680342
-2.162191 4.662225 -1.640876
-2.171651 4.685444 -1.515450
-2.331431 5.042969 -1.486614
-2.520619 5.463629 -1.455472
-2.739727 5.953640 -1.420487
-2.967119 6.462972 -1.365022
-3.261939 7.035974 -1.296973
-3.610183 7.802435 -1.228912
-4.000676 8.666276 -1.133068
-4.496033 9.761973 -1.019218
-5.485000 11.938671 -0.933654
-6.350133 13.851892 -0.723862
-8.591453 18.796810 -0.492540
-9.559832 20.937761 -0.011125
-3.396346 7.376550 0.184955
-3.448666 7.499078 0.383692
-3.530761 7.683930 0.592415
-3.502416 7.628761 0.786664
-5.971707 13.095382 1.686951
-5.999658 13.163653 2.039336
-6.204506 13.629848 2.468844
-6.124812 13.466332 2.798240
-0.232130 0.408618 -0.342030
-0.245840 0.439625 -0.343290
-0.269176 0.491818 -0.355465
-0.293486 0.546544 -0.365928
-0.380955 0.742159 -0.446689
-1.571751 3.398475 -1.717642
-1.650445 3.577550 -1.693459
-1.755361 3.815547 -1.685101
-1.891338 4.121488 -1.692954
-2.020465 4.414551 -1.680347
-2.163463 4.739223 -1.662949
-2.160444 4.734869 -1.527047
-2.293834 5.038767 -1.481550
-2.484519 5.469294 -1.453170
-2.710331 5.981955 -1.423411
-2.944412 6.514217 -1.372078
-3.215075 7.042172 -1.294709
-3.567003 7.828643 -1.229761
-3.958206 8.707413 -1.135409
-4.475002 9.867778 -1.027437
-5.411464 11.961083 -0.932973
-6.278635 13.908407 -0.724918
-8.517590 18.924564 -0.494599
-9.557729 21.259119 -0.011265
-3.380926 7.458186 0.186498
-3.422710 7.559068 0.385714
-3.549258 7.846384 0.603232
-3.483769 7.707150 0.792576
-5.887506 13.111530 1.684612
-5.932818 13.219826 2.042645
0.002246 -0.112085 -0.003132
-5.159862 11.505894 2.387569
-0.236802 0.427384 -0.353256
-0.239853 0.434808 -0.339365
-0.264264 0.490266 -0.353584
-0.288987 0.546738 -0.365027
-0.376022 0.744467 -0.446688
-1.552250 3.409275 -1.718459
-1.626938 3.582056 -1.691149
-1.731964 3.824017 -1.684377
-1.868434 4.135870 -1.694329
-1.994366 4.426237 -1.680353
-2.143951 4.770963 -1.669516
-2.164985 4.821286 -1.550234
-2.278912 5.085681 -1.491193
-2.464092 5.510387 -1.460103
-2.669704 5.985049 -1.420503
-2.918826 6.559995 -1.378024
-3.193819 7.105812 -1.302842
-3.524455 7.856440 -1.230887
-3.910598 8.737468 -1.136352
-4.436785 9.937222 -1.031929
-5.341871 11.992168 -0.932993
-6.233301 14.024881 -0.729072
-8.438507 19.042948 -0.496423
-9.581291 21.647055 -0.011428
-3.358217 7.525231 0.187675
-3.402638 7.633663 0.388478
-3.370964 7.565423 0.580315
-5.830300 13.175772 1.345606
-5.866342 13.270874 1.700571
0.002234 -0.111948 -0.003128
-6.078380 13.774778 2.482064
-5.094499 11.539156 2.388290
-0.231538 0.424191 -0.350191
-0.238684 0.441147 -0.342305
-0.259295 0.488739 -0.351701
-0.290765 0.561683 -0.372210
-0.374699 0.755053 -0.450967
-1.529871 3.415200 -1.716835
-1.606466 3.595167 -1.692695
-1.710766 3.837485 -1.685836
-1.840222 4.140122 -1.691594
-1.969723 4.441268 -1.681639
-2.118088 4.788622 -1.671310
0.002243 -0.111832 -0.003125
-2.249721 5.100626 -1.491706
-2.433008 5.530398 -1.461497
-2.640773 6.014833 -1.423843
-2.882698 6.582234 -1.379146
-3.168282 7.164557 -1.310002
-3.473166 7.868255 -1.229505
-3.879440 8.809820 -1.142648
-4.390596 9.994544 -1.035116
-5.292247 12.075009 -0.936939
-6.145386 14.052591 -0.728626
-8.358369 19.161064 -0.498245
-9.646933 22.153236 -0.011639
-3.330358 7.585530 0.188670
0.002243 -0.111832 -0.003125
-3.357031 7.658666 0.585855
-5.730045 13.154425 1.340033
-5.692395 13.080233 1.672063
-5.734276 13.190324 2.027608
-5.920223 13.628425 2.449686
-4.990815 11.483576 2.370899
-0.225828 0.419290 -0.346106
-0.232160 0.434596 -0.337401
-0.255934 0.490308 -0.351699
-0.287713 0.565079 -0.373105
-0.369709 0.757336 -0.450965
-1.506684 3.417381 -1.713580
-1.591561 3.617796 -1.698870
-1.685810 3.842267 -1.683656
-1.812020 4.142135 -1.688176
-1.944962 4.456150 -1.682926
-2.086080 4.792075 -1.668335
-2.187714 5.035811 -1.609304
-2.224236 5.124324 -1.494754
-2.404297 5.553406 -1.463812
-2.614311 6.053925 -1.429267
-2.849095 6.613836 -1.382123
-3.133852 7.196782 -1.312611
-3.451363 7.944678 -1.238167
-3.840527 8.857035 -1.145918
-4.347451 10.050161 -1.038300
-5.249468 12.169617 -0.941866
-6.084278 14.129053 -0.730808
-8.273973 19.271496 -0.499881
-9.673182 22.570934 -0.011817
0.002229 -0.111698 -0.003121
-12.028996 28.136015 1.417836
-3.375544 7.826721 0.597089
-5.616203 13.105835 1.331681
-5.727445 13.374370 1.705160
-5.736562 13.409225 2.055907
-5.887183 13.777914 2.470047
0.002229 -0.111698 -0.003121
-0.226675 0.430251 -0.352230
-0.228918 0.436107 -0.337398
-0.247550 0.480562 -0.345121
-0.283698 0.566916 -0.373103
-0.365240 0.761310 -0.451821
-1.486329 3.426121 -1.713584
-1.563689 3.613697 -1.692701
-1.663758 3.855760 -1.685117
-1.786774 4.150900 -1.687496
-1.917099 4.465995 -1.682291
-2.059187 4.809791 -1.670129
-2.200346 5.149517 -1.640773
0.002216 -0.111560 -0.003117
-2.377637 5.581641 -1.467515
-2.581783 6.076228 -1.430941
-2.819398 6.652021 -1.386585
-3.108865 7.259012 -1.320420
-3.399556 7.951789 -1.236224
-3.801150 8.912737 -1.150120
-4.333471 10.186017 -1.049505
-5.206549 12.265971 -0.946933
-6.019853 14.212918 -0.733272
-8.189839 19.394106 -0.501800
-9.701919 23.006266 -0.012002
-10.087821 23.949627 0.593390
-11.746228 27.932432 1.404008
0.002216 -0.111560 -0.003117
-5.615340 13.318125 1.349798
-5.595290 13.283608 1.689389
-5.782285 13.738224 2.100863
-5.833737 13.875458 2.481348
-5.569611 13.255858 2.720140
-0.221582 0.426928 -0.349164
-0.227787 0.442393 -0.340335
-0.250246 0.496801 -0.353573
-0.277736 0.563724 -0.370406
-0.359523 0.761871 -0.450962
-1.468032 3.439818 -1.716030
-1.545030 3.629592 -1.695791
-1.643741 3.872296 -1.688033
-1.764370 4.166471 -1.689553
-1.890713 4.477091 -1.682296
-2.029365 4.818172 -1.668942
0.002226 -0.111444 -0.003114
-2.195288 5.228958 -1.517083
-2.343347 5.591776 -1.466598
-2.556551 6.116472 -1.436779
-2.792374 6.697379 -1.392528
-3.067894 7.280561 -1.321081
-3.365228 8.000626 -1.240701
-3.750680 8.938287 -1.150597
-4.292417 10.255086 -1.053996
-5.134437 12.294022 -0.946813
-5.909027 14.179152 -0.729822
-8.108740 19.516830 -0.503764
-9.755746 23.514765 -0.012215
-10.007109 24.147905 0.596823
-11.573179 27.972004 1.402573
-11.850426 28.659533 2.161642
0.002226 -0.111444 -0.003114
-5.536977 13.361659 1.695158
-5.666341 13.683484 2.087514
-5.548527 13.410503 2.393001
-5.467985 13.227835 2.707923
-0.221099 0.434709 -0.353244
-0.222611 0.438989 -0.337393
-0.244728 0.493460 -0.350753
-0.275205 0.568763 -0.372200
-0.351091 0.755701 -0.446678
-1.445577 3.445228 -1.714404
-1.522092 3.635151 -1.694251
-1.617994 3.874941 -1.685123
-1.739672 4.178740 -1.690243
-1.864278 4.488046 -1.682300
-2.003114 4.835223 -1.670736
-2.156028 5.217916 -1.654032
-2.209502 5.352821 -1.548536
-2.318975 5.629173 -1.472608
-2.519553 6.131650 -1.436788
-2.758547 6.730350 -1.395878
-3.036508 7.325656 -1.325963
-3.328287 8.048086 -1.244898
-3.712770 8.994802 -1.155032
-4.264237 10.357210 -1.061844
-5.083358 12.379838 -0.951038
-5.844755 14.257489 -0.732097
-8.024994 19.635567 -0.505633
-9.844222 24.135675 -0.012472
-10.018440 24.577627 0.605969
-11.418855 28.056810 1.403451
-11.833146 29.108549 2.190046
0.002211 -0.111310 -0.003110
-5.528622 13.564734 1.716676
-5.541423 13.610488 2.071390
0.002211 -0.111310 -0.003110
-5.456550 13.421453 2.740796
-0.215917 0.431354 -0.350180
-0.223228 0.450134 -0.343273
-0.241805 0.496686 -0.351690
-0.271171 0.570524 -0.372197
-0.349462 0.766237 -0.450957
0.002221 -0.111194 -0.003107
-1.498465 3.640818 -1.692711
-1.599837 3.896420 -1.690225
-1.708674 4.173114 -1.684084
-1.834250 4.490032 -1.679100
-1.976004 4.850347 -1.671935
-2.129580 5.241090 -1.657350
-2.218791 5.468036 -1.577453
-2.285884 5.642559 -1.472615
-2.498404 6.180301 -1.444708
-2.724672 6.756742 -1.398111
-2.987922 7.332676 -1.324025
-3.294530 8.100319 -1.249933
-3.679401 9.068422 -1.161560
-4.218355 10.423109 -1.065964
-4.933497 12.214560 -0.936333
-5.769070 14.316143 -0.733341
-7.955717 19.792955 -0.508495
-9.786845 24.398252 -0.012591
-10.070442 25.134472 0.618177
0.002221 -0.111194 -0.003107
0.002221 -0.111194 -0.003107
-5.382644 13.413520 1.349737
-5.315441 13.258657 1.674274
-5.609339 14.012263 2.127172
-5.631454 14.075431 2.499079
-5.374956 13.443647 2.738928
-0.211636 0.429497 -0.348135
-0.220112 0.451524 -0.343269
-0.237760 0.496518 -0.350748
-0.264081 0.563853 -0.367705
-0.342424 0.763332 -0.448386
-1.399134 3.446366 -1.707082
-1.475471 3.644115 -1.690400
-1.573335 3.897035 -1.686588
-1.686795 4.187973 -1.686142
-1.804276 4.491841 -1.675900
-1.945318 4.856444 -1.670151
-2.100374 5.254824 -1.657907
-2.226124 5.581736 -1.605863
-2.254455 5.657186 -1.473082
-2.472819 6.222042 -1.450964
-2.704383 6.821875 -1.408138
-2.955768 7.373242 -1.328257
-3.258842 8.144511 -1.253850
-3.642688 9.125912 -1.166225
-4.135403 10.385500 -1.059823
-4.926059 12.397969 -0.948129
-5.736004 14.469092 -0.739465
-7.861505 19.890667 -0.509845
-9.930020 25.165556 -0.012906
-10.014123 25.406330 0.623439
0.002207 -0.111060 -0.003103
-11.472000 29.166805 2.184400
0.002207 -0.111060 -0.003103
-5.252891 13.326189 1.678887
-5.601096 14.224277 2.154360
-5.520262 14.032364 2.485792
0.002207 -0.111060 -0.003103
-0.210385 0.435651 -0.351195
-0.214964 0.448031 -0.340327
-0.236809 0.504594 -0.354504
-0.262135 0.570500 -0.370396
-0.338026 0.767106 -0.449241
-1.381295 3.463250 -1.711156
0.002216 -0.110944 -0.003101
-1.550922 3.907912 -1.687318
-1.658559 4.191022 -1.683408
-1.779795 4.507588 -1.677827
-1.916689 4.867697 -1.670156
-2.069198 5.269115 -1.658466
0.002216 -0.110944 -0.003101
-2.237647 5.715995 -1.484635
-2.426812 6.214830 -1.445973
-2.659703 6.828758 -1.406291
-2.932643 7.441771 -1.337366
-3.213403 8.173060 -1.255256
-3.609576 9.198721 -1.172752
-4.079945 10.422262 -1.061144
-4.827271 12.363830 -0.943382
-5.704635 14.638035 -0.746339
-7.777250 20.015926 -0.511903
-10.023436 25.854771 -0.013193
-10.058567 25.959885 0.635554
0.002216 -0.110944 -0.003101
-11.215007 29.018492 2.168252
-5.267129 13.587305 1.360800
0.002216 -0.110944 -0.003101
-5.479077 14.161248 2.139903
-5.420045 14.022621 2.478330
0.002216 -0.110944 -0.003101
-0.205304 0.432209 -0.348130
-0.210413 0.446188 -0.338363
-0.234430 0.509435 -0.356380
-0.257438 0.570500 -0.369497
-0.336029 0.777679 -0.453521
-1.363296 3.478113 -1.714415
-1.428211 3.652760 -1.686548
-1.527061 3.917181 -1.687322
-1.637092 4.209416 -1.686836
-1.750367 4.512895 -1.675909
-1.889159 4.884474 -1.671951
-2.039557 5.284673 -1.659575
-2.214845 5.754223 -1.646960
-2.237076 5.816293 -1.506809
-2.393804 6.237977 -1.448063
-2.625954 6.860645 -1.409639
-2.894834 7.477605 -1.340626
-3.174136 8.213761 -1.258616
-3.568460 9.257235 -1.177418
-4.024498 10.465034 -1.063023
-4.768877 12.426986 -0.946063
-5.622737 14.686685 -0.747113
-7.719477 20.224449 -0.516039
-10.022115 26.302979 -0.013386
-10.110024 26.563280 0.648808
-11.159332 29.362852 1.455126
-11.129089 29.299168 2.184306
0.002202 -0.110810 -0.003096
0.002202 -0.110810 -0.003096
0.002202 -0.110810 -0.003096
-5.329551 14.029716 2.474103
-4.387441 11.543687 2.338606
-0.202768 0.435122 -0.349149
-0.207826 0.449168 -0.339340
-0.228382 0.504305 -0.352619
-0.254157 0.573794 -0.370392
-0.328527 0.772903 -0.450094
-1.340051 3.479190 -1.711161
-1.405878 3.657343 -1.685008
-1.504539 3.925769 -1.687326
-1.614265 4.222149 -1.688208
-1.724530 4.522732 -1.675912
-1.857248 4.884343 -1.668377
-2.010073 5.297909 -1.660133
-2.181415 5.764830 -1.646457
0.002214 -0.110691 -0.003094
-2.363778 6.266054 -1.451402
-2.601194 6.909887 -1.416696
-2.851108 7.494283 -1.340635
-3.123384 8.224618 -1.257510
-3.529110 9.316825 -1.182317
-3.966778 10.491183 -1.063411
-4.735075 12.557151 -0.953794
-5.550741 14.754496 -0.748919
-7.707979 20.540854 -0.522951
-10.118020 27.025621 -0.013686
-10.101346 26.996025 0.657952
-10.994654 29.424820 1.455082
-10.913262 29.222588 2.173991
-10.945395 29.341070 2.916701
-5.139365 13.729135 1.717965
-4.323240 11.545073 1.739532
-11.844533 31.830507 5.581151
-4.364649 11.676121 2.360396
-0.199222 0.434735 -0.348126
-0.207209 0.456961 -0.343259
-0.222487 0.499069 -0.348859
-0.249822 0.573612 -0.369492
-0.322356 0.771477 -0.448379
-1.320638 3.488480 -1.711977
-1.384797 3.667243 -1.685782
-1.483921 3.939498 -1.689512
-1.588662 4.229751 -1.687526
-1.694559 4.523817 -1.672713
-1.824527 4.884331 -1.664803
-1.980895 5.314951 -1.661793
-2.148879 5.781060 -1.647478
0.002199 -0.110557 -0.003089
-2.323894 6.274577 -1.450161
-2.558166 6.921636 -1.415962
-2.838626 7.587475 -1.354292
-3.095983 8.294084 -1.265335
-3.475335 9.328450 -1.181397
-3.923361 10.556281 -1.067714
-4.677352 12.619087 -0.956476
-5.474577 14.804146 -0.749878
0.002199 -0.110557 -0.003089
-10.190815 27.693977 -0.013965
-10.167916 27.662184 0.672713
-10.824468 29.487762 1.455036
-10.714790 29.204493 2.167979
-10.727880 29.272795 2.903703
-10.757212 29.385746 3.656887
0.002199 -0.110557 -0.003089
-11.889247 32.543850 5.693360
-4.257726 11.600348 2.340053
-0.192969 0.428004 -0.343018
-0.204325 0.459983 -0.344238
-0.220567 0.505539 -0.351676
-0.245035 0.573579 -0.368592
-0.323106 0.790569 -0.456940
-0.613823 1.597714 -0.812348
-1.360448 3.672293 -1.684243
0.002184 -0.110423 -0.003085
-1.564662 4.246572 -1.690270
-1.666247 4.534227 -1.672716
-1.794656 4.897323 -1.665403
-1.947095 5.325282 -1.661247
-2.114815 5.799664 -1.649007
-2.294235 6.307756 -1.620903
-2.287499 6.296148 -1.451835
-2.511217 6.926155 -1.413745
-2.796278 7.617787 -1.356577
-3.074930 8.396778 -1.277904
-3.453433 9.448641 -1.193742
-3.879148 10.638245 -1.073510
0.002184 -0.110423 -0.003085
-3.884136 10.676156 -0.541998
-7.510130 20.752073 -0.526079
-3.881254 10.686396 -0.007319
-10.232079 28.374950 0.688473
-10.683368 29.664371 1.460441
-10.633288 29.541807 2.188053
-10.569804 29.397882 2.909577
-10.586309 29.477200 3.660081
-4.068651 11.277615 1.692027
-4.645220 12.897988 2.261173
-4.227783 11.742897 2.363320
-0.192184 0.435733 -0.347099
-0.198703 0.454723 -0.340314
-0.218916 0.511903 -0.354491
-0.243499 0.581866 -0.372181
-0.314900 0.784040 -0.452656
-0.600329 1.591035 -0.807462
-1.340547 3.683446 -1.685788
-1.432032 3.946544 -1.685151
-1.537054 4.248563 -1.687534
-1.642181 4.548949 -1.674643
-1.765403 4.903800 -1.664215
-1.912577 5.327473 -1.658492
-2.081792 5.811517 -1.649013
-2.307418 6.460124 -1.656009
-2.278275 6.384632 -1.468919
-2.474577 6.951765 -1.415978
-2.758354 7.652489 -1.359836
-3.036524 8.444345 -1.282379
-3.393024 9.453518 -1.191893
-3.825186 10.683054 -1.075763
0.002197 -0.110304 -0.003083
0.002197 -0.110304 -0.003083
0.002197 -0.110304 -0.003083
0.002197 -0.110304 -0.003083
0.002197 -0.110304 -0.003083
0.002197 -0.110304 -0.003083
0.002197 -0.110304 -0.003083
0.002197 -0.110304 -0.003083
-3.772676 10.626379 1.323552
-3.758940 10.599516 1.587909
-4.568961 12.920923 2.260508
0.002197 -0.110304 -0.003083
-0.194051 0.451621 -0.356283
-0.193054 0.449448 -0.336390
-0.212884 0.506646 -0.350731
-0.237613 0.578366 -0.369485
-0.306167 0.775727 -0.447517
-0.587524 1.585970 -0.803390
-1.318642 3.693227 -1.686561
-1.408040 3.953092 -1.684426
-1.511938 4.257476 -1.687538
-1.615950 4.560255 -1.675288
-1.738381 4.919426 -1.666009
-1.876840 5.325807 -1.654634
-2.048311 5.825376 -1.649525
-2.274641 6.488154 -1.659710
-2.283450 6.517599 -1.496001
-2.437038 6.971179 -1.417099
-2.725925 7.707983 -1.366669
-2.994411 8.482391 -1.285458
-3.387863 9.621803 -1.210289
-3.767003 10.722616 -1.077456
-3.766302 10.726975 -0.809682
-3.753141 10.701558 -0.541087
-3.749702 10.697961 -0.272956
-3.742950 10.690956 -0.007331
-3.730263 10.666799 0.257466
-3.723338 10.653113 0.523827
0.002182 -0.110170 -0.003078
0.002182 -0.110170 -0.003078
0.002182 -0.110170 -0.003078
-3.692712 10.608004 1.585952
0.002182 -0.110170 -0.003078
0.002182 -0.110170 -0.003078
-0.184196 0.433295 -0.344032
-0.193323 0.460550 -0.342269
-0.207734 0.502961 -0.347909
-0.236089 0.586586 -0.373075
-0.306331 0.793010 -0.455221
-0.575988 1.584283 -0.800946
-1.297979 3.702406 -1.687335
-1.387042 3.968331 -1.687340
-1.486772 4.266248 -1.687541
-1.589027 4.569608 -1.675293
-1.706947 4.922260 -1.663627
-1.844907 5.334844 -1.654086
-2.010991 5.828039 -1.646996
-2.214766 6.436761 -1.643553
-2.294858 6.681252 -1.529750
-2.400032 7.000546 -1.420075
-2.676498 7.706424 -1.363752
-2.942972 8.493999 -1.284631
-3.332851 9.638824 -1.210067
-3.723848 10.794480 -1.082506
0.002192 -0.110054 -0.003076
0.002192 -0.110054 -0.003076
0.002192 -0.110054 -0.003076
0.002192 -0.110054 -0.003076
-10.243305 30.015085 0.723795
0.002192 -0.110054 -0.003076
0.002192 -0.110054 -0.003076
0.002192 -0.110054 -0.003076
-3.652659 10.680666 1.324915
-3.640489 10.657368 1.590103
-3.628245 10.633814 1.855771
-3.620818 10.618282 2.126010
-0.183738 0.442683 -0.349132
-0.188832 0.458523 -0.340305
-0.205223 0.507672 -0.349785
-0.231959 0.588115 -0.373072
-0.301558 0.796675 -0.456075
-0.565049 1.584228 -0.799319
-1.274756 3.708422 -1.686567
-1.362232 3.974854 -1.686616
-1.457997 4.264185 -1.683435
-1.560049 4.575498 -1.674014
-1.676460 4.930621 -1.663036
-1.811706 5.340039 -1.652435
-1.975752 5.840012 -1.647000
-2.178888 6.455083 -1.644945
-2.310563 6.859727 -1.566830
-2.374511 7.061013 -1.429359
-2.644536 7.765310 -1.371237
-2.903482 8.540975 -1.289107
-3.283820 9.684922 -1.213337
-3.692018 10.914698 -1.092219
-3.824392 11.316629 -0.850244
-3.714001 11.000113 -0.553791
-3.687754 10.934752 -0.277796
-3.685497 10.934695 -0.007437
-10.326962 30.862606 0.742703
-11.950440 35.773285 1.746484
-10.042352 30.063276 2.208695
-10.391580 31.149502 3.057803
0.002177 -0.109920 -0.003071
0.002177 -0.109920 -0.003071
0.002177 -0.109920 -0.003071
0.002177 -0.109920 -0.003071
-0.178935 0.438967 -0.346067
-0.185546 0.459731 -0.340304
-0.201672 0.508983 -0.349783
-0.227366 0.587870 -0.372173
-0.295199 0.795092 -0.454360
-0.553585 1.582390 -0.796875
-1.253919 3.719350 -1.688111
-1.341029 3.989857 -1.689530
-1.431618 4.269068 -1.682069
-1.535403 4.591736 -1.676582
-1.651556 4.953021 -1.667216
-1.779689 5.348674 -1.651889
-1.945657 5.864291 -1.650557
-2.140444 6.465795 -1.644490
-2.319441 7.023719 -1.600578
-2.341105 7.099009 -1.434189
-2.605357 7.799295 -1.374494
-2.883993 8.649839 -1.302793
-3.239809 9.741543 -1.218002
-3.665812 11.049414 -1.103423
-3.752951 11.321532 -0.848995
-3.703544 11.184690 -0.561882
-3.677661 11.119330 -0.281866
-3.671044 11.106018 -0.007510
-10.330029 31.476587 0.755995
-12.055790 36.796860 1.792917
-10.276619 31.370609 2.300097
0.002187 -0.109803 -0.003069
-3.771177 11.474666 1.417045
-3.749896 11.416411 1.695844
-3.698406 11.272026 1.958618
-3.716208 11.340642 2.260506
-0.176300 0.441759 -0.347086
-0.181197 0.457615 -0.338340
-0.201352 0.520346 -0.355419
-0.222263 0.585916 -0.370373
-0.292205 0.803795 -0.457784
-0.543553 1.585792 -0.796873
-1.233533 3.731902 -1.690429
-1.317961 3.999408 -1.690262
-1.407328 4.282974 -1.684128
-1.507165 4.597034 -1.675303
-1.618309 4.949857 -1.663044
-1.747287 5.359273 -1.651894
-1.902409 5.847897 -1.642953
-2.097282 6.465550 -1.641263
-2.279467 7.044941 -1.602252
-2.332299 7.219634 -1.455347
-2.570700 7.848089 -1.380353
-2.840515 8.693315 -1.306710
-3.231840 9.911390 -1.236630
-3.616177 11.115953 -1.107914
-3.677752 11.320936 -0.847327
-3.684348 11.348584 -0.568940
-3.686999 11.370797 -0.287587
-3.677209 11.354357 -0.007613
-10.417976 32.377213 0.776137
-11.922996 37.115021 1.804971
0.002172 -0.109669 -0.003065
0.002172 -0.109669 -0.003065
-3.714121 11.526604 1.420737
-3.869867 12.029204 1.782716
-3.638027 11.316460 1.962485
-3.640099 11.330140 2.254210
-0.170946 0.436377 -0.343000
-0.178379 0.460496 -0.339316
-0.196009 0.516613 -0.352598
-0.220292 0.594176 -0.373963
-0.285851 0.802154 -0.456069
-0.533236 1.587288 -0.796058
-1.211293 3.741057 -1.691202
-1.297080 4.015946 -1.693906
-1.382584 4.292939 -1.684815
-1.476625 4.594918 -1.671461
-1.589729 4.961047 -1.663645
-1.715199 5.367543 -1.651347
-1.869235 5.862572 -1.643974
-2.065204 6.496220 -1.645888
-2.241243 7.063289 -1.603508
-2.351702 7.425890 -1.493572
-2.522863 7.861453 -1.380036
-2.804136 8.754971 -1.313418
-3.187939 9.979779 -1.242691
-3.598096 11.291140 -1.123038
-3.612488 11.343955 -0.847481
-3.631947 11.419915 -0.571396
-3.651494 11.489232 -0.290006
-3.614767 11.386922 -0.007630
-10.419319 33.056599 0.790885
-16.680140 53.015205 2.572470
0.002182 -0.109553 -0.003062
-3.712605 11.742436 1.150960
-3.651243 11.561202 1.422345
-3.612584 11.452162 1.694705
-3.567151 11.314134 1.958592
-3.519155 11.174665 2.219458
-0.166881 0.434177 -0.340955
-0.174144 0.458277 -0.337354
-0.190432 0.511100 -0.348836
-0.214243 0.588701 -0.370368
-0.280599 0.803917 -0.456067
-0.519130 1.576499 -0.789544
-1.187039 3.739068 -1.687347
-1.272228 4.019937 -1.692451
-1.358335 4.304562 -1.686187
-1.450090 4.605298 -1.672105
-1.561076 4.972079 -1.664245
-1.684793 5.381153 -1.652454
-1.830272 5.858567 -1.639922
0.002170 -0.109416 -0.003058
-2.204967 7.097172 -1.608098
-2.370209 7.646577 -1.534395
-2.492958 7.922656 -1.388169
-2.763047 8.803266 -1.318172
-3.146265 10.044975 -1.248521
-3.560929 11.396796 -1.131443
-3.586591 11.494310 -0.857032
-3.620046 11.610025 -0.579768
-3.656015 11.741358 -0.295730
-3.625127 11.656136 -0.007743
-10.451285 33.819477 0.807691
-12.415606 40.246128 1.949857
-12.381042 40.184887 2.928518
-3.603694 11.638739 1.138734
-3.584588 11.584064 1.422563
0.002170 -0.109416 -0.003058
-3.511457 11.374848 1.965371
-3.532320 11.450513 2.269705
-0.165168 0.440236 -0.344014
-0.172812 0.466113 -0.341273
-0.185717 0.508973 -0.346954
-0.210611 0.591802 -0.371265
-0.276762 0.810902 -0.458633
-0.508886 1.577845 -0.788729
-1.165268 3.749718 -1.688892
-1.247173 4.025763 -1.691725
-1.332912 4.312448 -1.686189
-1.419901 4.606687 -1.669545
-1.529810 4.977732 -1.663056
-1.654259 5.394574 -1.653562
-1.797074 5.876870 -1.641956
-2.018116 6.616739 -1.669917
-2.161192 7.102384 -1.606439
-2.388688 7.871078 -1.575961
-2.456784 7.975214 -1.394676
-2.729540 8.877892 -1.326833
-3.108490 10.137724 -1.257608
-3.525537 11.526456 -1.142091
-4.147401 13.586555 -1.009243
-5.377132 17.668140 -0.876318
0.002155 -0.109282 -0.003054
-8.036200 26.507368 -0.013674
-10.505098 34.727131 0.827826
-14.327724 47.462181 2.294835
0.002155 -0.109282 -0.003054
-3.536591 11.661336 1.138906
-3.478611 11.483483 1.407730
-3.611898 11.935289 1.759358
-3.464580 11.459301 1.976357
-3.445099 11.409249 2.257495
-0.164947 0.451201 -0.350137
-0.169003 0.465570 -0.340289
-0.184684 0.518639 -0.351649
-0.207597 0.596570 -0.373058
-0.269051 0.803908 -0.454349
-0.499162 1.580881 -0.788728
-1.142516 3.754736 -1.688122
-1.225125 4.036368 -1.693184
-1.307419 4.320172 -1.686193
-1.395707 4.621950 -1.672112
-1.501393 4.986330 -1.663059
-1.620922 5.398616 -1.651910
-1.759809 5.873958 -1.638409
-1.936547 6.482770 -1.633897
-2.124768 7.127612 -1.609360
0.002165 -0.109166 -0.003051
-2.423720 8.034747 -1.402485
-2.693589 8.946742 -1.334657
-3.058525 10.186060 -1.261341
-3.473814 11.598246 -1.147140
-4.093465 13.694494 -1.015431
-5.311057 17.821541 -0.882350
-6.336897 21.297773 -0.529949
-7.878325 26.537983 -0.013701
-10.539431 35.582958 0.846727
-14.071022 47.572205 2.296252
0.002165 -0.109166 -0.003051
-3.510220 11.814742 1.151844
-3.394245 11.436164 1.399614
-3.562035 12.022519 1.769058
-3.590661 12.128148 2.087300
-3.400141 11.494472 2.270419
-0.159392 0.443988 -0.345031
-0.165786 0.466635 -0.340287
-0.180196 0.516409 -0.349767
-0.204655 0.601291 -0.374852
-0.265296 0.810782 -0.456917
-0.494527 1.601413 -0.796869
-1.121427 3.762948 -1.688896
-1.200709 4.041688 -1.692459
-1.282438 4.329583 -1.686879
-1.367405 4.626410 -1.670832
-1.469912 4.987684 -1.660677
-1.588658 5.406145 -1.651362
-1.729637 5.899007 -1.642471
-1.894805 6.480858 -1.630669
-2.082886 7.143980 -1.610201
-2.309674 7.943663 -1.584882
-2.400338 8.124064 -1.415492
-2.650837 8.994561 -1.339411
-3.003227 10.210732 -1.262283
-3.440665 11.728489 -1.157972
-4.049013 13.838679 -1.024283
-5.245959 17.971909 -0.888289
-6.233060 21.401249 -0.531626
-7.695331 26.481211 -0.013694
-10.572311 36.444241 0.865766
-13.835145 47.786900 2.302657
-3.396569 11.670866 0.849542
-3.393145 11.674758 1.136290
-3.331042 11.467107 1.400991
-7.456109 25.828180 3.779305
0.002150 -0.109032 -0.003047
-3.301310 11.402521 2.248603
-0.157539 0.450030 -0.348090
-0.162847 0.469422 -0.341265
-0.178889 0.526086 -0.354464
-0.197521 0.592330 -0.369459
-0.259343 0.810737 -0.456058
-0.487859 1.616750 -0.802567
-1.098451 3.769680 -1.688898
-1.176068 4.048876 -1.692461
-1.255051 4.333619 -1.685513
-1.341359 4.641867 -1.673399
-1.441220 5.001970 -1.662470
-1.555387 5.413752 -1.650815
-1.693445 5.907436 -1.641969
-1.851452 6.477124 -1.626981
-2.042487 7.165765 -1.612290
-2.267704 7.978162 -1.588972
-2.405074 8.326153 -1.447676
-2.611987 9.063582 -1.347236
-2.969707 10.325929 -1.274164
-3.393270 11.829264 -1.165821
-3.968946 13.872183 -1.025001
-5.171379 18.118164 -0.893946
-6.157722 21.622646 -0.536184
-7.521162 26.468790 -0.013705
-10.638900 37.508831 0.889502
-13.453629 47.524101 2.286054
0.002160 -0.108916 -0.003044
-3.308621 11.643057 1.131281
-3.272560 11.523127 1.405377
-6.992336 24.770008 3.618831
0.002160 -0.108916 -0.003044
-3.236168 11.433388 2.250807
-0.152481 0.444454 -0.344003
-0.158585 0.467137 -0.339301
-0.171922 0.515346 -0.347883
-0.193945 0.595303 -0.370356
-0.256466 0.821060 -0.460338
-0.480684 1.628399 -0.806636
-1.076594 3.777852 -1.689671
-1.150636 4.050340 -1.690278
-1.229729 4.338883 -1.684831
-1.313969 4.649640 -1.673403
-1.412280 5.012155 -1.663070
-1.522994 5.416925 -1.649163
-1.659802 5.920945 -1.642988
-1.813125 6.481877 -1.625600
-2.001841 7.177188 -1.612296
-2.224625 7.998426 -1.590462
-2.423868 8.581391 -1.488959
-2.572463 9.120131 -1.353384
-2.932522 10.425275 -1.284181
-3.371484 12.017572 -1.182249
-3.886046 13.876965 -1.023752
-5.102186 18.276741 -0.900261
-6.088622 21.860184 -0.541165
-7.358290 26.458460 -0.013714
-10.743146 38.729687 0.916934
-13.127112 47.412186 2.276941
0.002147 -0.108779 -0.003040
-3.259908 11.722911 1.137189
-3.232435 11.639583 1.417173
-7.091389 25.673887 3.744546
-3.241284 11.696432 2.003480
-3.196213 11.548640 2.269643
-0.150194 0.448773 -0.346043
-0.155729 0.469862 -0.340279
-0.172521 0.531802 -0.356336
-0.188952 0.593098 -0.368557
-0.249696 0.817432 -0.457766
-0.470841 1.633113 -0.807450
-1.054216 3.784134 -1.689672
-1.130079 4.069614 -1.695377
-1.203330 4.346239 -1.684833
-1.287053 4.659094 -1.674047
-1.382793 5.020349 -1.663072
-1.491707 5.431575 -1.650823
-1.624554 5.928662 -1.642486
-1.776522 6.502040 -1.627915
-1.957582 7.185296 -1.611469
-2.178542 8.019209 -1.591953
-2.446555 8.861862 -1.534468
-2.525501 9.164029 -1.357580
-2.890104 10.509197 -1.292337
-3.320948 12.108003 -1.189165
-4.143478 15.153270 -1.115096
-5.032886 18.440893 -0.906859
-6.022728 22.118853 -0.546666
-6.784124 24.963139 -0.013128
-10.769496 39.715565 0.938751
-12.889311 47.620182 2.283257
-6.666498 24.615984 1.777658
-3.302588 12.161366 1.177508
-3.168911 11.673490 1.419014
-6.597537 24.447460 3.560482
-6.841841 25.392664 4.324388
0.002157 -0.108663 -0.003037
-0.147335 0.451457 -0.347061
-0.150955 0.465863 -0.337335
-0.167353 0.527833 -0.353515
-0.183877 0.590899 -0.366758
-0.243889 0.817240 -0.456908
-0.461279 1.637703 -0.808262
-1.032512 3.795795 -1.691989
-1.106973 4.079799 -1.696835
-1.177196 4.351421 -1.684150
-1.258625 4.662901 -1.672767
-1.353222 5.028348 -1.663077
-1.459777 5.440196 -1.650827
-1.586343 5.924973 -1.638938
-1.738444 6.512300 -1.627919
-1.913861 7.184899 -1.608975
-2.136118 8.042773 -1.594187
-2.423813 8.990765 -1.553977
-2.490431 9.247440 -1.367637
-2.831177 10.541655 -1.294209
-3.258150 12.164186 -1.192723
-4.084225 15.284990 -1.122968
-4.959144 18.607676 -0.913549
-6.024220 22.642288 -0.558633
-6.646348 25.027050 -0.013167
-10.920151 41.244228 0.973298
-6.493223 24.501539 1.173989
-6.265772 23.674006 1.707152
-3.160516 11.900514 1.150671
-3.086886 11.637876 1.412519
0.002143 -0.108529 -0.003033
-7.218375 27.408354 4.659475
-3.153476 11.934790 2.337613
-0.144642 0.454069 -0.348079
-0.150392 0.476958 -0.343214
-0.163799 0.528891 -0.353512
-0.179983 0.592057 -0.366755
-0.239463 0.822266 -0.458618
-0.448923 1.631619 -0.804190
-1.009791 3.798074 -1.690446
-1.080044 4.075418 -1.692468
-1.150089 4.352800 -1.682098
-1.230654 4.668363 -1.672129
-1.323645 5.036201 -1.663078
-1.428786 5.452384 -1.651933
-1.550122 5.928508 -1.637422
-1.697873 6.512905 -1.625616
-1.871546 7.200052 -1.609814
-2.083344 8.038299 -1.590855
-2.376975 9.019573 -1.556584
-2.476946 9.417005 -1.390254
-2.786187 10.613180 -1.300967
-3.204608 12.240138 -1.198331
-4.019596 15.401087 -1.129718
-4.889669 18.770573 -0.920146
-5.970296 22.974827 -0.565927
0.002152 -0.108413 -0.003030
-10.909586 42.158455 0.993378
-6.351455 24.538641 1.173961
-6.175033 23.889509 1.720028
0.002152 -0.108413 -0.003030
-5.894337 22.850052 2.759515
-3.273736 12.665366 1.845037
0.002152 -0.108413 -0.003030
-3.095316 11.996677 2.346101
-0.141729 0.456722 -0.349097
-0.147355 0.479673 -0.344191
-0.159150 0.526571 -0.351630
-0.177132 0.598439 -0.369448
-0.230845 0.811552 -0.452621
-0.440254 1.639631 -0.806631
-0.989767 3.816655 -1.695849
-1.055647 4.083680 -1.693199
-1.124379 4.359479 -1.682101
-1.201842 4.673883 -1.671491
-1.292168 5.040390 -1.661889
-1.394394 5.451317 -1.649178
-1.513817 5.935854 -1.636919
-1.660212 6.524598 -1.626082
-1.830864 7.216531 -1.611069
-2.035463 8.046485 -1.590120
-2.322789 9.033642 -1.556593
-2.506942 9.765224 -1.438829
-2.738680 10.693196 -1.308658
-3.150395 12.334350 -1.205619
-3.954715 15.520794 -1.136750
-4.812389 18.936899 -0.926837
-6.300124 24.859432 -0.610988
-6.357520 25.106056 -0.013225
0.002138 -0.108279 -0.003026
-6.154996 24.376453 1.164417
0.002138 -0.108279 -0.003026
0.002138 -0.108279 -0.003026
0.002138 -0.108279 -0.003026
-3.183806 12.618814 1.835588
0.002138 -0.108279 -0.003026
-3.021101 12.005426 2.344241
-0.137224 0.452653 -0.346032
-0.141864 0.472187 -0.339287
-0.154631 0.524177 -0.349749
-0.173925 0.603055 -0.371241
-0.225554 0.813008 -0.452618
-0.428134 1.635259 -0.803373
-0.970690 3.836753 -1.702023
-1.031073 4.088031 -1.692471
-1.097420 4.364389 -1.681418
-1.172032 4.671661 -1.668288
-1.262514 5.047882 -1.661892
-1.362323 5.463373 -1.650285
-1.482236 5.957771 -1.640473
-1.617606 6.521233 -1.622854
-1.785982 7.221688 -1.609826
-1.983813 8.045189 -1.587528
-2.273451 9.060403 -1.558876
0.002123 -0.108144 -0.003022
-2.685041 10.743619 -1.312857
-3.098317 12.431675 -1.213280
-3.882522 15.627411 -1.142799
-4.745730 19.138983 -0.935313
-6.236155 25.219639 -0.618899
-6.505905 26.355341 -0.013745
-10.382906 42.153240 0.990220
-12.887924 52.427826 2.498273
0.002123 -0.108144 -0.003022
0.002123 -0.108144 -0.003022
0.002123 -0.108144 -0.003022
-2.914338 11.842918 1.720940
-3.075527 12.522872 2.127632
-2.961570 12.064781 2.352360
-0.133504 0.451935 -0.345008
-0.138827 0.474849 -0.340265
-0.152145 0.530385 -0.352564
-0.166784 0.592064 -0.364951
-0.217717 0.803891 -0.447477
-0.418520 1.639612 -0.804185
-0.484652 1.917518 -0.874125
-1.005584 4.088595 -1.690289
-1.070331 4.365280 -1.679366
-1.145384 4.682152 -1.669572
-1.232375 5.053352 -1.661297
-1.330662 5.473123 -1.650841
-1.446838 5.964455 -1.639970
-1.579870 6.532463 -1.623320
-1.745955 7.235489 -1.610664
-1.937371 8.052454 -1.586792
-2.221832 9.085383 -1.560833
-2.511897 10.292694 -1.511141
-2.631830 10.805844 -1.318452
-3.043024 12.529342 -1.220942
-3.813362 15.738862 -1.149268
-4.667450 19.316496 -0.942569
-6.128091 25.412735 -0.622750
-6.183239 25.682631 -0.013484
-10.330462 43.042591 1.009611
0.002135 -0.108025 -0.003019
0.002135 -0.108025 -0.003019
-2.919958 12.133871 1.166165
-2.903410 12.083710 1.457621
-2.842761 11.848078 1.719264
0.002135 -0.108025 -0.003019
-2.844247 11.882873 2.313918
-0.128785 0.446106 -0.340922
-0.136368 0.479137 -0.342223
-0.148973 0.533072 -0.353502
-0.164915 0.601813 -0.369439
-0.214934 0.815815 -0.452614
-0.407208 1.636796 -0.801741
-0.472912 1.918529 -0.873353
-0.982269 4.098086 -1.691746
-1.047129 4.382485 -1.683476
-1.116932 4.685117 -1.668292
-1.202639 5.060494 -1.661300
-1.296769 5.473336 -1.648636
-1.412297 5.974707 -1.640481
-1.541633 6.541600 -1.623323
-1.700616 7.238240 -1.609002
-1.890248 8.069670 -1.587913
-2.172277 9.105449 -1.562142
-2.454238 10.316748 -1.512547
-2.589983 10.901705 -1.328237
-2.997025 12.650929 -1.231029
-3.745340 15.859751 -1.156438
-4.595006 19.496056 -0.950009
-6.008433 25.564522 -0.625609
-5.921319 25.233000 -0.013315
-10.340930 44.176441 1.034799
-2.906543 12.365772 0.589206
0.002120 -0.107891 -0.003015
-2.822525 12.044436 1.155980
-2.774323 11.846873 1.427282
-2.768081 11.839297 1.715645
-2.961964 12.696157 2.150897
-2.773847 11.893434 2.312798
-0.128205 0.458735 -0.348065
-0.132116 0.476684 -0.340259
-0.145183 0.534089 -0.353498
-0.163104 0.613370 -0.374825
-0.209059 0.815458 -0.451754
-0.398363 1.644583 -0.804183
-0.461691 1.925024 -0.874896
-0.958527 4.109408 -1.693933
-1.020024 4.383089 -1.681423
-1.088061 4.689944 -1.667654
-1.171962 5.067674 -1.661303
-1.265063 5.482735 -1.649189
-1.376194 5.983114 -1.640484
-1.504182 6.554289 -1.624252
-1.656991 7.242309 -1.607759
-1.845322 8.090155 -1.589773
-2.112302 9.095238 -1.558249
-2.395970 10.338564 -1.513671
0.002130 -0.107775 -0.003013
-2.951070 12.798681 -1.243540
-3.673379 15.968704 -1.162767
-4.512884 19.673061 -0.957265
-5.879608 25.703169 -0.628140
-5.780697 25.290216 -0.013349
-5.892936 25.825727 0.603884
0.002130 -0.107775 -0.003013
0.002130 -0.107775 -0.003013
-2.730534 11.963499 1.146718
0.002130 -0.107775 -0.003013
-2.700139 11.859035 1.716189
-2.834403 12.474389 2.110777
-2.695306 11.877220 2.306506
-0.123813 0.454564 -0.345000
-0.129504 0.480974 -0.342217
-0.142639 0.540221 -0.356315
-0.154268 0.593495 -0.364046
-0.202156 0.809716 -0.448327
-0.387890 1.645211 -0.803367
-0.449996 1.927796 -0.874894
-0.933042 4.109554 -1.691749
-0.996193 4.398200 -1.684848
-1.062470 4.705515 -1.670861
-1.142143 5.074466 -1.661306
-1.233679 5.493809 -1.650297
-1.341107 5.991071 -1.640488
-1.466232 6.564882 -1.624717
-1.615928 7.257607 -1.609012
-1.796831 8.095015 -1.588666
-2.058851 9.105450 -1.557931
-2.338395 10.363920 -1.515354
-2.645434 11.757401 -1.427405
-2.885388 12.854465 -1.247283
-3.599407 16.073460 -1.168815
-4.431008 19.843170 -0.964237
-5.766024 25.894840 -0.631990
-5.832621 26.217499 -0.013740
-11.626605 52.447182 1.225233
-2.754551 12.371861 0.587891
-2.707742 12.170507 0.871194
-2.742434 12.348667 1.181857
-2.626759 11.843839 1.423094
-2.682243 12.106660 1.749486
-2.712454 12.265083 2.072922
-2.639321 11.952198 2.317951
-0.121689 0.460458 -0.348059
-0.124275 0.473339 -0.337312
-0.138521 0.539431 -0.355374
-0.153275 0.608488 -0.371227
-0.196127 0.807481 -0.446611
-0.379400 1.656531 -0.807438
-0.440216 1.939505 -0.878751
-0.907954 4.111342 -1.690294
-0.968253 4.398648 -1.682796
-1.033960 4.707992 -1.669580
-1.111503 5.077367 -1.660115
-1.200039 5.499290 -1.649747
-1.303153 5.985594 -1.636940
-1.427841 6.579299 -1.626108
-1.572197 7.267187 -1.609019
-1.747340 8.101829 -1.587929
-2.003699 9.107654 -1.556312
-2.279613 10.393229 -1.517596
0.002125 -0.107525 -0.003006
-2.808619 12.861265 -1.246361
-3.522789 16.184361 -1.175285
-4.351988 20.034472 -0.972242
-5.641139 26.043051 -0.634801
-5.690273 26.316278 -0.013795
-5.037793 23.307997 0.543518
-2.704931 12.491179 0.592777
-2.641593 12.217716 0.873404
-2.592636 12.010451 1.148178
-2.579945 11.961850 1.435353
-2.634596 12.238718 1.766130
-2.602828 12.111234 2.044448
-2.569874 11.967335 2.317941
-0.119730 0.468028 -0.352140
-0.121558 0.477617 -0.339270
-0.134318 0.538655 -0.354431
-0.147548 0.602526 -0.367633
-0.192176 0.815833 -0.450035
-0.370438 1.666046 -0.810693
-0.426933 1.936798 -0.876435
-0.884057 4.122256 -1.692481
-0.941515 4.404456 -1.682797
-1.005770 4.716033 -1.670222
-1.081108 5.085869 -1.660714
-1.165573 5.500794 -1.648095
-1.267383 5.995245 -1.637451
-1.388556 6.589695 -1.626574
-1.528450 7.276533 -1.609022
-1.699414 8.116032 -1.588677
-1.952273 9.134956 -1.558920
-1.465913 6.847108 -1.004827
-1.469895 6.872272 -0.838803
-1.470620 6.887956 -0.672824
-1.479954 6.944755 -0.509805
-4.265707 20.218433 -0.979873
