# This PCD file was generated using the MATLAB® pcwrite function
# from Computer Vision Toolbox®.
# .PCD v.7 - Point Cloud Data file format
VERSION .7
FIELDS x y z
SIZE 4 4 4
TYPE F F F
COUNT 1 1 1
WIDTH 1633
HEIGHT 1
VIEWPOINT 0 0 0 1 0 0 0
POINTS 1633
DATA ascii
5.659315 -1.301270 -1.808217
5.707703 -1.313953 -1.676030
6.373260 -1.461045 -1.708540
7.972492 -1.814883 -1.934317
9.028402 -2.048610 -1.965000
10.321249 -2.336790 -1.991177
12.028061 -2.662297 -2.021451
11.322984 -2.511996 -1.627956
11.492091 -2.552779 -1.372824
0.000486 -0.062731 -0.001517
13.897755 -3.081704 -0.993992
13.897888 -3.086824 -0.662798
13.918436 -3.093857 -0.330248
13.936723 -3.102954 0.000462
13.941620 -3.109134 0.331773
13.941366 -3.111641 0.665953
13.948691 -3.118361 0.998958
13.913931 -3.113303 1.329371
59.806866 -13.197474 7.167662
22.857485 -5.091005 3.290944
0.000486 -0.062731 -0.001517
22.087191 -4.933711 4.263079
3.020341 -0.732347 -1.835378
3.193933 -0.772030 -1.838938
3.400068 -0.818444 -1.852628
3.599910 -0.864203 -1.852321
3.827610 -0.916316 -1.856903
4.076956 -0.973440 -1.860537
4.330339 -1.030854 -1.854015
4.640155 -1.101843 -1.857381
4.983165 -1.180502 -1.859347
5.399011 -1.274799 -1.870234
5.672578 -1.338309 -1.814768
5.707921 -1.348362 -1.678236
6.372658 -1.499289 -1.710567
7.969851 -1.862320 -1.936163
9.024101 -2.103727 -1.966667
10.313343 -2.399150 -1.992294
12.013366 -2.729272 -2.021458
11.107611 -2.532288 -1.599042
11.255024 -2.567144 -1.346188
11.295177 -2.580227 -1.079507
13.897683 -3.165454 -0.995255
13.900296 -3.168593 -0.663736
13.924180 -3.179052 -0.330811
13.942415 -3.188266 0.000455
13.947798 -3.192032 0.332325
13.948932 -3.197425 0.667158
13.956186 -3.204190 1.000765
13.916971 -3.200481 1.331408
23.499044 -5.365372 2.818923
23.595060 -5.395723 3.401539
22.385738 -5.130620 3.772570
22.511160 -5.163174 4.350517
3.028060 -0.752804 -1.842517
3.189668 -0.790833 -1.838936
3.398978 -0.839265 -1.854505
3.598578 -0.886212 -1.854115
3.820714 -0.938471 -1.856047
4.078769 -0.998405 -1.863790
4.322721 -1.055982 -1.853244
4.632079 -1.128787 -1.856653
4.982128 -1.210302 -1.861398
5.389867 -1.306236 -1.869594
5.664904 -1.371798 -1.814769
5.696667 -1.380198 -1.677135
6.377219 -1.539993 -1.714113
7.968841 -1.910244 -1.938471
9.012200 -2.155513 -1.966672
10.305446 -2.459677 -1.993409
12.006970 -2.802556 -2.023087
0.000480 -0.062487 -0.001508
11.079236 -2.596956 -1.326965
11.126701 -2.611916 -1.064859
13.904861 -3.251071 -0.997074
13.906949 -3.256680 -0.664954
13.928816 -3.266825 -0.331373
13.953416 -3.275074 0.000451
13.946532 -3.278625 0.332736
13.955398 -3.285825 0.668364
13.965066 -3.290633 1.002714
13.923895 -3.286258 1.333817
0.000480 -0.062487 -0.001508
22.744045 -5.341037 3.283108
22.484976 -5.289217 3.794295
0.000480 -0.062487 -0.001508
3.017325 -0.768522 -1.838435
3.188798 -0.809837 -1.840893
3.387561 -0.857069 -1.850749
3.595490 -0.907179 -1.855009
3.820886 -0.961564 -1.858613
4.076694 -1.023284 -1.865416
4.320508 -1.081559 -1.854785
4.625876 -1.155317 -1.856655
4.973402 -1.239267 -1.860715
5.384473 -1.337565 -1.870236
5.661005 -1.405153 -1.815963
5.696237 -1.415615 -1.679340
6.372353 -1.577429 -1.715126
7.963426 -1.958705 -1.939858
9.012936 -2.211966 -1.969585
10.300614 -2.522922 -1.995266
11.981377 -2.869238 -2.021474
10.852389 -2.608751 -1.566521
10.884614 -2.618335 -1.305426
10.993589 -2.647982 -1.053549
13.910943 -3.339302 -0.998893
13.911646 -3.342043 -0.666077
13.931556 -3.351891 -0.331891
13.951639 -3.361799 0.000443
13.955039 -3.365190 0.333379
13.963811 -3.372422 0.669663
13.967040 -3.378364 1.004241
13.931647 -3.375110 1.336412
23.135914 -5.568126 2.782838
22.845270 -5.507415 3.302314
0.000465 -0.062356 -0.001502
22.780703 -5.504696 4.414590
3.018099 -0.787482 -1.841494
3.192793 -0.830657 -1.845790
3.384505 -0.877434 -1.851687
3.597373 -0.930044 -1.858598
3.815652 -0.983421 -1.858613
4.065751 -1.045309 -1.862975
4.317977 -1.107909 -1.856326
4.626738 -1.183546 -1.859563
4.970202 -1.268644 -1.862083
5.378879 -1.368856 -1.870877
5.669859 -1.441641 -1.821323
5.688358 -1.448260 -1.679342
6.371045 -1.615795 -1.717153
7.967481 -2.008067 -1.943547
9.006497 -2.263512 -1.970837
10.292434 -2.581645 -1.996381
11.972199 -2.941974 -2.022778
0.000474 -0.062243 -0.001499
10.795876 -2.665026 -1.296628
10.877412 -2.688718 -1.043910
13.917068 -3.425298 -1.000714
13.919129 -3.430949 -0.667387
13.939594 -3.438502 -0.332547
13.957659 -3.448047 0.000438
0.000474 -0.062243 -0.001499
0.000474 -0.062243 -0.001499
13.970963 -3.464240 1.005909
13.940016 -3.459298 1.339008
23.227350 -5.731246 2.797702
22.582695 -5.582291 3.268861
22.643755 -5.601430 3.831577
22.812004 -5.651068 4.426799
3.015684 -0.804612 -1.842514
3.178297 -0.845833 -1.839912
3.378177 -0.895755 -1.850747
3.590726 -0.949545 -1.857700
3.810288 -1.005248 -1.858613
4.060029 -1.068571 -1.862975
4.313864 -1.132317 -1.857098
4.618390 -1.209582 -1.858836
4.964988 -1.297554 -1.862767
5.371249 -1.399653 -1.870877
5.687759 -1.480597 -1.829661
5.700795 -1.485978 -1.685405
6.356372 -1.650919 -1.715638
7.948594 -2.051879 -1.941707
9.004680 -2.319627 -1.973336
10.290648 -2.645864 -1.998978
11.948264 -3.006739 -2.021490
0.000482 -0.062130 -0.001495
0.000482 -0.062130 -0.001495
0.000482 -0.062130 -0.001495
13.922646 -3.511461 -1.002533
13.925326 -3.514726 -0.668606
13.952904 -3.526746 -0.333341
13.967052 -3.535458 0.000431
0.000482 -0.062130 -0.001495
0.000482 -0.062130 -0.001495
13.978258 -3.551259 1.007855
13.942824 -3.547609 1.341229
22.560333 -5.706128 2.721168
23.513020 -5.953229 3.408425
21.875465 -5.551080 3.706947
22.985310 -5.833870 4.466802
3.007871 -0.821500 -1.840471
3.175283 -0.864973 -1.840891
3.371452 -0.915211 -1.849807
3.585406 -0.970706 -1.857700
3.801107 -1.026802 -1.856901
4.061066 -1.094308 -1.866228
4.302060 -1.156380 -1.854785
4.607910 -1.235920 -1.857384
4.955750 -1.326385 -1.862085
5.363229 -1.431370 -1.870879
5.686655 -1.516079 -1.832046
5.697822 -1.521058 -1.687059
6.337464 -1.686059 -1.713109
7.946081 -2.101283 -1.944016
8.996815 -2.374326 -1.974588
10.280849 -2.708194 -2.000095
11.945900 -3.081294 -2.024090
10.723768 -2.776394 -1.554585
0.000469 -0.061996 -0.001490
10.792397 -2.799802 -1.038729
13.929007 -3.600728 -1.004493
13.931708 -3.604024 -0.669917
13.957304 -3.615737 -0.333953
13.973349 -3.625037 0.000424
0.000469 -0.061996 -0.001490
13.981385 -3.634925 0.673369
13.986304 -3.641397 1.009942
13.954690 -3.638521 1.344381
23.221087 -6.017884 2.805104
21.239096 -5.517455 3.083268
0.000469 -0.061996 -0.001490
22.438675 -5.838174 4.367099
3.003457 -0.838678 -1.840471
3.173986 -0.883983 -1.842849
3.371618 -0.935807 -1.852623
3.578384 -0.990752 -1.856802
3.798992 -1.049447 -1.858612
4.046414 -1.114541 -1.862163
4.295692 -1.181001 -1.854786
4.597464 -1.261351 -1.855930
4.946793 -1.353426 -1.861402
5.342412 -1.458725 -1.866400
5.680030 -1.549141 -1.832643
5.691465 -1.553212 -1.687613
6.335488 -1.724346 -1.715136
7.936454 -2.145970 -1.944481
8.989426 -2.425861 -1.975839
10.277323 -2.768414 -2.002322
11.932143 -3.150871 -2.024747
10.716115 -2.838066 -1.555705
10.732005 -2.846195 -1.294564
10.786095 -2.864263 -1.039664
0.000478 -0.061883 -0.001486
13.936224 -3.690581 -0.671136
13.955958 -3.700938 -0.334425
13.974528 -3.708411 0.000416
0.000478 -0.061883 -0.001486
13.995368 -3.724325 0.675040
13.991194 -3.725858 1.011748
13.965320 -3.724313 1.347348
0.000478 -0.061883 -0.001486
21.137436 -5.617179 3.072941
21.763111 -5.789775 3.698796
22.306240 -5.941092 4.347809
3.002250 -0.856701 -1.842509
3.159065 -0.899418 -1.836970
3.364834 -0.954630 -1.851684
3.571247 -1.010747 -1.855905
3.794983 -1.071634 -1.859467
4.045380 -1.139796 -1.864602
4.289168 -1.205575 -1.854786
4.597671 -1.289583 -1.858839
4.944500 -1.384075 -1.863455
5.347092 -1.492754 -1.870882
0.000463 -0.061752 -0.001481
5.689945 -1.588804 -1.689819
6.325823 -1.760668 -1.715140
7.914560 -2.190353 -1.942182
8.984695 -2.481558 -1.977923
10.270579 -2.831755 -2.004180
11.910348 -3.218372 -2.024108
10.709024 -2.903983 -1.557102
10.727319 -2.910860 -1.295962
10.773625 -2.927200 -1.040043
0.000463 -0.061752 -0.001481
13.940193 -3.777303 -0.672354
13.965696 -3.789346 -0.335175
13.979691 -3.798325 0.000409
13.994559 -3.804947 0.336734
0.000463 -0.061752 -0.001481
13.998123 -3.816411 1.013833
13.962581 -3.812122 1.349197
23.924068 -6.492396 2.898783
0.000463 -0.061752 -0.001481
21.315262 -5.807178 3.628360
21.564247 -5.878369 4.209569
2.999156 -0.874829 -1.843529
3.154040 -0.918010 -1.836970
3.354350 -0.973043 -1.848866
3.565558 -1.031788 -1.855905
3.789103 -1.093333 -1.859467
4.042630 -1.163897 -1.866229
4.284094 -1.231356 -1.855557
4.590520 -1.315897 -1.858839
4.938602 -1.412876 -1.864139
5.329627 -1.520882 -1.867683
5.682775 -1.619728 -1.839197
5.699577 -1.626479 -1.695330
6.317785 -1.797427 -1.715648
7.905924 -2.236780 -1.943108
8.974813 -2.532578 -1.978760
10.262546 -2.891011 -2.005668
11.899031 -3.290896 -2.025414
10.703956 -2.968572 -1.558779
10.715980 -2.975870 -1.296665
10.767979 -2.994071 -1.041164
11.453864 -3.183027 -0.830041
13.944891 -3.867155 -0.673667
13.972941 -3.877457 -0.335880
13.990749 -3.887588 0.000401
13.991395 -3.893041 0.337189
0.000472 -0.061639 -0.001478
14.003222 -3.904203 1.015778
13.976000 -3.899377 1.352534
20.571199 -5.718203 2.496202
20.830475 -5.797352 3.037798
21.229582 -5.911271 3.619255
0.000472 -0.061639 -0.001478
2.992913 -0.890970 -1.842509
3.162647 -0.939207 -1.844804
3.352621 -0.992581 -1.850744
3.560076 -1.051541 -1.855904
3.783095 -1.114998 -1.859467
4.030933 -1.185548 -1.863789
4.275726 -1.254637 -1.854788
4.579648 -1.341183 -1.857387
4.928936 -1.440652 -1.863457
5.317496 -1.550397 -1.866406
5.697610 -1.658989 -1.846941
5.701591 -1.662265 -1.698639
6.309566 -1.834174 -1.716158
7.891394 -2.281598 -1.942652
8.976941 -2.590407 -1.982506
10.241781 -2.950624 -2.004935
11.886510 -3.358709 -2.026394
10.698482 -3.033189 -1.560454
10.712945 -3.039243 -1.298295
10.764861 -3.057734 -1.042470
11.322327 -3.217187 -0.821835
13.954222 -3.953400 -0.675165
13.975763 -3.964686 -0.336490
13.993523 -3.974934 0.000394
0.000457 -0.061508 -0.001472
0.000457 -0.061508 -0.001472
14.011602 -3.993254 1.018002
13.981759 -3.990169 1.355312
20.658777 -5.870294 2.510832
20.930557 -5.954628 3.057280
0.000457 -0.061508 -0.001472
20.143385 -5.744440 3.944582
2.989590 -0.909045 -1.843528
3.155724 -0.957356 -1.843825
3.353828 -1.014249 -1.854499
3.561027 -1.074475 -1.859493
3.771577 -1.135817 -1.856902
4.031436 -1.210623 -1.867043
4.268571 -1.279843 -1.854788
4.579123 -1.370229 -1.860296
4.917304 -1.467846 -1.862091
5.310398 -1.582307 -1.867048
5.691703 -1.693681 -1.848134
0.000466 -0.061395 -0.001469
6.304506 -1.873035 -1.717679
7.876622 -2.326330 -1.942197
8.966013 -2.643010 -1.983345
10.241990 -3.014318 -2.008274
11.883821 -3.433865 -2.029319
10.696448 -3.098932 -1.562688
10.708463 -3.106402 -1.299925
10.771787 -3.128487 -1.044890
11.248317 -3.266322 -0.817804
13.957783 -4.043640 -0.676477
13.979291 -4.055079 -0.337150
13.999622 -4.063558 0.000384
13.990565 -4.066278 0.338239
0.000466 -0.061395 -0.001469
14.013675 -4.080880 1.019806
20.175415 -5.855943 1.959549
0.000466 -0.061395 -0.001469
0.000466 -0.061395 -0.001469
0.000466 -0.061395 -0.001469
21.472710 -6.257095 4.212101
2.981339 -0.925147 -1.841486
3.145469 -0.973907 -1.840885
3.343202 -1.031937 -1.851682
3.556842 -1.095321 -1.860389
3.767051 -1.157876 -1.857756
4.019466 -1.232129 -1.864603
4.256170 -1.302719 -1.852477
4.569730 -1.395925 -1.859570
4.916334 -1.498103 -1.864828
5.301533 -1.612711 -1.867049
5.696870 -1.730588 -1.852901
0.000450 -0.061264 -0.001463
6.282833 -1.905898 -1.714645
7.867182 -2.372604 -1.943124
8.960382 -2.697213 -1.985429
10.234231 -3.075862 -2.010131
0.000450 -0.061264 -0.001463
0.000450 -0.061264 -0.001463
10.707930 -3.172861 -1.302019
10.767338 -3.194214 -1.046197
11.174133 -3.314724 -0.813775
13.965327 -4.132753 -0.677977
13.990609 -4.145443 -0.337992
14.007071 -4.152932 0.000376
0.000450 -0.061264 -0.001463
14.015754 -4.166139 0.681426
14.020914 -4.170326 1.022031
20.007965 -5.932610 1.946507
19.956732 -5.925181 2.433584
21.205233 -6.296089 3.107666
19.649565 -5.846173 3.366414
19.958725 -5.944800 3.921567
2.977979 -0.942663 -1.842506
3.138487 -0.991375 -1.839905
3.335861 -1.050535 -1.850743
3.545700 -1.114136 -1.857699
3.765881 -1.180970 -1.860323
4.017702 -1.257387 -1.867043
4.259562 -1.330234 -1.857102
4.565548 -1.423149 -1.861026
4.905916 -1.526568 -1.864145
5.287078 -1.641456 -1.865132
5.699961 -1.767051 -1.857072
5.693047 -1.767161 -1.704708
6.281366 -1.944682 -1.717179
7.866377 -2.423010 -1.946355
8.935219 -2.747364 -1.983358
10.218060 -3.136953 -2.010510
10.712639 -3.234949 -1.835591
10.722871 -3.242073 -1.571883
10.706979 -3.239416 -1.304113
10.758674 -3.258859 -1.047134
0.000459 -0.061151 -0.001460
13.972290 -4.222077 -0.679477
13.993693 -4.233790 -0.338652
14.011292 -4.244391 0.000367
13.999064 -4.243421 0.339569
14.018668 -4.254632 0.682723
14.024974 -4.261884 1.024114
19.864059 -6.018442 1.935883
0.000459 -0.061151 -0.001460
20.215744 -6.135541 2.967788
0.000459 -0.061151 -0.001460
0.000459 -0.061151 -0.001460
2.975981 -0.961173 -1.844545
3.139604 -1.011882 -1.843824
3.329930 -1.070173 -1.850743
3.541096 -1.135535 -1.858596
3.759171 -1.203156 -1.860324
4.012500 -1.280901 -1.867857
4.248418 -1.354265 -1.855561
4.564519 -1.452255 -1.863937
4.897414 -1.554668 -1.864148
5.284849 -1.674862 -1.867694
5.704360 -1.805176 -1.861840
5.699682 -1.804846 -1.709670
6.270083 -1.981774 -1.717183
7.847072 -2.466421 -1.944978
8.930824 -2.802072 -1.985858
10.207703 -3.197911 -2.011999
10.703055 -3.301151 -1.837219
10.715741 -3.307055 -1.573559
10.703132 -3.307336 -1.305975
10.770002 -3.331747 -1.050112
10.952073 -3.389148 -0.800424
13.979839 -4.314618 -0.681068
13.999310 -4.325922 -0.339405
14.019510 -4.334774 0.000357
0.000446 -0.061017 -0.001455
14.018406 -4.345188 0.683922
14.032988 -4.352344 1.026478
0.000446 -0.061017 -0.001455
0.000446 -0.061017 -0.001455
20.178549 -6.251113 2.967489
19.529659 -6.059538 3.357613
21.887375 -6.792141 4.315788
2.972400 -0.978679 -1.845565
3.132401 -1.029288 -1.842843
3.325738 -1.089708 -1.851681
3.533142 -1.155243 -1.857699
3.754445 -1.224519 -1.861179
4.003676 -1.303320 -1.867046
4.244422 -1.379666 -1.857103
4.553113 -1.476472 -1.862483
4.892313 -1.583823 -1.865517
5.264914 -1.700841 -1.863857
5.709115 -1.841413 -1.866607
5.689540 -1.837493 -1.709673
6.253717 -2.014881 -1.715667
7.844229 -2.514903 -1.947749
8.900446 -2.847073 -1.982540
10.201268 -3.258227 -2.014227
10.742694 -3.380662 -1.847274
0.000455 -0.060904 -0.001451
10.701357 -3.374067 -1.308071
10.770023 -3.399468 -1.051977
0.000455 -0.060904 -0.001451
13.983743 -4.403790 -0.682476
14.005831 -4.413365 -0.340156
14.017582 -4.422407 0.000347
14.023680 -4.429698 0.341362
14.032408 -4.435135 0.685778
14.038537 -4.442453 1.028699
0.000455 -0.060904 -0.001451
21.805264 -6.879201 2.673045
19.581219 -6.191288 2.884728
19.320742 -6.113485 3.327416
20.474869 -6.482933 4.044156
2.967232 -0.995130 -1.845565
3.123616 -1.045581 -1.840884
3.318273 -1.107609 -1.850743
3.532070 -1.176423 -1.860389
3.747699 -1.245994 -1.861180
3.996438 -1.326206 -1.867045
4.242273 -1.404885 -1.859416
4.541326 -1.501397 -1.861030
4.887060 -1.612976 -1.866888
5.262606 -1.733288 -1.866419
5.716952 -1.879900 -1.872564
5.692031 -1.874168 -1.713533
6.234989 -2.048371 -1.713646
7.829965 -2.559885 -1.947754
8.893077 -2.902660 -1.984625
10.182137 -3.318554 -2.014237
0.000464 -0.060791 -0.001447
10.726764 -3.445449 -1.580809
10.705408 -3.440786 -1.310859
10.766395 -3.464196 -1.053470
10.907314 -3.512954 -0.800025
13.989765 -4.491317 -0.683977
14.014835 -4.504659 -0.341000
14.028454 -4.514398 0.000339
14.029580 -4.517486 0.342094
14.035552 -4.524801 0.687165
14.049191 -4.534566 1.031342
0.000464 -0.060791 -0.001447
19.931850 -6.419455 2.447688
19.562590 -6.309217 2.887214
20.011961 -6.460496 3.452968
19.432373 -6.278924 3.845152
2.958344 -1.011516 -1.843523
3.119388 -1.064501 -1.841864
3.317027 -1.128754 -1.853558
3.525403 -1.197235 -1.860391
3.738871 -1.267510 -1.860325
3.992582 -1.350198 -1.868674
4.228968 -1.428196 -1.857107
4.538034 -1.529911 -1.863214
4.874452 -1.639787 -1.865521
5.247190 -1.762594 -1.864502
5.718777 -1.917782 -1.876737
5.692481 -1.910350 -1.716843
6.224948 -2.085802 -1.714157
7.813599 -2.604191 -1.947299
8.885871 -2.956715 -1.986711
10.157591 -3.375146 -2.013135
10.816474 -3.540121 -1.866732
11.055886 -3.619291 -1.632269
10.709747 -3.512017 -1.313881
10.774461 -3.537055 -1.056264
10.898670 -3.579252 -0.800872
13.999354 -4.585756 -0.685756
14.016761 -4.596811 -0.341707
14.034919 -4.605425 0.000329
14.035231 -4.610977 0.342873
14.041119 -4.618323 0.688740
14.053568 -4.625109 1.033563
18.818335 -6.180004 1.847066
21.695757 -7.124120 2.669508
19.795595 -6.509345 2.927029
0.000449 -0.060660 -0.001442
22.259228 -7.329205 4.413168
2.954469 -1.028953 -1.844544
3.123502 -1.085581 -1.847741
3.315873 -1.149372 -1.856375
3.518787 -1.217374 -1.860390
3.735292 -1.290015 -1.862036
3.981610 -1.371882 -1.867048
4.222752 -1.452952 -1.857877
4.527726 -1.555297 -1.862489
4.867061 -1.668282 -1.866207
5.239100 -1.793232 -1.865145
5.726104 -1.956539 -1.882694
5.692690 -1.946595 -1.720153
6.203998 -2.118424 -1.711630
7.808064 -2.652067 -1.949610
8.867187 -3.007069 -1.986302
10.155131 -3.439023 -2.016475
10.751262 -3.587436 -1.858967
10.760461 -3.592552 -1.591674
10.706693 -3.579071 -1.315977
10.780732 -3.607593 -1.058871
10.893393 -3.646799 -0.801996
14.009126 -4.678029 -0.687536
14.022698 -4.687958 -0.342507
14.037022 -4.695431 0.000318
0.000458 -0.060547 -0.001438
14.052590 -4.711513 0.690593
14.057370 -4.715855 1.035784
20.674839 -6.915449 2.033251
24.882328 -8.320194 3.067587
22.058689 -7.387197 3.267991
20.790892 -6.974202 3.600885
19.097300 -6.418459 3.793235
2.953724 -1.047439 -1.847602
3.112579 -1.101748 -1.844802
3.304509 -1.166617 -1.853558
3.515464 -1.238620 -1.862185
3.724720 -1.310216 -1.860326
3.975726 -1.395234 -1.867862
4.216425 -1.477704 -1.858649
4.524333 -1.582984 -1.864672
4.864858 -1.698549 -1.868945
5.238000 -1.826253 -1.868347
5.727768 -1.993621 -1.886867
5.692668 -1.982893 -1.723463
6.197544 -2.155835 -1.713153
7.800382 -2.699328 -1.951460
8.857495 -3.060445 -1.987973
10.133650 -3.496665 -2.016114
10.732635 -3.649751 -1.859300
10.743707 -3.655563 -1.592241
10.720156 -3.651866 -1.320158
10.767695 -3.672005 -1.059624
10.904715 -3.720104 -0.804374
14.014505 -4.769284 -0.689131
14.029944 -4.779954 -0.343354
14.053692 -4.790700 0.000309
0.000443 -0.060416 -0.001433
14.063437 -4.804971 0.692446
14.066250 -4.808692 1.038425
19.842686 -6.766433 1.955100
20.132143 -6.872137 2.486454
23.143576 -7.895633 3.435390
21.432966 -7.324887 3.719293
0.000443 -0.060416 -0.001433
2.944739 -1.063193 -1.845562
3.098265 -1.116697 -1.839903
3.298082 -1.185492 -1.853558
3.498464 -1.255238 -1.856802
3.726026 -1.334442 -1.864605
3.973153 -1.419737 -1.870302
4.206453 -1.501231 -1.857881
4.517261 -1.609482 -1.865401
4.855330 -1.726385 -1.868947
5.225964 -1.855637 -1.867710
5.729181 -2.030782 -1.891040
5.701500 -2.022387 -1.729527
6.183532 -2.190705 -1.712649
7.785073 -2.744070 -1.951467
8.836362 -3.109970 -1.987149
10.121136 -3.557383 -2.017605
10.743562 -3.722182 -1.864819
10.745348 -3.724910 -1.595590
10.725631 -3.722384 -1.323413
10.771226 -3.742181 -1.062047
0.000452 -0.060303 -0.001430
14.013621 -4.858814 -0.690447
14.034704 -4.871543 -0.344154
14.058395 -4.882433 0.000298
14.066113 -4.890601 0.345582
14.062335 -4.894820 0.693739
14.066969 -4.899193 1.040507
19.621117 -6.817527 1.937034
20.021238 -6.963193 2.477594
21.836193 -7.593273 3.247603
0.000452 -0.060303 -0.001430
19.076714 -6.656302 3.803935
2.942150 -1.081118 -1.847601
3.097089 -1.136118 -1.842843
3.291561 -1.204340 -1.853559
3.499969 -1.278169 -1.861289
3.713503 -1.353956 -1.862039
3.963300 -1.442554 -1.869491
4.194598 -1.524075 -1.856341
4.502970 -1.633475 -1.863220
4.847129 -1.755646 -1.869633
5.220895 -1.887434 -1.869632
5.715939 -2.062971 -1.890448
5.698818 -2.059211 -1.732286
6.171166 -2.226138 -1.712654
7.770834 -2.790699 -1.951933
8.825498 -3.164794 -1.988819
10.113188 -3.621793 -2.020205
0.000438 -0.060169 -0.001424
0.000438 -0.060169 -0.001424
10.726892 -3.791777 -1.326205
10.772397 -3.811843 -1.064283
0.000438 -0.060169 -0.001424
14.021603 -4.951781 -0.692228
14.044516 -4.965308 -0.345093
14.063534 -4.977493 0.000286
0.000438 -0.060169 -0.001424
14.073877 -4.989444 0.695684
14.073787 -4.994957 1.043147
19.360867 -6.856494 1.915247
19.986790 -7.080187 2.478268
21.529579 -7.630572 3.208576
0.000438 -0.060169 -0.001424
0.000438 -0.060169 -0.001424
2.932814 -1.097285 -1.845562
3.092297 -1.154922 -1.843823
3.288034 -1.224887 -1.855437
3.494362 -1.299374 -1.862187
3.709174 -1.377046 -1.863751
3.960428 -1.467046 -1.871931
4.191043 -1.550646 -1.858654
4.498824 -1.661903 -1.865404
4.835535 -1.782777 -1.868953
5.222457 -1.922698 -1.874116
5.711147 -2.099273 -1.892834
5.705325 -2.098332 -1.737800
6.158223 -2.262588 -1.712660
7.758662 -2.836581 -1.952863
8.813007 -3.217398 -1.990074
10.096204 -3.681141 -2.020955
0.000447 -0.060056 -0.001421
10.735369 -3.861881 -1.600617
10.738255 -3.867145 -1.330386
10.772488 -3.883543 -1.066522
0.000447 -0.060056 -0.001421
14.031877 -5.048792 -0.694195
14.045324 -5.059133 -0.345848
14.070779 -5.070984 0.000275
0.000447 -0.060056 -0.001421
0.000447 -0.060056 -0.001421
14.082728 -5.089192 1.045925
19.325186 -6.969061 1.915595
19.922356 -7.190450 2.475453
19.811260 -7.154636 2.958394
21.146929 -7.641346 3.691961
19.540333 -7.073108 3.912454
2.936486 -1.117509 -1.851681
3.081016 -1.170803 -1.840884
3.281287 -1.243678 -1.855438
3.485486 -1.318730 -1.861290
3.696427 -1.396400 -1.861186
3.947120 -1.487839 -1.869494
4.182402 -1.574624 -1.858656
4.487771 -1.687008 -1.864679
4.825522 -1.810443 -1.868955
5.211637 -1.952595 -1.874119
5.701108 -2.132642 -1.893433
5.704330 -2.134953 -1.741110
6.139987 -2.295888 -1.711145
7.746195 -2.882398 -1.953791
8.803879 -3.271311 -1.992161
10.084439 -3.742455 -2.022817
11.710323 -4.280720 -2.045006
10.731948 -3.930218 -1.603410
10.753531 -3.942264 -1.335032
10.778386 -3.955518 -1.069316
0.000432 -0.059925 -0.001416
14.034867 -5.140924 -0.695792
14.052021 -5.152713 -0.346741
14.075546 -5.164052 0.000263
14.068058 -5.166933 0.347727
0.000432 -0.059925 -0.001416
14.087303 -5.182335 1.048424
0.000432 -0.059925 -0.001416
0.000432 -0.059925 -0.001416
0.000432 -0.059925 -0.001416
21.195637 -7.796678 3.708157
19.902054 -7.332413 3.993204
2.915813 -1.128940 -1.842501
3.076195 -1.188987 -1.841863
3.279373 -1.264237 -1.858254
3.479876 -1.339282 -1.862189
3.690367 -1.418156 -1.862043
3.942267 -1.511679 -1.871122
4.177064 -1.599823 -1.860199
4.483581 -1.714633 -1.866864
4.820660 -1.840031 -1.871009
5.189993 -1.978502 -1.870282
5.703405 -2.170607 -1.898202
5.710315 -2.174309 -1.746625
6.134262 -2.333760 -1.713175
7.735288 -2.928846 -1.955181
8.794408 -3.325218 -1.994248
10.070437 -3.803063 -2.024307
11.695094 -4.351344 -2.046639
10.741084 -4.003412 -1.608149
10.753377 -4.012209 -1.337824
10.776336 -4.024948 -1.071369
12.192754 -4.548579 -0.908479
14.042865 -5.235330 -0.697667
14.058101 -5.246551 -0.347635
14.083460 -5.258737 0.000251
14.077806 -5.262270 0.348690
0.000441 -0.059812 -0.001412
14.093119 -5.276384 1.051063
0.000441 -0.059812 -0.001412
21.071869 -7.876494 2.629332
0.000441 -0.059812 -0.001412
21.713129 -8.127422 3.806766
0.000441 -0.059812 -0.001412
2.919273 -1.149190 -1.848621
3.072916 -1.207781 -1.843823
3.264104 -1.279873 -1.853560
3.470770 -1.358536 -1.861293
3.689237 -1.441778 -1.865464
3.937242 -1.535495 -1.872749
4.168135 -1.623727 -1.860201
4.472223 -1.739633 -1.866138
4.812074 -1.868282 -1.871695
5.180634 -2.008893 -1.870926
5.694715 -2.204621 -1.899396
5.714246 -2.213135 -1.751590
6.117432 -2.367536 -1.712166
7.725919 -2.975955 -1.957031
8.769959 -3.373590 -1.993009
10.052388 -3.862247 -2.025059
11.666493 -4.417101 -2.046004
10.757145 -4.079613 -1.614001
10.760221 -4.085079 -1.341544
10.790635 -4.100780 -1.075093
0.000450 -0.059699 -0.001408
14.046487 -5.328596 -0.699355
14.067321 -5.342054 -0.348623
14.090745 -5.353693 0.000238
14.085032 -5.357185 0.349607
0.000450 -0.059699 -0.001408
14.102063 -5.372097 1.053980
19.845787 -7.543849 1.979694
19.379965 -7.375957 2.423294
0.000450 -0.059699 -0.001408
0.000450 -0.059699 -0.001408
20.191963 -7.702803 4.068740
2.912974 -1.165871 -1.848623
3.064620 -1.224706 -1.842844
3.257036 -1.298532 -1.853562
3.466561 -1.379637 -1.863087
3.671098 -1.459018 -1.860334
3.930131 -1.559354 -1.873565
4.165945 -1.650197 -1.863285
4.465963 -1.766564 -1.867596
4.804774 -1.898012 -1.873066
5.171108 -2.039251 -1.871570
5.657321 -2.227688 -1.891064
5.717506 -2.253050 -1.756552
6.104044 -2.402598 -1.712172
7.715759 -3.024413 -1.958884
8.757461 -3.428245 -1.994682
10.024151 -3.919564 -2.023959
11.654135 -4.488989 -2.048286
10.757171 -4.152387 -1.617629
10.757288 -4.154617 -1.344106
10.795090 -4.173347 -1.077888
0.000435 -0.059568 -0.001403
14.056991 -5.424940 -0.701418
14.070299 -5.435688 -0.349472
14.092701 -5.449920 0.000225
14.093512 -5.453084 0.350569
14.102479 -5.462198 0.704473
14.109407 -5.470532 1.056898
19.403221 -7.508605 1.939862
0.000435 -0.059568 -0.001403
19.009121 -7.368822 2.863026
19.974461 -7.748073 3.517296
19.911037 -7.727704 4.020917
2.901521 -1.181128 -1.845561
3.064142 -1.245245 -1.846761
3.252928 -1.318985 -1.855440
3.457018 -1.399418 -1.862192
3.669465 -1.483254 -1.863757
3.916321 -1.579848 -1.871127
4.152997 -1.673421 -1.861746
4.454025 -1.792229 -1.866872
4.792368 -1.924850 -1.872387
5.164567 -2.071828 -1.873494
5.640782 -2.259678 -1.889876
5.717333 -2.290714 -1.760416
6.090032 -2.438637 -1.712177
7.703991 -3.070784 -1.960274
8.745193 -3.481328 -1.996353
9.959647 -3.960591 -2.015457
11.631322 -4.559339 -2.048948
10.759290 -4.224141 -1.621535
10.756880 -4.227562 -1.347131
10.790925 -4.245114 -1.079942
0.000444 -0.059455 -0.001399
14.058436 -5.521132 -0.703109
14.077282 -5.534149 -0.350459
14.098706 -5.545353 0.000212
14.094813 -5.549541 0.351390
14.103684 -5.558706 0.706136
14.115211 -5.566078 1.059674
20.866165 -8.208282 2.090867
19.202465 -7.566328 2.411849
0.000444 -0.059455 -0.001399
20.236759 -7.983005 3.571453
19.903612 -7.860625 4.028672
2.896635 -1.198332 -1.846583
3.055659 -1.262114 -1.845784
3.245617 -1.337560 -1.855441
3.449238 -1.419169 -1.862193
3.661211 -1.504239 -1.863759
3.909197 -1.602913 -1.871942
4.140209 -1.695827 -1.860208
4.442242 -1.817032 -1.866147
4.786771 -1.954345 -1.874440
5.158177 -2.103497 -1.875418
5.622712 -2.289896 -1.888095
5.718688 -2.329145 -1.764829
6.079831 -2.474969 -1.713195
7.688339 -3.115684 -1.960743
8.721712 -3.530055 -1.995531
9.927896 -4.014109 -2.013619
10.086444 -4.028430 -1.780986
10.759094 -4.295332 -1.625164
10.758566 -4.299491 -1.350387
10.799987 -4.320204 -1.083295
0.000431 -0.059321 -0.001394
14.065764 -5.617276 -0.705078
14.080857 -5.628967 -0.351355
14.105954 -5.641778 0.000198
14.100135 -5.645201 0.352306
14.110778 -5.655157 0.708080
14.118511 -5.661120 1.062310
19.095903 -7.643819 1.917679
19.205065 -7.694993 2.417636
19.168463 -7.684371 2.900022
19.466587 -7.810892 3.443268
19.809069 -7.955331 4.018641
2.894810 -1.216776 -1.849643
3.047047 -1.278900 -1.844804
3.239840 -1.356758 -1.856381
3.439683 -1.438208 -1.861297
3.654505 -1.525837 -1.864616
3.895146 -1.623219 -1.869503
4.134134 -1.720885 -1.861751
4.433773 -1.843149 -1.866877
4.768805 -1.978939 -1.871708
5.144564 -2.132331 -1.874782
5.608003 -2.321388 -1.887504
5.723340 -2.369096 -1.770344
6.065814 -2.509799 -1.713200
7.674205 -3.161222 -1.961671
8.692517 -3.576416 -1.993463
9.919546 -4.076990 -2.016592
0.000440 -0.059208 -0.001390
0.000440 -0.059208 -0.001390
10.761626 -4.372319 -1.353875
10.802996 -4.393314 -1.086091
0.000440 -0.059208 -0.001390
14.074311 -5.714432 -0.707141
14.093080 -5.727732 -0.352483
14.116246 -5.739954 0.000185
14.106692 -5.741866 0.353267
14.119094 -5.752634 0.710116
14.130415 -5.760102 1.065646
19.051933 -7.753530 1.917652
0.000440 -0.059208 -0.001390
19.173801 -7.814533 2.907518
23.360014 -9.517354 4.141771
19.763292 -8.069148 4.018613
2.886507 -1.232651 -1.848624
3.041592 -1.296959 -1.845784
3.233938 -1.375918 -1.857320
3.438311 -1.460564 -1.864887
3.651005 -1.548767 -1.867183
3.896237 -1.649649 -1.874386
4.124510 -1.744542 -1.861754
4.428586 -1.870622 -1.869061
4.768121 -2.010520 -1.875815
5.129014 -2.160338 -1.873505
5.594882 -2.353515 -1.887509
5.733062 -2.411366 -1.777513
6.040867 -2.540149 -1.710168
7.661622 -3.207454 -1.963063
8.664887 -3.623306 -1.991810
9.925310 -4.145873 -2.022524
0.000449 -0.059095 -0.001387
0.000449 -0.059095 -0.001387
10.771565 -4.448331 -1.358292
10.809197 -4.468097 -1.089258
11.046856 -4.567319 -0.834455
14.076667 -5.809616 -0.708927
14.093498 -5.822268 -0.353332
14.107363 -5.830852 0.000169
14.114443 -5.839542 0.354274
14.123050 -5.848866 0.711965
14.134277 -5.856390 1.068422
0.000449 -0.059095 -0.001387
19.882040 -8.230296 2.514537
23.759359 -9.828762 3.611660
0.000449 -0.059095 -0.001387
0.000449 -0.059095 -0.001387
2.879685 -1.249110 -1.848623
3.036014 -1.314978 -1.846764
3.224673 -1.393716 -1.856382
3.431835 -1.480891 -1.865785
3.640701 -1.568942 -1.866329
3.885046 -1.671905 -1.873575
4.118135 -1.769540 -1.863297
4.418097 -1.895978 -1.869065
4.752977 -2.037188 -1.874450
5.122092 -2.191900 -1.875430
5.581563 -2.385549 -1.887513
5.733211 -2.451137 -1.781927
6.022919 -2.573276 -1.709161
7.644594 -3.253463 -1.963531
8.650799 -3.677529 -1.993482
9.920835 -4.212903 -2.026608
10.010900 -4.199398 -1.780049
0.000436 -0.058961 -0.001382
10.760798 -4.516229 -1.360159
10.805695 -4.539276 -1.091498
0.000436 -0.058961 -0.001382
14.070989 -5.901927 -0.710339
14.085939 -5.913940 -0.353998
14.104264 -5.927375 0.000153
14.117850 -5.935959 0.355187
14.117135 -5.941488 0.713347
14.132791 -5.953846 1.070917
20.177179 -8.483403 2.040719
19.356258 -8.144662 2.453826
0.000436 -0.058961 -0.001382
19.310173 -8.141364 3.439942
18.427965 -7.775940 3.764764
2.872579 -1.266047 -1.848624
3.028511 -1.332844 -1.846765
3.215070 -1.412011 -1.855444
3.428276 -1.503180 -1.868478
3.630009 -1.589681 -1.865475
3.872331 -1.692701 -1.871951
4.107901 -1.793801 -1.863299
4.410536 -1.923464 -1.870522
4.738039 -2.062926 -1.873086
5.112820 -2.223586 -1.876713
5.569435 -2.419247 -1.888115
5.735261 -2.490726 -1.786891
6.000772 -2.605813 -1.707142
7.627869 -3.298059 -1.964001
8.637028 -3.730218 -1.995155
9.900375 -4.271374 -2.027361
11.536156 -4.910481 -2.056149
10.761953 -4.587115 -1.641071
10.765303 -4.592980 -1.364114
10.808286 -4.615554 -1.094481
0.000445 -0.058848 -0.001378
14.048973 -5.990620 -0.711010
14.063842 -6.002721 -0.354341
14.073917 -6.009916 0.000136
14.069858 -6.014033 0.354841
14.087515 -6.027348 0.713607
14.098598 -6.034986 1.070899
19.996330 -8.543300 2.027301
0.000445 -0.058848 -0.001378
19.954256 -8.537899 3.047821
0.000445 -0.058848 -0.001378
20.255262 -8.682632 4.148573
2.878247 -1.287855 -1.856785
3.021133 -1.350140 -1.846766
3.203969 -1.428975 -1.853567
3.406747 -1.517131 -1.861302
3.626120 -1.612569 -1.868044
3.861165 -1.714115 -1.871139
4.099549 -1.818037 -1.864073
4.401444 -1.949441 -1.871252
4.733326 -2.093013 -1.875825
5.100281 -2.252867 -1.876718
5.552233 -2.449631 -1.886928
5.735302 -2.529679 -1.791306
5.985992 -2.640182 -1.707147
7.609097 -3.341805 -1.964010
8.621142 -3.782092 -1.996413
9.883173 -4.331298 -2.028854
11.522535 -4.982893 -2.058756
10.761199 -4.659781 -1.644979
10.760932 -4.664142 -1.366908
10.818479 -4.693269 -1.098207
0.000429 -0.058717 -0.001373
14.451545 -6.258754 -0.733156
0.000429 -0.058717 -0.001373
0.000429 -0.058717 -0.001373
0.000429 -0.058717 -0.001373
19.135887 -8.296430 0.972199
19.487816 -8.452023 1.484413
19.559492 -8.491052 1.987844
21.018616 -9.128873 2.677895
19.886932 -8.644690 3.045006
22.739344 -9.885701 4.070909
0.000429 -0.058717 -0.001373
2.863211 -1.300840 -1.851684
3.012047 -1.366692 -1.845787
3.192801 -1.445877 -1.851692
3.404861 -1.539458 -1.864893
3.608821 -1.629685 -1.863768
3.858276 -1.739112 -1.874395
4.091043 -1.842223 -1.864847
4.381958 -1.970908 -1.867620
4.723275 -2.120870 -1.876514
5.091044 -2.283595 -1.878003
5.543629 -2.483732 -1.888720
5.740335 -2.571002 -1.797373
5.974579 -2.676038 -1.708166
7.591859 -3.386219 -1.964480
8.604928 -3.833894 -1.997670
9.860188 -4.388784 -2.029235
11.488558 -5.046666 -2.057799
10.765396 -4.734943 -1.649720
10.772491 -4.742532 -1.371789
10.826317 -4.770465 -1.101748
10.999649 -4.848226 -0.839109
0.000438 -0.058604 -0.001369
0.000438 -0.058604 -0.001369
0.000438 -0.058604 -0.001369
23.800821 -10.457408 0.604137
20.911234 -9.203658 1.065156
19.314867 -8.509581 1.474884
0.000438 -0.058604 -0.001369
23.422112 -10.326335 2.991727
19.438147 -8.583926 2.983698
19.415266 -8.582034 3.484305
18.315718 -8.107001 3.769870
2.856016 -1.317184 -1.851686
3.006063 -1.384590 -1.846768
3.187991 -1.465536 -1.853571
3.393005 -1.557463 -1.863100
3.606328 -1.653233 -1.867192
3.843510 -1.758945 -1.871956
4.075648 -1.863381 -1.862538
4.374278 -1.997487 -1.869078
4.714755 -2.149428 -1.877885
5.076401 -2.311966 -1.877367
5.533062 -2.517035 -1.889917
5.738070 -2.609352 -1.801236
5.948808 -2.705554 -1.705134
7.585014 -3.435288 -1.967715
8.591980 -3.887230 -1.999759
9.844073 -4.449364 -2.031099
11.474092 -5.118979 -2.060407
10.769092 -4.810313 -1.654463
10.770763 -4.815578 -1.375047
10.831798 -4.847095 -1.105104
10.995597 -4.921839 -0.840935
14.324383 -6.400242 -0.730407
0.000423 -0.058473 -0.001364
0.000423 -0.058473 -0.001364
21.019299 -9.386480 0.534698
19.414030 -8.682252 0.991281
19.404451 -8.682110 1.485473
20.674664 -9.255338 2.111828
20.825687 -9.331294 2.666672
18.344868 -8.230560 2.822957
19.291964 -8.660607 3.470974
19.117968 -8.591084 3.945086
2.850289 -1.334182 -1.852706
2.998370 -1.401744 -1.846768
3.178205 -1.483008 -1.852632
3.389214 -1.579045 -1.865793
3.595445 -1.673110 -1.866339
3.836983 -1.782415 -1.873585
4.070235 -1.888964 -1.864853
4.366428 -2.024038 -1.870535
4.704330 -2.177171 -1.878572
5.066790 -2.342582 -1.878651
5.522273 -2.550279 -1.891112
0.000434 -0.058357 -0.001360
5.931703 -2.738837 -1.704634
7.560116 -3.476365 -1.966341
8.584039 -3.942955 -2.003094
9.820426 -4.506660 -2.031482
11.444763 -5.184830 -2.060422
10.772285 -4.885890 -1.659207
10.774008 -4.891210 -1.379002
10.836737 -4.923934 -1.108458
11.003809 -5.001292 -0.843736
14.327730 -6.500522 -0.732474
14.349890 -6.516551 -0.365239
14.392709 -6.538891 0.000103
0.000434 -0.058357 -0.001360
24.279167 -11.011093 1.243209
19.154451 -8.703296 1.470076
19.710350 -8.962539 2.018441
19.056061 -8.675030 2.446245
0.000434 -0.058357 -0.001360
18.927502 -8.628963 3.414171
18.572670 -8.476156 3.842432
2.846035 -1.351877 -1.854748
2.990588 -1.418864 -1.846770
3.171558 -1.501887 -1.853572
3.373878 -1.595430 -1.862205
3.587712 -1.694395 -1.867195
3.827004 -1.804363 -1.873588
4.061303 -1.913005 -1.865626
4.355036 -2.049017 -1.870538
4.690344 -2.203311 -1.877892
5.055274 -2.372378 -1.879296
5.507837 -2.581914 -1.891118
5.760748 -2.699043 -1.817781
5.914412 -2.772013 -1.704134
7.536769 -3.518085 -1.965428
8.568645 -3.995459 -2.004768
9.801797 -4.566290 -2.032976
11.427633 -5.256235 -2.062706
10.774956 -4.961652 -1.663950
10.778563 -4.967874 -1.383190
10.842977 -5.001824 -1.112000
11.002397 -5.076862 -0.845841
14.319459 -6.596048 -0.733982
14.359753 -6.620554 -0.366462
14.391521 -6.638155 0.000086
19.396006 -8.934561 0.495813
23.981409 -11.043268 1.231127
0.000443 -0.058244 -0.001357
0.000443 -0.058244 -0.001357
19.094610 -8.825117 2.457606
18.107378 -8.375720 2.800898
18.499506 -8.563731 3.345690
18.477499 -8.561494 3.832769
2.840081 -1.368819 -1.855767
2.979528 -1.434466 -1.844811
3.163183 -1.519994 -1.853573
3.368223 -1.616213 -1.864002
3.581510 -1.716414 -1.868908
3.823195 -1.829970 -1.876843
4.050550 -1.936229 -1.865629
4.351943 -2.077848 -1.874178
4.679257 -2.231776 -1.878581
5.043598 -2.402133 -1.879942
5.489751 -2.611846 -1.889932
5.757174 -2.738719 -1.821645
5.903947 -2.808343 -1.705659
0.000428 -0.058113 -0.001351
8.552234 -4.049409 -2.006442
9.776654 -4.625057 -2.033360
11.406462 -5.325949 -2.064342
10.774443 -5.038659 -1.668416
10.784360 -5.045561 -1.387607
10.841434 -5.076592 -1.114799
11.015884 -5.162055 -0.849201
14.332348 -6.701802 -0.736608
14.354370 -6.718145 -0.367315
14.408474 -6.749409 0.000070
20.874994 -9.757051 0.535113
21.809170 -10.200426 1.122434
20.191612 -9.456811 1.558021
19.122992 -8.967571 1.968727
21.256561 -9.966214 2.743293
19.743013 -9.269158 3.062402
17.989185 -8.458612 3.262284
17.815683 -8.381435 3.705296
2.840045 -1.389172 -1.860868
2.972886 -1.452727 -1.845792
3.157673 -1.540122 -1.855454
3.358902 -1.636024 -1.864003
3.574882 -1.739047 -1.870622
3.811281 -1.851053 -1.876033
4.046003 -1.963232 -1.868714
4.334825 -2.101120 -1.872000
4.671753 -2.260955 -1.880637
5.029596 -2.431877 -1.879946
5.474509 -2.644243 -1.889938
5.760764 -2.780734 -1.827713
5.882278 -2.840708 -1.704147
0.000437 -0.058000 -0.001348
8.525566 -4.096774 -2.005621
9.759068 -4.685352 -2.035223
11.382155 -5.396746 -2.065655
10.777863 -5.115633 -1.673439
10.786945 -5.124524 -1.391795
10.847504 -5.157628 -1.118526
11.026025 -5.243950 -0.852282
14.337864 -6.807851 -0.738954
14.367059 -6.827772 -0.368678
14.425783 -6.858571 0.000054
0.000437 -0.058000 -0.001348
0.000437 -0.058000 -0.001348
0.000437 -0.058000 -0.001348
19.589825 -9.322607 2.022252
19.186523 -9.140130 2.482886
24.173435 -11.506035 3.760063
0.000437 -0.058000 -0.001348
17.776646 -8.491916 3.707491
2.829230 -1.403901 -1.858830
2.969527 -1.471943 -1.848732
3.142688 -1.555096 -1.851699
3.344928 -1.652909 -1.861314
3.558633 -1.756370 -1.867203
3.802537 -1.873626 -1.876849
4.029986 -1.983996 -1.866406
4.324673 -2.126725 -1.872731
4.662385 -2.289317 -1.882009
5.019249 -2.462300 -1.881231
5.461238 -2.676413 -1.890539
5.760600 -2.821223 -1.832680
5.864419 -2.873570 -1.703647
6.638487 -3.246703 -1.745583
8.502170 -4.145670 -2.005633
9.725170 -4.737926 -2.033756
11.349442 -5.461221 -2.065347
10.780747 -5.192810 -1.678461
10.786293 -5.200110 -1.395519
10.857508 -5.238749 -1.122625
11.048192 -5.332147 -0.856338
14.343820 -6.911699 -0.741300
0.000421 -0.057869 -0.001343
0.000421 -0.057869 -0.001343
20.183134 -9.723805 0.520135
19.435387 -9.374098 1.005597
20.706261 -9.987812 1.606428
18.670847 -9.019769 1.932591
18.064966 -8.736765 2.344069
0.000421 -0.057869 -0.001343
18.211357 -8.818965 3.320622
17.626865 -8.545417 3.686345
2.830722 -1.424524 -1.864951
2.959760 -1.488128 -1.847753
3.132433 -1.572276 -1.850762
3.340515 -1.674351 -1.864007
3.550412 -1.777487 -1.868060
3.793353 -1.896831 -1.877666
4.020476 -2.007839 -1.867179
4.312693 -2.151469 -1.872735
4.645678 -2.315162 -1.880645
5.013850 -2.495179 -1.884437
5.446076 -2.707691 -1.890545
5.761392 -2.863641 -1.838198
5.856787 -2.911384 -1.706184
6.628177 -3.290152 -1.747895
8.479529 -4.196770 -2.006061
9.709610 -4.801455 -2.036362
11.334150 -5.534090 -2.068282
10.782178 -5.272058 -1.683484
10.790462 -5.278427 -1.399938
10.868709 -5.321006 -1.126910
11.013122 -5.395733 -0.856076
14.356245 -7.019322 -0.744019
0.000433 -0.057753 -0.001339
0.000433 -0.057753 -0.001339
20.003071 -9.779428 0.516886
19.491016 -9.539036 1.011259
20.272102 -9.927826 1.577199
0.000433 -0.057753 -0.001339
0.000433 -0.057753 -0.001339
18.730297 -9.197561 2.929456
19.137943 -9.404834 3.499664
17.713675 -8.713092 3.714843
2.822569 -1.441172 -1.864952
2.948107 -1.504007 -1.845796
3.126568 -1.592265 -1.852642
3.327647 -1.692428 -1.862214
3.541756 -1.799180 -1.868918
3.777451 -1.916747 -1.875228
4.010499 -2.032348 -1.867954
4.300199 -2.176892 -1.872739
4.637257 -2.345048 -1.882702
4.995895 -2.523071 -1.883161
5.430264 -2.739829 -1.890551
5.761877 -2.906162 -1.843715
5.834552 -2.943383 -1.704672
6.615864 -3.332745 -1.749747
8.456570 -4.247734 -2.006488
9.681284 -4.858839 -2.036375
11.297911 -5.599356 -2.067650
10.790164 -5.355004 -1.689620
10.802094 -5.363241 -1.405517
10.874832 -5.403726 -1.130825
0.000417 -0.057622 -0.001334
14.361301 -7.127187 -0.746460
0.000417 -0.057622 -0.001334
0.000417 -0.057622 -0.001334
0.000417 -0.057622 -0.001334
19.443380 -9.658795 1.011693
23.861895 -11.851163 1.862108
0.000417 -0.057622 -0.001334
19.290405 -9.604410 2.517430
18.361628 -9.152802 2.880128
18.005356 -8.984217 3.302071
18.316990 -9.142771 3.852628
2.820963 -1.459843 -1.869033
2.944653 -1.522639 -1.848735
3.114789 -1.607999 -1.850766
3.316885 -1.710072 -1.861320
3.530369 -1.818001 -1.868065
3.770271 -1.939307 -1.876857
3.997762 -2.053756 -1.867186
4.289952 -2.201560 -1.873470
4.624418 -2.370775 -1.882706
4.982045 -2.550792 -1.883166
5.415195 -2.769972 -1.890557
5.768216 -2.949356 -1.850886
5.816623 -2.974920 -1.704173
6.597475 -3.369503 -1.749755
8.433054 -4.294761 -2.006500
9.661364 -4.916226 -2.037871
11.279172 -5.668379 -2.069937
10.804748 -5.437109 -1.696591
10.798981 -5.436629 -1.409010
10.896492 -5.489992 -1.136224
0.000429 -0.057506 -0.001330
14.369863 -7.231222 -0.748994
0.000429 -0.057506 -0.001330
15.215719 -7.666886 0.000050
19.614405 -9.871087 0.509647
0.000429 -0.057506 -0.001330
0.000429 -0.057506 -0.001330
18.146772 -9.160751 1.894379
18.407707 -9.295737 2.408837
18.653906 -9.427521 2.934128
17.810658 -9.011794 3.275441
18.287067 -9.255386 3.857042
2.812591 -1.476426 -1.869034
2.935915 -1.539959 -1.848737
3.113419 -1.630304 -1.855462
3.311795 -1.732002 -1.864013
3.523095 -1.840424 -1.869779
3.761018 -1.961691 -1.877674
3.992424 -2.080639 -1.870272
4.278827 -2.227692 -1.874202
4.612680 -2.398074 -1.883394
4.970562 -2.581906 -1.884453
5.402421 -2.803658 -1.891755
5.765166 -2.989353 -1.855301
5.811282 -3.015388 -1.707724
6.588699 -3.412605 -1.752530
8.415473 -4.346660 -2.008173
9.636724 -4.973432 -2.038625
11.242144 -5.733269 -2.069305
10.803657 -5.514295 -1.701337
10.800565 -5.517502 -1.413431
10.903166 -5.574196 -1.140325
14.395716 -7.344639 -1.128285
14.382311 -7.344216 -0.751902
0.000438 -0.057393 -0.001327
15.023619 -7.679143 0.000012
25.317825 -12.912943 0.660160
19.849812 -10.145208 1.038785
0.000438 -0.057393 -0.001327
0.000438 -0.057393 -0.001327
18.518969 -9.489404 2.430657
17.828506 -9.141721 2.812390
18.022511 -9.248566 3.324070
17.600233 -9.041019 3.723275
0.527215 -0.326901 -0.352219
2.925781 -1.555920 -1.847759
3.099582 -1.645651 -1.852646
3.302087 -1.750908 -1.864015
3.516285 -1.861576 -1.871492
3.748355 -1.982346 -1.876863
3.980705 -2.103467 -1.870275
4.268298 -2.252275 -1.874933
4.600813 -2.425342 -1.884083
4.956366 -2.609476 -1.884457
5.390394 -2.835398 -1.892952
5.772120 -3.034723 -1.863025
5.796389 -3.048544 -1.708237
6.576192 -3.453933 -1.754382
8.394862 -4.395244 -2.009017
9.605629 -5.025223 -2.037899
11.214552 -5.800484 -2.070295
10.805537 -5.593432 -1.706639
10.807832 -5.599413 -1.418547
10.871201 -5.636743 -1.140340
14.406757 -7.454617 -1.132489
14.393422 -7.454176 -0.754716
0.000422 -0.057262 -0.001321
14.803445 -7.674809 -0.000030
0.000422 -0.057262 -0.001321
18.566008 -9.623440 0.974265
23.961756 -12.414354 1.886007
18.058294 -9.373940 1.895992
0.000422 -0.057262 -0.001321
18.579975 -9.659670 2.939633
19.108648 -9.937200 3.534571
0.000422 -0.057262 -0.001321
0.528761 -0.331309 -0.354256
2.923535 -1.575300 -1.851678
3.091951 -1.664159 -1.853587
3.292581 -1.769192 -1.864017
3.501035 -1.879173 -1.868929
3.743695 -2.007152 -1.880121
3.970491 -2.127075 -1.871050
4.258887 -2.278407 -1.876391
4.588770 -2.452539 -1.884772
4.946185 -2.641344 -1.886383
5.367033 -2.863646 -1.890575
5.775318 -3.078472 -1.869645
0.000431 -0.057149 -0.001318
6.555928 -3.492764 -1.754391
8.361300 -4.442679 -2.007368
9.584690 -5.086555 -2.039765
11.194561 -5.869238 -2.072580
10.810393 -5.674612 -1.712498
10.811963 -5.677862 -1.423200
10.896426 -5.726654 -1.146298
14.424082 -7.568648 -1.137251
14.414362 -7.570037 -0.758088
14.600295 -7.670248 -0.382348
0.000431 -0.057149 -0.001318
0.000431 -0.057149 -0.001318
18.831160 -9.901747 0.991217
20.612513 -10.837692 1.627026
18.403177 -9.690413 1.938168
0.000431 -0.057149 -0.001318
20.027607 -10.558729 3.178551
17.590425 -9.284736 3.263671
18.158606 -9.590957 3.864358
0.517943 -0.329594 -0.348133
2.909580 -1.590561 -1.848740
3.083932 -1.683178 -1.854529
3.280479 -1.788304 -1.863122
3.499740 -1.904835 -1.874063
3.727205 -2.026629 -1.877683
3.954884 -2.148747 -1.869512
4.242345 -2.301764 -1.874941
4.577798 -2.481349 -1.886145
4.929541 -2.668763 -1.885748
5.355844 -2.897060 -1.892369
0.000416 -0.057018 -0.001312
5.783230 -3.127635 -1.714834
6.536019 -3.530314 -1.754399
8.331479 -4.486399 -2.006131
9.557307 -5.142457 -2.040150
11.158867 -5.937370 -2.072599
10.811913 -5.756985 -1.718079
10.817843 -5.764978 -1.428548
10.888010 -5.806909 -1.149101
14.442786 -7.687518 -1.142293
14.433131 -7.688920 -0.761462
0.000416 -0.057018 -0.001312
25.313278 -13.459414 0.000809
24.785809 -13.191313 0.652013
18.581779 -9.907896 0.981011
0.000416 -0.057018 -0.001312
0.000416 -0.057018 -0.001312
17.902466 -9.567995 2.370821
19.471943 -10.410621 3.099701
18.124187 -9.698109 3.372958
17.556946 -9.404291 3.747634
0.522477 -0.335594 -0.352209
2.900992 -1.606670 -1.848743
3.070119 -1.697735 -1.851713
3.269190 -1.805631 -1.862228
3.485861 -1.923125 -1.872356
3.716140 -2.047278 -1.877686
3.943131 -2.170660 -1.869515
4.229349 -2.326028 -1.874946
4.562524 -2.505847 -1.885465
4.919436 -2.699669 -1.887675
5.342764 -2.929530 -1.893566
5.780782 -3.166390 -1.882887
5.782495 -3.169932 -1.719905
6.502833 -3.559253 -1.750721
8.316166 -4.539735 -2.008638
9.529586 -5.198199 -2.040534
11.131089 -6.002249 -2.073590
10.879477 -5.870333 -1.733953
10.820845 -5.843907 -1.433203
0.000427 -0.056902 -0.001309
14.486142 -7.814065 -1.149147
14.474812 -7.814553 -0.765951
0.000427 -0.056902 -0.001309
24.984272 -13.464222 0.000744
24.683912 -13.314239 0.651222
19.093119 -10.320120 1.011119
18.039301 -9.757776 1.432410
18.662783 -10.101544 1.977519
0.000427 -0.056902 -0.001309
0.000427 -0.056902 -0.001309
18.111805 -9.825608 3.381035
0.000427 -0.056902 -0.001309
0.525397 -0.340931 -0.355266
2.893532 -1.624036 -1.849723
3.063731 -1.716946 -1.853593
3.260641 -1.825153 -1.863127
3.479815 -1.945621 -1.874925
3.705876 -2.070036 -1.878503
3.930898 -2.193205 -1.869519
4.219462 -2.351977 -1.876403
4.556168 -2.537235 -1.888890
4.910779 -2.731440 -1.890240
5.329493 -2.961951 -1.894765
5.775733 -3.207865 -1.887304
5.791649 -3.217882 -1.728015
6.481944 -3.597645 -1.750730
8.279125 -4.583231 -2.006157
9.495463 -5.252622 -2.039809
11.096670 -6.066113 -2.073608
10.820414 -5.921429 -1.730076
10.815299 -5.921146 -1.436930
10.885104 -5.963958 -1.155819
0.000436 -0.056789 -0.001305
0.000436 -0.056789 -0.001305
30.138550 -16.447344 -0.795384
14.366219 -7.876150 -0.000150
24.621216 -13.463666 0.651549
19.021441 -10.423079 1.010430
17.928888 -9.835836 1.428188
0.000436 -0.056789 -0.001305
19.008640 -10.437860 2.533002
17.773468 -9.771418 2.846766
17.987740 -9.896768 3.368677
18.263636 -10.051916 3.922791
0.534277 -0.349725 -0.362404
2.888779 -1.643574 -1.852665
3.056920 -1.736666 -1.855473
3.248524 -1.843474 -1.862233
3.465710 -1.963755 -1.873216
3.695829 -2.092101 -1.879320
3.921387 -2.218144 -1.871065
4.202922 -2.374318 -1.874954
4.541809 -2.563300 -1.888895
4.891980 -2.757713 -1.888966
5.311010 -2.991542 -1.894176
5.779353 -3.253031 -1.894476
5.780128 -3.254803 -1.730049
6.458023 -3.632882 -1.749816
8.265708 -4.635897 -2.009080
9.471465 -5.308290 -2.040935
10.848049 -6.014836 -2.033762
0.000421 -0.056658 -0.001300
10.856891 -6.027184 -1.447147
10.912668 -6.062867 -1.162520
33.393700 -18.444387 -2.664350
33.710552 -18.634336 -1.793604
14.108036 -7.834642 -0.374210
25.939537 -14.369649 0.000737
22.183601 -12.307349 0.588788
24.649910 -13.675090 1.313914
18.324488 -10.188826 1.464325
18.416927 -10.244215 1.963693
20.894983 -11.624628 2.793297
23.335245 -12.986385 3.749852
0.000421 -0.056658 -0.001300
18.623426 -10.388497 4.012774
0.526613 -0.349230 -0.358321
2.881387 -1.660395 -1.853645
3.045947 -1.752719 -1.854536
3.240059 -1.862327 -1.863132
3.453099 -1.982674 -1.872364
3.687241 -2.115003 -1.880950
3.906029 -2.238071 -1.869527
4.194398 -2.401086 -1.877141
4.522378 -2.586527 -1.886849
4.878013 -2.786645 -1.889613
5.294020 -3.021944 -1.894183
