# This PCD file was generated using the MATLAB® pcwrite function
# from Computer Vision Toolbox®.
# .PCD v.7 - Point Cloud Data file format
VERSION .7
FIELDS x y z
SIZE 4 4 4
TYPE F F F
COUNT 1 1 1
WIDTH 1640
HEIGHT 1
VIEWPOINT 0 0 0 1 0 0 0
POINTS 1640
DATA ascii
0.001305 -0.112364 -0.002588
-4.304865 7.020577 -0.001714
-4.158886 6.781433 0.185198
-4.016912 6.551386 0.361114
-4.223339 6.899204 0.570694
0.001305 -0.112364 -0.002588
-4.709414 7.715085 1.066728
-2.894256 4.702756 0.787671
-2.889485 4.698582 0.920145
-4.325917 7.091928 1.581718
-0.298224 0.388144 -0.348365
-0.303020 0.396548 -0.335611
-0.332192 0.445536 -0.348046
-0.369062 0.507684 -0.365052
-0.468493 0.674740 -0.436307
-2.001472 3.243943 -1.742184
-2.047853 3.324370 -1.673350
-2.062280 3.351297 -1.576415
-2.187553 3.562968 -1.559001
-2.314635 3.779403 -1.532257
-2.461687 4.029780 -1.505740
-2.631388 4.316890 -1.479448
-2.798828 4.602282 -1.437424
-2.970354 4.893043 -1.381165
-3.244671 5.359391 -1.354159
-3.574615 5.920304 -1.323076
-3.924847 6.448306 -1.257877
-4.275187 7.036500 -1.172419
-4.707549 7.765430 -1.073234
-5.343266 8.835988 -0.973863
-6.559754 10.876971 -0.896190
-4.548407 7.514129 -0.415760
0.001314 -0.112251 -0.002584
-4.222777 6.976647 -0.001701
-4.086196 6.752840 0.183772
-3.977316 6.575228 0.361135
-4.023805 6.656017 0.548918
0.001314 -0.112251 -0.002584
0.001314 -0.112251 -0.002584
-4.382767 7.274122 1.205525
-4.232856 7.027166 1.362065
0.001314 -0.112251 -0.002584
-0.293599 0.387024 -0.346319
-0.304519 0.405921 -0.340503
-0.326284 0.443006 -0.345224
-0.365481 0.509917 -0.365047
-0.467639 0.683791 -0.439722
-1.977478 3.247663 -1.738106
-2.052365 3.377584 -1.693374
-2.053644 3.382517 -1.585130
-2.167298 3.577242 -1.559673
-2.292197 3.792800 -1.532243
-2.435884 4.040731 -1.504533
-2.609741 4.338734 -1.481637
-2.772602 4.620100 -1.437916
-2.977910 4.972332 -1.398201
-3.230909 5.408499 -1.361622
-3.549747 5.957878 -1.326758
-3.877988 6.455636 -1.254941
-4.251086 7.090121 -1.177125
-4.700481 7.857553 -1.082016
-5.318975 8.913055 -0.978846
-6.489283 10.902649 -0.895185
-4.505424 7.542027 -0.415831
-4.415208 7.394732 -0.203841
-4.178870 6.995806 -0.001679
-4.161077 6.971173 0.189063
-3.916508 6.560247 0.359102
-3.995895 6.698131 0.550476
-4.141089 6.951123 0.762258
-4.469940 7.517899 1.032593
-4.375210 7.359169 1.215297
0.001323 -0.112138 -0.002580
-4.264225 7.181268 1.590284
-0.289860 0.387355 -0.345293
-0.305038 0.413818 -0.344416
-0.326637 0.451106 -0.348973
-0.362793 0.513684 -0.365938
-0.469415 0.697542 -0.445704
-1.958418 3.261033 -1.738908
-2.054497 3.427783 -1.711856
-2.057823 3.436321 -1.604025
-2.144446 3.588547 -1.558975
-2.276312 3.817521 -1.536711
-2.413839 4.058110 -1.505711
-2.586184 4.359254 -1.483276
-2.754055 4.651205 -1.442456
-2.957437 5.006884 -1.402794
-3.187353 5.409066 -1.357032
-3.538232 6.021507 -1.335992
-3.891809 6.566654 -1.271769
-4.218266 7.132464 -1.179884
-4.661510 7.896623 -1.083616
-5.285964 8.976366 -0.982346
-6.463945 11.010073 -0.900725
-7.866965 13.429011 -0.731169
0.001308 -0.112007 -0.002575
-4.116562 6.985998 -0.001662
-3.869471 6.562734 0.177424
-3.867001 6.563789 0.358094
-3.745479 6.359247 0.521151
-4.023357 6.844707 0.748145
0.001308 -0.112007 -0.002575
-11.181772 19.241287 3.141332
-4.155030 7.086660 1.364055
-4.236894 7.231349 1.595863
-0.291171 0.396639 -0.350388
-0.298453 0.409706 -0.340491
-0.325947 0.457769 -0.351783
-0.362627 0.522149 -0.369522
-0.460102 0.692592 -0.441421
-1.937175 3.269231 -1.737267
-2.050905 3.470471 -1.726485
-2.058947 3.487398 -1.621467
-2.125898 3.605848 -1.561014
-2.262370 3.847533 -1.543098
-2.389076 4.072494 -1.505696
-2.568984 4.389231 -1.488220
-2.724793 4.665906 -1.441934
-2.940441 5.045922 -1.408770
-3.157444 5.430847 -1.357847
-3.510646 6.055570 -1.338933
-3.846214 6.579478 -1.269805
-4.194252 7.187662 -1.184869
-4.641638 7.972506 -1.090079
-5.251786 9.042237 -0.986030
-6.401782 11.050688 -0.900973
-7.815320 13.525836 -0.733827
0.001318 -0.111894 -0.002572
0.001318 -0.111894 -0.002572
-3.814915 6.559658 0.176745
-3.834277 6.598882 0.358769
-3.701251 6.368717 0.520194
0.001318 -0.111894 -0.002572
-11.148005 19.434189 2.631495
-11.041717 19.255568 3.133305
-4.192666 7.249493 1.390359
-4.196182 7.261606 1.596997
-0.283155 0.389466 -0.344262
-0.298019 0.416093 -0.343425
-0.321778 0.458218 -0.350839
-0.359862 0.525915 -0.370412
-0.459017 0.701645 -0.444837
-1.920376 3.285226 -1.739695
-2.028429 3.479135 -1.724931
-2.063838 3.544738 -1.641818
-2.105392 3.619797 -1.561684
-2.235827 3.854032 -1.540523
-2.372431 4.099604 -1.510447
-2.552470 4.420828 -1.493715
-2.710525 4.705244 -1.449006
-2.926940 5.091740 -1.416587
-3.144669 5.483174 -1.366141
-3.465453 6.058671 -1.335214
-3.809584 6.605081 -1.270432
-4.146301 7.201486 -1.183178
-4.602861 8.013057 -1.091909
-5.228434 9.124433 -0.991571
-6.332506 11.078807 -0.900245
-7.761255 13.614198 -0.736114
0.001303 -0.111763 -0.002566
-3.725683 6.486372 -0.001693
-3.768579 6.567707 0.176392
-3.788701 6.608783 0.358135
-3.722653 6.494317 0.528598
0.001303 -0.111763 -0.002566
0.001303 -0.111763 -0.002566
-4.101460 7.181001 1.174414
-4.179211 7.325231 1.400114
-4.104570 7.198366 1.578121
-0.284455 0.398713 -0.349357
-0.294136 0.416414 -0.342439
-0.315917 0.455575 -0.348017
-0.357066 0.529672 -0.371303
-0.449920 0.696512 -0.440553
-1.900780 3.296350 -1.739683
-2.005913 3.487649 -1.723378
-2.065434 3.597380 -1.659986
-2.083873 3.631985 -1.561671
-2.218496 3.876911 -1.544349
-2.369512 4.151721 -1.524128
-2.532875 4.447342 -1.497557
-2.709063 4.768263 -1.463166
-2.912051 5.135859 -1.423945
-3.124736 5.523549 -1.371526
-3.449895 6.114760 -1.342965
-3.793028 6.666645 -1.277864
-4.122499 7.258197 -1.188441
-4.541471 8.013544 -1.088409
-5.180999 9.164941 -0.992658
-6.290350 11.155273 -0.903417
-7.716181 13.719850 -0.739329
0.001312 -0.111650 -0.002563
-3.695425 6.521816 -0.001671
-3.707700 6.549249 0.175340
-3.742182 6.616651 0.357408
-3.774736 6.677915 0.541614
-3.698513 6.546260 0.708958
-10.915443 19.549332 2.629968
0.001312 -0.111650 -0.002563
0.001312 -0.111650 -0.002563
-3.996695 7.103389 1.552576
-0.279016 0.395948 -0.346292
-0.287701 0.412105 -0.338517
-0.311795 0.455963 -0.347072
-0.347315 0.520877 -0.365018
-0.448764 0.705558 -0.443968
-1.879367 3.304165 -1.738044
-1.985168 3.499275 -1.723364
-2.070070 3.656686 -1.681064
-2.077685 3.672060 -1.573282
-2.190922 3.881427 -1.541136
-2.344927 4.165417 -1.524114
-2.495509 4.441759 -1.490929
-2.679060 4.780511 -1.462138
-2.880870 5.150965 -1.423467
-3.107288 5.569048 -1.378157
-3.425292 6.155333 -1.347388
-3.768247 6.714406 -1.282704
-4.081915 7.285406 -1.188975
-4.525309 8.095337 -1.095801
-5.167886 9.268003 -1.000424
-6.221544 11.184452 -0.902828
-7.664365 13.814930 -0.741986
0.001297 -0.111519 -0.002557
-3.651400 6.532598 -0.001652
-3.676999 6.584634 0.175733
-3.527477 6.317714 0.340335
-3.718333 6.668190 0.539120
-3.658194 6.564067 0.708605
-10.921358 19.829758 2.659088
-4.045750 7.280110 1.182815
0.001297 -0.111519 -0.002557
-3.985254 7.181590 1.564455
-0.276112 0.397695 -0.346285
-0.283041 0.410837 -0.336551
-0.315273 0.470287 -0.354577
-0.349662 0.534004 -0.371291
-0.440596 0.701904 -0.440540
-1.857934 3.311854 -1.736405
-1.965246 3.512412 -1.724121
-2.071438 3.711258 -1.699958
-2.076458 3.722086 -1.588997
-2.168802 3.895775 -1.541762
-2.321170 4.180654 -1.524695
-2.486625 4.488305 -1.501384
-2.664663 4.821527 -1.469715
-2.844975 5.157323 -1.420684
-3.081956 5.600735 -1.381464
-3.393833 6.183736 -1.349218
-3.736446 6.749990 -1.285274
-4.051576 7.331529 -1.192568
-4.456166 8.081264 -1.090447
-5.134719 9.336212 -1.004479
-6.147826 11.204429 -0.901544
0.001308 -0.111403 -0.002554
-10.135922 18.574249 -0.493520
-3.608327 6.544855 -0.001632
-3.671727 6.667353 0.177387
-3.695854 6.717528 0.360532
-3.538707 6.429930 0.518458
-3.629173 6.602664 0.710486
-10.936672 20.133604 2.691231
0.001308 -0.111403 -0.002554
-4.234786 7.738837 1.464105
-3.931085 7.182059 1.559661
-0.271535 0.396362 -0.344240
-0.283330 0.418733 -0.340463
-0.309407 0.467550 -0.351755
-0.341712 0.528253 -0.366800
-0.438464 0.709329 -0.443101
-1.838461 3.324555 -1.737206
-1.943463 3.522153 -1.723339
-2.068739 3.759407 -1.715944
-2.073188 3.770949 -1.604026
-2.155535 3.926724 -1.548787
-2.303612 4.207549 -1.529445
-2.464737 4.513290 -1.504674
-2.643499 4.850575 -1.473749
-2.830132 5.205148 -1.428964
-3.054459 5.631143 -1.384355
-3.365670 6.221250 -1.352899
-3.681007 6.741964 -1.279746
-4.007373 7.355570 -1.192545
-4.429577 8.145408 -1.095522
-5.131058 9.460518 -1.014471
-6.139956 11.351625 -0.910286
-7.501622 13.898994 -0.741725
-10.087613 18.743498 -0.496380
-3.561230 6.552153 -0.001614
-3.643003 6.707902 0.177921
-3.736455 6.888606 0.368492
-3.700815 6.827623 0.548386
-3.771017 6.965107 0.746597
-10.961925 20.462816 2.726631
-10.937908 20.434877 3.271742
0.001293 -0.111272 -0.002549
-3.925928 7.274098 1.574504
-0.272544 0.405690 -0.349335
-0.276090 0.412819 -0.335561
-0.308460 0.474195 -0.354565
-0.340422 0.535138 -0.369486
-0.435300 0.715259 -0.444804
-1.817811 3.333610 -1.736379
-1.921889 3.533757 -1.723325
-2.047474 3.775026 -1.717385
-2.077956 3.834484 -1.625211
-2.134201 3.944598 -1.550693
-2.277067 4.219578 -1.528835
-2.440764 4.532641 -1.506311
-2.616720 4.871432 -1.475252
-2.830246 5.280062 -1.444617
-3.025897 5.657423 -1.386415
-3.324586 6.231937 -1.351030
-3.646748 6.776006 -1.281994
-3.973589 7.396151 -1.195304
-4.416765 8.240158 -1.104533
-5.041624 9.429298 -1.007950
-6.060812 11.362214 -0.908305
-7.395061 13.899202 -0.739364
-10.003582 18.856182 -0.497715
-3.518167 6.563842 -0.001594
-3.564281 6.656990 0.176028
-3.588795 6.709247 0.357864
0.001303 -0.111159 -0.002545
-3.563418 6.669553 0.713131
-10.978271 20.791409 2.761569
0.001303 -0.111159 -0.002545
-10.903365 20.674934 3.856941
-3.930407 7.389639 1.594165
-0.271177 0.410446 -0.351368
-0.274685 0.417618 -0.337514
-0.301815 0.469824 -0.350805
-0.338354 0.540390 -0.371274
-0.433857 0.724278 -0.448221
-1.797938 3.344140 -1.736368
-1.902584 3.548172 -1.724853
-2.025086 3.786894 -1.717371
-2.085552 3.904894 -1.649130
-2.109075 3.953589 -1.549399
-2.257372 4.242916 -1.532393
-2.411324 4.541617 -1.504644
-2.596887 4.903719 -1.480299
-2.799163 5.296396 -1.444600
-3.009713 5.707885 -1.394293
-3.285308 6.245870 -1.349900
-3.631722 6.844257 -1.290720
-3.937632 7.433077 -1.197507
-4.376881 8.281427 -1.106594
-5.033552 9.548348 -1.017386
-6.061052 11.524456 -0.918298
-7.355803 14.021423 -0.743507
-9.937567 18.996948 -0.499837
-3.475978 6.577006 -0.001576
-3.533564 6.693504 0.176469
-3.538418 6.708640 0.356763
-3.438739 6.519370 0.520753
-3.537164 6.714847 0.715757
-11.425087 21.949753 2.906040
-10.484808 20.142878 3.205820
0.001310 -0.111049 -0.002541
0.001310 -0.111049 -0.002541
-0.265808 0.407538 -0.348303
-0.270045 0.416223 -0.335550
-0.294423 0.463825 -0.346106
-0.332971 0.539280 -0.369473
-0.429889 0.728511 -0.449069
-1.776356 3.351318 -1.734728
-1.880651 3.557554 -1.724069
-2.003447 3.800265 -1.718086
-2.089831 3.970496 -1.670997
-2.100311 3.994461 -1.560265
-2.234026 4.259381 -1.533568
-2.402005 4.589794 -1.515649
-2.568871 4.920456 -1.480788
-2.762682 5.302161 -1.441817
-2.985066 5.742683 -1.398430
-3.258486 6.284076 -1.353951
-3.597944 6.877462 -1.292967
-3.908635 7.483922 -1.201934
-4.337576 8.324278 -1.108887
-4.972419 9.566683 -1.016244
-5.993949 11.559272 -0.918268
-7.277974 14.070780 -0.743841
-9.855684 19.109133 -0.501218
-3.461143 6.643313 -0.001548
-3.481558 6.688939 0.175835
-3.446328 6.625888 0.351366
-3.522280 6.777213 0.539504
-3.524991 6.788414 0.721358
-10.470342 20.394775 2.693071
-10.363537 20.194214 3.204481
-3.855145 7.450463 1.393132
0.001295 -0.110918 -0.002536
-0.262040 0.407655 -0.347277
-0.272523 0.428775 -0.342401
-0.295096 0.473507 -0.350794
-0.328398 0.539708 -0.368572
-0.416050 0.713351 -0.439654
-1.752489 3.355398 -1.731463
-1.860335 3.570099 -1.724827
-1.982590 3.815197 -1.719526
-2.090983 4.033272 -1.691498
-2.092003 4.037062 -1.571772
-2.214838 4.284227 -1.537723
-2.374959 4.605815 -1.516184
-2.546817 4.949110 -1.484822
-2.728777 5.315104 -1.440878
-2.967868 5.795374 -1.406723
-3.213440 6.289373 -1.350971
-3.571948 6.926346 -1.298130
-3.860839 7.501809 -1.201077
-4.318604 8.407718 -1.116508
-4.930105 9.621912 -1.019001
-5.944452 11.633919 -0.921299
-7.236802 14.192792 -0.747983
-9.772850 19.221006 -0.502598
-3.421928 6.665643 -0.001527
-3.447768 6.719711 0.176136
-3.400282 6.631469 0.350638
-3.393334 6.623504 0.525825
-3.493868 6.828899 0.723426
-6.588948 12.979820 1.713330
0.001304 -0.110805 -0.002533
-6.479437 12.784502 2.370557
0.001304 -0.110805 -0.002533
-0.256631 0.404698 -0.344213
-0.266198 0.424271 -0.338478
-0.292421 0.476957 -0.351727
-0.325354 0.543387 -0.369462
-0.415342 0.723953 -0.443924
-1.734965 3.370479 -1.733889
-1.838459 3.581192 -1.724815
-1.956622 3.820000 -1.716604
-2.087199 4.085760 -1.707894
-2.091733 4.096678 -1.589676
-2.186099 4.290195 -1.535326
-2.349466 4.622975 -1.517271
-2.524522 4.977677 -1.488857
-2.707868 5.351775 -1.446392
-2.930507 5.803216 -1.404627
-3.182027 6.316150 -1.352802
-3.533687 6.954606 -1.299404
-3.824915 7.539978 -1.203558
-4.292872 8.483077 -1.122970
-4.922107 9.750894 -1.029362
-5.883877 11.682364 -0.922380
-7.219576 14.371473 -0.755006
-9.723819 19.402340 -0.505779
-3.378387 6.676395 -0.001509
-3.406307 6.738385 0.176111
-3.378306 6.685046 0.352433
-3.401578 6.737764 0.533255
-3.443560 6.825238 0.721028
-10.227355 20.501764 2.691548
-6.390068 12.780185 2.021595
-6.232079 12.466944 2.305690
-6.209912 12.433131 2.636664
-0.252239 0.403171 -0.342167
-0.263997 0.427454 -0.339450
-0.287572 0.475541 -0.349844
-0.322468 0.546908 -0.370354
-0.413726 0.732948 -0.447340
-1.715689 3.382165 -1.734691
-1.821082 3.598157 -1.727884
-1.935613 3.834678 -1.718045
-2.067146 4.106274 -1.711299
-2.096673 4.168324 -1.612061
-2.164093 4.309700 -1.537694
-2.321332 4.634826 -1.516705
-2.496909 4.995748 -1.489851
-2.684922 5.384883 -1.450983
-2.903108 5.836446 -1.408349
-3.146431 6.340333 -1.353893
-3.509896 7.006201 -1.305216
-3.798335 7.597539 -1.209096
-4.267662 8.553368 -1.128970
-4.894246 9.833734 -1.035085
-5.825559 11.735857 -0.923880
-7.155374 14.445750 -0.756732
-9.640409 19.517349 -0.507252
0.001298 -0.110561 -0.002524
-3.383866 6.789728 0.176971
-3.383979 6.796006 0.357220
-3.455096 6.947283 0.548092
-3.412854 6.867130 0.723282
0.001298 -0.110561 -0.002524
-6.305317 12.795539 2.018286
-6.198052 12.587160 2.320976
-6.078981 12.348695 2.611499
-0.251448 0.409433 -0.345221
-0.260040 0.427570 -0.338465
-0.279485 0.467848 -0.344205
-0.311558 0.534478 -0.362273
-0.403987 0.725756 -0.442201
-1.696360 3.393768 -1.735491
-1.796638 3.604038 -1.725559
-1.911360 3.844540 -1.717304
-2.042841 4.118238 -1.711284
-2.096796 4.233704 -1.631886
-2.145306 4.338063 -1.543038
-2.304828 4.670749 -1.523853
-2.480011 5.038483 -1.497935
-2.650728 5.395136 -1.449582
-2.880709 5.877879 -1.414148
-3.113505 6.367334 -1.355723
-3.463303 7.018144 -1.303575
-3.760808 7.633651 -1.211299
-4.267357 8.684089 -1.142615
-4.849094 9.891398 -1.038024
-5.773801 11.803441 -0.926493
-7.023610 14.394557 -0.751864
-9.583907 19.698507 -0.510385
0.001283 -0.110430 -0.002518
-3.303721 6.728788 0.174890
-3.384636 6.902430 0.361725
-3.345896 6.825231 0.537069
-3.409812 6.963915 0.731302
-6.269043 12.905238 1.689015
-6.306517 12.988769 2.042839
-6.153927 12.683218 2.332043
-6.084152 12.549394 2.645997
-0.252158 0.418750 -0.350316
-0.258438 0.432326 -0.340419
-0.277678 0.472765 -0.346076
-0.309385 0.539616 -0.364061
-0.400726 0.731458 -0.443905
-1.676959 3.405264 -1.736291
-1.775237 3.614456 -1.725545
-1.888575 3.855618 -1.717290
-2.018456 4.130055 -1.711271
0.001292 -0.110317 -0.002515
-2.122947 4.357376 -1.545405
-2.280575 4.691021 -1.526041
-2.454470 5.061538 -1.500451
-2.620659 5.413954 -1.450487
-2.854567 5.912170 -1.418285
-3.087940 6.410146 -1.360884
-3.420524 7.034551 -1.302905
-3.734983 7.694611 -1.217394
-4.225228 8.726563 -1.144907
-4.811161 9.960590 -1.042265
-5.719736 11.867220 -0.928828
-6.939128 14.433080 -0.751732
-9.486053 19.787769 -0.511211
-9.462809 19.747763 0.000582
-3.269460 6.758665 0.175191
-3.345076 6.923742 0.361840
-3.413020 7.069735 0.554564
-3.399781 7.048298 0.738021
-5.969981 12.469283 1.627881
-6.174975 12.906899 2.024486
-6.196827 12.964652 2.376861
-5.970776 12.499070 2.628242
-0.246923 0.415666 -0.347250
-0.252339 0.427624 -0.336496
-0.275070 0.476075 -0.347010
-0.312480 0.556061 -0.372131
-0.402803 0.748601 -0.451598
-1.652804 3.406721 -1.732213
-1.753775 3.624752 -1.725532
-1.868875 3.873298 -1.720186
-1.994018 4.141740 -1.711256
-2.112608 4.398508 -1.684334
-2.110152 4.397317 -1.554918
-2.255355 4.709436 -1.527677
-2.427936 5.082724 -1.502459
-2.592098 5.436122 -1.452314
-2.833931 5.958768 -1.425331
-3.062829 6.454668 -1.366415
-3.387740 7.072091 -1.306125
-3.695057 7.726861 -1.219040
-4.167513 8.736499 -1.143028
-4.805703 10.099963 -1.053737
-5.685527 11.974103 -0.934503
-6.781347 14.315639 -0.743612
-9.387506 19.876579 -0.512036
-9.344063 19.792978 0.000630
-3.263833 6.849908 0.177080
-3.313841 6.962903 0.362888
-3.489280 7.340524 0.574018
0.001277 -0.110186 -0.002510
-5.890710 12.489164 1.626053
-6.117536 12.980032 2.030371
-6.020404 12.783872 2.337628
-6.065962 12.893137 2.703135
-0.244605 0.418754 -0.348265
-0.249970 0.430775 -0.337470
-0.273922 0.482582 -0.349820
-0.307892 0.556358 -0.371227
-0.397846 0.751030 -0.451592
-1.631750 3.414641 -1.731388
-1.729127 3.628208 -1.722438
-1.847489 3.887512 -1.721625
-1.969502 4.153275 -1.711242
0.001286 -0.110073 -0.002506
-2.112963 4.471929 -1.576340
-2.229980 4.727703 -1.529315
-2.405286 5.112561 -1.506999
-2.566644 5.465226 -1.455983
-2.803847 5.985774 -1.427806
-3.023346 6.468751 -1.365655
-3.346355 7.091619 -1.306102
-3.673254 7.798433 -1.226802
-4.108150 8.742453 -1.140687
-4.768618 10.174553 -1.058532
-5.643559 12.066502 -0.939065
-6.684737 14.325555 -0.742089
-9.366323 20.133656 -0.517152
-9.284748 19.966389 0.000701
-3.248853 6.923147 0.178501
-3.283955 7.005573 0.364124
-3.252367 6.940336 0.541604
0.001286 -0.110073 -0.002506
-5.820574 12.528411 1.626785
-5.917807 12.745302 1.988610
-6.066494 13.080214 2.385044
-5.888402 12.704741 2.656846
-0.242999 0.423420 -0.350299
-0.252676 0.445035 -0.345299
-0.269761 0.482668 -0.348876
-0.304064 0.558260 -0.371221
-0.389880 0.746858 -0.448164
-1.610817 3.424394 -1.731375
-1.705284 3.633199 -1.720113
-1.821351 3.891429 -1.718703
-1.946518 4.170149 -1.713279
-2.077827 4.460748 -1.698383
-2.111841 4.539784 -1.595379
-2.202042 4.742725 -1.529850
-2.374397 5.124705 -1.506475
-2.561670 5.542530 -1.472094
-2.771680 6.011342 -1.429865
-2.988311 6.495646 -1.367486
-3.323735 7.152169 -1.313532
-3.623806 7.814807 -1.225945
-4.064550 8.782347 -1.142747
-4.744106 10.278062 -1.066293
-5.591103 12.143449 -0.942374
-6.601524 14.363933 -0.742050
-9.369875 20.451189 -0.523788
-9.225154 20.152283 0.000773
-3.218266 6.963719 0.179084
0.001298 -0.109957 -0.002503
-3.245988 7.037750 0.547638
0.001298 -0.109957 -0.002503
-5.731319 12.525672 1.622168
-5.793229 12.673893 1.972207
-5.940933 13.011825 2.366258
-6.022800 13.198704 2.752123
-0.237724 0.420287 -0.347233
-0.247232 0.441882 -0.342355
-0.266980 0.486004 -0.349809
-0.302295 0.565068 -0.373906
-0.383318 0.745993 -0.446446
-1.588216 3.428749 -1.728922
-1.687596 3.653487 -1.724722
-1.802923 3.914196 -1.723780
-1.920309 4.177982 -1.711897
-2.053772 4.480035 -1.700928
-2.122415 4.637749 -1.624543
-2.173299 4.753711 -1.529283
-2.346474 5.145899 -1.508483
-2.537819 5.576868 -1.477145
-2.744370 6.045200 -1.434001
-2.970237 6.557752 -1.376716
-3.284654 7.180880 -1.315130
-3.604977 7.895266 -1.235098
-4.026429 8.839055 -1.146890
-4.715892 10.380615 -1.073869
-5.480399 12.086399 -0.935519
-6.493470 14.353767 -0.739504
-9.424506 20.900574 -0.533699
-9.270391 20.566523 0.000885
-3.184424 7.001055 0.179572
-9.423080 20.946049 1.076746
-3.238183 7.131107 0.553391
-5.670537 12.579740 1.296351
-5.618986 12.476119 1.611501
0.001283 -0.109826 -0.002497
-5.817061 12.937789 2.346820
-9.382980 20.953938 4.345732
-0.234647 0.421758 -0.347229
-0.241206 0.437035 -0.338433
-0.264971 0.490883 -0.351681
-0.294070 0.557124 -0.368517
-0.374000 0.738397 -0.441308
-1.570036 3.442976 -1.731349
-1.659181 3.648071 -1.717775
-1.772953 3.909294 -1.717222
-1.895606 4.189107 -1.711882
-2.027332 4.491929 -1.700912
-2.128142 4.725156 -1.650132
-2.149139 4.775072 -1.532022
-2.329412 5.189553 -1.517073
-2.508152 5.598622 -1.478972
-2.718327 6.082515 -1.438969
-2.934978 6.582081 -1.378175
-3.245824 7.207012 -1.316405
-3.574897 7.952229 -1.240635
-3.977262 8.867666 -1.147560
-4.662662 10.424098 -1.075511
-5.426245 12.154369 -0.938270
-6.414934 14.402000 -0.740023
-9.443183 21.271038 -0.541623
-9.272363 20.894115 0.000982
0.001290 -0.109716 -0.002494
-9.810079 22.153641 1.135779
-9.757570 22.044807 1.694024
-5.569297 12.548498 1.289871
-5.604797 12.641133 1.628515
-5.834482 13.169706 2.038314
0.001290 -0.109716 -0.002494
-9.232319 20.941116 4.332071
-0.232984 0.426399 -0.349261
-0.240146 0.443335 -0.341366
-0.259389 0.487671 -0.348859
-0.290934 0.560570 -0.369409
-0.376337 0.757245 -0.449855
-1.550290 3.453765 -1.732150
-1.636808 3.656013 -1.716990
-1.746081 3.911030 -1.713572
-1.872328 4.203529 -1.713236
-2.001552 4.505385 -1.701538
-2.135229 4.818053 -1.677507
-2.137035 4.824537 -1.543578
-2.298868 5.203005 -1.517056
-2.477569 5.618461 -1.480337
-2.688836 6.112552 -1.442276
-2.900293 6.608011 -1.380007
-3.206804 7.232937 -1.317680
-3.520492 7.954649 -1.237833
-3.942991 8.930603 -1.152631
-4.612295 10.474637 -1.077893
-5.357933 12.191015 -0.938656
-6.348021 14.477283 -0.741936
-9.424370 21.565363 -0.547612
-9.309161 21.310463 0.001097
-9.732458 22.305536 0.568629
-9.772371 22.418810 1.146490
-9.708435 22.281954 1.707922
-5.613500 12.850917 1.317447
-5.506049 12.614978 1.621106
-5.582575 12.797853 1.976209
-5.743939 13.183480 2.379018
-9.060346 20.876770 4.308036
-0.233283 0.435752 -0.354356
-0.237655 0.446446 -0.342339
-0.258035 0.494146 -0.351670
-0.289191 0.567293 -0.372094
-0.367771 0.751211 -0.445572
-1.531180 3.466113 -1.733764
-1.615807 3.667185 -1.717749
-1.722173 3.919429 -1.712831
-1.847463 4.214363 -1.713222
-1.976439 4.520445 -1.702803
0.001284 -0.109472 -0.002485
0.001284 -0.109472 -0.002485
-2.264454 5.207386 -1.514508
-2.451419 5.648874 -1.484467
-2.658354 6.140674 -1.445164
-2.865425 6.633777 -1.381836
-3.167620 7.258675 -1.318953
-3.496707 8.027692 -1.245872
-3.915182 9.009866 -1.159787
-4.562270 10.526761 -1.080461
-5.251641 12.139270 -0.932359
-6.261583 14.508213 -0.741619
-9.408798 21.874899 -0.553966
-9.351675 21.751808 0.001216
-9.735269 22.670202 0.576536
-9.669970 22.539125 1.149818
-9.515935 22.188978 1.696653
-5.409122 12.579066 1.286589
-5.456850 12.703257 1.628351
-5.607492 13.063154 2.011912
-5.661908 13.203746 2.376782
-5.869204 13.704341 2.827869
-0.226120 0.427709 -0.348231
-0.231736 0.441508 -0.338416
-0.252498 0.490874 -0.348848
-0.281813 0.560841 -0.367603
-0.369137 0.768431 -0.453264
-1.509241 3.473580 -1.732938
-1.596916 3.683364 -1.720818
-1.700396 3.932844 -1.714272
-1.823980 4.230579 -1.715258
-1.951952 4.537113 -1.704708
0.001269 -0.109341 -0.002480
-2.142448 5.000137 -1.590379
-2.240537 5.236515 -1.519048
-2.424761 5.681411 -1.489056
-2.635587 6.190753 -1.453040
-2.839782 6.685239 -1.388846
-3.133604 7.296905 -1.322496
-3.440650 8.030166 -1.243069
-3.868034 9.045197 -1.161383
-4.531181 10.624529 -1.087665
-5.223115 12.275131 -0.940259
-6.160246 14.503647 -0.739539
-9.328652 22.039396 -0.556677
-9.358365 22.131458 0.001326
-9.914043 23.463207 0.595286
0.001269 -0.109341 -0.002480
-9.514007 22.556038 1.720340
-5.447759 12.882844 1.314166
-5.374537 12.714427 1.625826
-5.468052 12.950165 1.989654
-5.522654 13.093387 2.351177
0.001269 -0.109341 -0.002480
-0.218971 0.419647 -0.342106
-0.227121 0.439777 -0.336452
-0.248928 0.492488 -0.348843
-0.279213 0.565933 -0.369391
-0.359761 0.760710 -0.448126
-1.491401 3.489100 -1.736178
-1.570877 3.684389 -1.716951
-1.673559 3.936114 -1.711349
-1.794646 4.230714 -1.711142
-1.923651 4.547003 -1.704052
-2.071545 4.909651 -1.695918
-2.151141 5.104920 -1.619013
-2.202905 5.235549 -1.514981
-2.395817 5.706184 -1.491805
-2.600757 6.209563 -1.453853
-2.814080 6.734322 -1.395486
-3.091908 7.320969 -1.323445
-3.399078 8.062786 -1.244991
-3.860168 9.179995 -1.175488
-4.439165 10.583294 -1.080774
-5.250396 12.542834 -0.958183
-6.058162 14.503158 -0.737643
-9.221596 22.153585 -0.558097
-9.393916 22.580545 0.001450
-9.826027 23.647367 0.598524
-11.112241 26.783022 1.359154
-11.638700 28.070612 2.134440
-5.232341 12.573573 1.279770
-5.333966 12.832528 1.636793
-5.549709 13.362425 2.047650
-5.324117 12.827641 2.298310
-5.261088 12.687111 2.606682
-0.221785 0.435347 -0.351280
-0.225285 0.444436 -0.338405
-0.246806 0.497314 -0.350714
-0.272600 0.561029 -0.365798
-0.358327 0.771207 -0.452396
-1.467896 3.490987 -1.732913
-1.552493 3.702040 -1.720791
-1.648841 3.940348 -1.709154
-1.767503 4.235878 -1.709077
-1.899776 4.563067 -1.705957
-2.042780 4.919500 -1.695307
-2.155078 5.201067 -1.644893
-2.175927 5.255046 -1.516990
-2.374753 5.750689 -1.499619
-2.561044 6.213242 -1.451341
-2.779528 6.759169 -1.397316
-3.055811 7.355211 -1.326339
-3.375219 8.139157 -1.253588
-3.813401 9.218752 -1.177547
-4.137296 10.020749 -1.021582
-5.195564 12.617301 -0.961491
-5.950542 14.480574 -0.734727
-9.181726 22.412209 -0.563205
-9.372533 22.902950 0.001554
-9.807402 23.994421 0.605922
-10.974744 26.876226 1.360810
-11.457474 28.091059 2.131011
-5.233383 12.779823 1.297669
-5.284034 12.917449 1.643806
-5.408068 13.236424 2.023720
-5.360736 13.126158 2.346054
0.001263 -0.109097 -0.002471
-0.218097 0.435107 -0.350255
-0.222843 0.447431 -0.339379
-0.245942 0.505400 -0.354463
-0.270862 0.567645 -0.368483
-0.349891 0.765003 -0.448113
-1.447820 3.501199 -1.733714
-1.528468 3.705907 -1.718466
-1.626877 3.953353 -1.710595
-1.742472 4.246121 -1.709062
-1.869910 4.569098 -1.704023
-2.012915 4.931657 -1.695291
0.001273 -0.108984 -0.002467
0.001273 -0.108984 -0.002467
-2.345712 5.779257 -1.503289
-2.535410 6.261600 -1.458801
-2.747467 6.797583 -1.401735
-3.018520 7.383265 -1.328262
-3.335830 8.178802 -1.256622
-3.767207 9.254766 -1.179374
-4.354773 10.725582 -1.089990
-5.162362 12.747106 -0.968973
-6.519661 16.142664 -0.816202
-9.121134 22.637415 -0.567436
-9.451895 23.485779 0.001705
-9.834171 24.464579 0.616407
-11.166786 27.822102 1.405286
-11.402282 28.425308 2.151357
0.001273 -0.108984 -0.002467
-5.111006 12.708829 1.613598
-5.330274 13.272071 2.024312
-5.448604 13.575871 2.420089
-5.159883 12.863951 2.630469
-0.214143 0.434963 -0.349229
-0.222006 0.455395 -0.343291
-0.241003 0.503699 -0.352580
-0.269349 0.576064 -0.372066
-0.344696 0.767189 -0.448107
-1.427059 3.511556 -1.734515
-1.507159 3.718463 -1.719995
-1.602752 3.963062 -1.710582
-1.713860 4.249517 -1.706313
-1.844339 4.583446 -1.705287
-1.985964 4.948625 -1.697062
0.001282 -0.108871 -0.002464
-2.157616 5.393860 -1.548846
-2.305378 5.776484 -1.499124
-2.508373 6.297648 -1.463768
-2.720542 6.846355 -1.408376
-2.971249 7.398004 -1.327593
-3.309215 8.255666 -1.265217
-3.730398 9.329444 -1.185834
-4.284896 10.742858 -1.089032
-5.097001 12.805466 -0.971027
-6.460532 16.275969 -0.820895
-9.022707 22.784258 -0.569683
-9.407763 23.785336 0.001807
-9.789964 24.781227 0.622966
0.001282 -0.108871 -0.002464
-11.450925 29.047821 2.193242
-5.155143 13.025728 1.316349
-5.049461 12.769607 1.617587
-5.391875 13.656726 2.077853
-5.305694 13.443597 2.391239
0.001282 -0.108871 -0.002464
-0.211728 0.437877 -0.350244
-0.215076 0.447017 -0.337408
-0.235659 0.500223 -0.349758
-0.264229 0.574354 -0.370266
-0.342274 0.776031 -0.451521
-1.406849 3.521541 -1.735316
-1.484440 3.723508 -1.718441
-1.581311 3.977565 -1.712749
-1.686709 4.254186 -1.704247
-1.812528 4.581757 -1.700792
-1.958177 4.963658 -1.698238
-2.168031 5.512686 -1.729139
-2.164907 5.507426 -1.577174
-2.263762 5.769812 -1.494038
-2.471742 6.316200 -1.464580
-2.703931 6.926709 -1.421304
-2.951504 7.471617 -1.337613
-3.257395 8.265465 -1.263805
-3.689183 9.379880 -1.189514
-4.222088 10.761172 -1.088447
-5.026915 12.845894 -0.971828
-6.410145 16.418074 -0.826145
-8.933399 22.945955 -0.572345
-9.545138 24.549822 0.001993
-9.836310 25.314863 0.635044
-11.513612 29.680220 1.492286
-11.146315 28.759750 2.166740
-4.948157 12.721796 1.282883
-5.015250 12.902382 1.630648
-5.321074 13.709837 2.081233
-5.206769 13.427052 2.382834
0.001267 -0.108740 -0.002458
-0.207261 0.436044 -0.348198
-0.215511 0.458179 -0.343279
-0.230782 0.498440 -0.347875
-0.260181 0.576042 -0.370259
-0.333797 0.769729 -0.447238
0.001276 -0.108627 -0.002455
-1.461682 3.732378 -1.718428
-1.556392 3.985273 -1.712008
-1.660814 4.264253 -1.704232
-1.782654 4.587240 -1.698857
-1.929429 4.978895 -1.699412
-2.110132 5.460870 -1.709286
-2.171307 5.625233 -1.606516
-2.229554 5.785094 -1.494480
-2.428737 6.318060 -1.461653
-2.671885 6.968502 -1.426463
-2.919912 7.524158 -1.343745
-3.221821 8.321776 -1.269341
-3.623625 9.377607 -1.186477
-3.886238 10.075452 -1.017579
-4.942163 12.855108 -0.970263
-6.349710 16.554878 -0.831023
-8.841301 23.116386 -0.575192
-9.473362 24.802423 0.002090
-9.831694 25.757900 0.644740
-11.021806 28.918863 1.450842
-11.081023 29.105299 2.187789
-10.959591 28.815372 2.888605
-5.010441 13.123354 1.654643
-4.703566 12.326105 1.868354
-11.643232 30.699705 5.414429
-4.231986 11.097283 2.256596
-0.201093 0.429308 -0.343093
-0.211023 0.456281 -0.341314
-0.229164 0.504858 -0.350684
-0.253103 0.569296 -0.365768
-0.332707 0.781870 -0.452364
-1.362400 3.530923 -1.732038
-1.438250 3.737403 -1.716874
-1.530891 3.987039 -1.709087
-1.635703 4.271814 -1.703535
-1.757727 4.600793 -1.700123
-1.901000 4.989719 -1.699396
-2.079684 5.474498 -1.709820
-2.212901 5.835039 -1.661670
-2.200679 5.808516 -1.497228
-2.393275 6.329411 -1.461218
-2.637681 6.994035 -1.428663
-2.891214 7.581614 -1.350848
-3.195627 8.395386 -1.277657
-3.589190 9.452365 -1.193168
-4.094736 10.810030 -1.088389
-4.869709 12.882621 -0.970230
-6.295728 16.703550 -0.836549
-8.750055 23.268497 -0.577669
-9.540812 25.407681 0.002253
-9.834441 26.220644 0.654952
-10.818360 28.869648 1.445395
-10.744170 28.701376 2.153036
-10.785618 28.827698 2.884021
-10.744237 28.747225 3.603775
-4.118946 10.967546 1.660485
-11.444118 30.675404 5.399247
0.001263 -0.108493 -0.002450
-0.201076 0.438623 -0.348186
-0.203619 0.446115 -0.334454
-0.225116 0.504593 -0.349741
-0.253650 0.582569 -0.372041
-0.323816 0.773713 -0.447226
-1.345865 3.550851 -1.737716
-1.418039 3.748969 -1.718402
-1.507951 3.997678 -1.709799
-1.610479 4.281302 -1.703520
-1.732549 4.616299 -1.702028
-1.871606 5.000701 -1.699381
-2.042220 5.472068 -1.705396
-2.219216 5.958649 -1.692529
-2.187319 5.877898 -1.511493
-2.360416 6.358323 -1.464523
-2.582710 6.974605 -1.421613
-2.854401 7.614426 -1.353742
-3.158287 8.445360 -1.282359
-3.541281 9.487302 -1.194994
-3.984108 10.698322 -1.075009
-4.818294 12.974228 -0.974927
-6.241130 16.845436 -0.841797
-8.640200 23.386183 -0.579269
-9.574474 25.954166 0.002407
-9.898901 26.851475 0.669374
-10.641696 28.905306 1.444155
-10.500561 28.551199 2.137301
-10.628850 28.932434 2.888187
-10.618876 28.920654 3.617803
-3.933439 10.658243 1.610629
-11.362843 31.020960 5.448011
-4.119469 11.185428 2.264810
-0.200767 0.448018 -0.353280
-0.203309 0.455645 -0.339345
-0.222081 0.507708 -0.350673
-0.248326 0.580824 -0.370242
-0.320438 0.780858 -0.449785
-1.327872 3.567250 -1.741770
-1.391391 3.747040 -1.713765
-1.483561 4.006674 -1.709786
-1.587716 4.297693 -1.706242
-1.698075 4.608799 -1.695614
-1.838704 5.004671 -1.696982
-2.006806 5.474815 -1.702624
-2.219838 6.073814 -1.720855
-2.187680 5.987604 -1.535896
-2.329768 6.390359 -1.468659
-2.550508 7.013539 -1.426402
-2.813236 7.644320 -1.355989
-3.117103 8.485875 -1.285672
-3.501906 9.556831 -1.200990
-3.677916 10.053438 -1.008781
-3.675662 10.052659 -0.756134
0.001255 -0.108252 -0.002441
0.001255 -0.108252 -0.002441
-3.660861 10.039143 -0.000533
0.001255 -0.108252 -0.002441
0.001255 -0.108252 -0.002441
0.001255 -0.108252 -0.002441
0.001255 -0.108252 -0.002441
-3.645147 10.045076 1.261098
-3.772362 10.404954 1.569410
0.001255 -0.108252 -0.002441
-4.039135 11.172771 2.257426
-0.194100 0.439575 -0.347155
-0.200648 0.458575 -0.340319
-0.218526 0.509100 -0.350668
-0.246146 0.587416 -0.372928
-0.314095 0.779402 -0.448068
-0.601360 1.589745 -0.804199
-1.369166 3.755108 -1.713753
-1.457990 4.010011 -1.707591
-1.561575 4.307174 -1.706226
-1.671538 4.620424 -1.696238
-1.804786 5.002699 -1.692798
-1.969804 5.475865 -1.699303
-2.147508 5.982610 -1.691987
-2.195472 6.125417 -1.567211
-2.304155 6.441089 -1.476950
-2.510839 7.036094 -1.427861
-2.798405 7.744189 -1.370540
-3.073376 8.524863 -1.288706
-3.471513 9.648069 -1.209765
-3.626035 10.093345 -1.010607
-3.617997 10.081931 -0.756663
0.001264 -0.108139 -0.002437
0.001264 -0.108139 -0.002437
-3.599934 10.058922 -0.000507
0.001264 -0.108139 -0.002437
0.001264 -0.108139 -0.002437
0.001264 -0.108139 -0.002437
0.001264 -0.108139 -0.002437
0.001264 -0.108139 -0.002437
0.001264 -0.108139 -0.002437
-3.550359 9.985458 1.757516
-3.543145 9.970449 2.012452
-0.189706 0.437596 -0.345110
-0.194983 0.453303 -0.336395
-0.216629 0.515532 -0.353477
-0.239662 0.582240 -0.369333
-0.313005 0.793337 -0.454049
-0.588576 1.584682 -0.800125
-1.347450 3.766786 -1.715280
-1.434770 4.022243 -1.709031
-1.536117 4.316212 -1.706213
-1.644701 4.633964 -1.697503
-1.775053 5.015241 -1.693379
-1.942030 5.499956 -1.703143
-2.108819 5.988062 -1.689944
-2.200268 6.255796 -1.596682
-2.269612 6.463621 -1.479009
-2.463902 7.033847 -1.424511
-2.763495 7.794299 -1.376350
-3.045861 8.606116 -1.298134
-3.425383 9.702384 -1.213907
0.001249 -0.108008 -0.002432
0.001249 -0.108008 -0.002432
-3.611142 10.263012 -0.512583
-3.607194 10.263247 -0.255392
-3.593901 10.230734 -0.000450
-3.546033 10.104490 0.250527
-3.529109 10.067134 0.501781
-3.527153 10.067137 0.752610
-3.518243 10.052817 1.002749
-3.512575 10.047818 1.256266
-3.500999 10.019957 1.505643
-3.494785 10.013330 1.758842
-3.489069 10.008133 2.015815
-0.184883 0.433919 -0.342045
-0.192314 0.456192 -0.337369
-0.209026 0.505200 -0.346901
-0.233942 0.578664 -0.366637
-0.306190 0.790052 -0.451478
-0.579407 1.589894 -0.800931
-1.324533 3.772867 -1.714496
-1.411076 4.028543 -1.708292
-1.511226 4.326888 -1.706883
-1.621251 4.652160 -1.700688
-1.746432 5.025206 -1.693363
-1.899823 5.482062 -1.694310
-2.080988 6.018193 -1.694987
-2.214913 6.419609 -1.634445
-2.238544 6.492991 -1.482729
-2.446076 7.112770 -1.437439
-2.733358 7.855019 -1.384099
-3.014934 8.679839 -1.306449
-3.393959 9.795352 -1.222914
-3.698157 10.694823 -1.065623
-3.564396 10.310054 -0.770384
-3.546217 10.268644 -0.511812
-3.543427 10.266325 -0.254950
0.001259 -0.107895 -0.002428
-9.964694 29.125576 0.720305
-10.071354 29.455040 1.459773
-9.820557 28.751703 2.134917
-9.893170 28.981441 2.869850
-3.876942 11.306864 1.409620
0.001259 -0.107895 -0.002428
0.001259 -0.107895 -0.002428
-3.741536 10.939670 2.197467
-0.182966 0.438339 -0.344079
-0.190288 0.460698 -0.339322
-0.208417 0.514852 -0.351589
-0.232972 0.588571 -0.371115
-0.300440 0.790214 -0.450616
-0.568479 1.589878 -0.799295
-1.304589 3.785565 -1.716796
-1.387255 4.036741 -1.708277
-1.485673 4.335647 -1.706869
-1.590815 4.652562 -1.697474
-1.714424 5.028053 -1.690966
-1.867601 5.493027 -1.694294
-2.026710 5.973298 -1.679279
-2.201271 6.504385 -1.652397
-2.227766 6.591674 -1.501821
-2.414346 7.160843 -1.444079
-2.695158 7.888976 -1.387317
-2.971870 8.719696 -1.309762
-3.347520 9.840648 -1.226128
-3.630176 10.692779 -1.063370
-3.553903 10.478052 -0.781210
-3.527637 10.405824 -0.517539
-3.519252 10.392857 -0.257500
-3.516551 10.396860 -0.000370
-9.958088 29.649212 0.731932
-9.903518 29.520239 1.460217
-9.867203 29.445635 2.182127
0.001268 -0.107782 -0.002425
-3.644701 10.829741 1.347993
-3.616881 10.758851 1.609377
-3.742346 11.148640 1.948791
-3.588615 10.692595 2.144120
-0.180262 0.441177 -0.345093
-0.186919 0.461947 -0.339316
-0.205817 0.519549 -0.353461
-0.226587 0.583265 -0.367522
-0.297382 0.798984 -0.454031
-0.556967 1.588035 -0.796849
-1.280918 3.791629 -1.716011
-1.362642 4.045021 -1.708264
-1.460075 4.344262 -1.706854
-1.563152 4.663849 -1.698099
-1.685125 5.041894 -1.692141
-1.825168 5.472755 -1.684912
-1.999025 6.011091 -1.686347
-2.163783 6.518933 -1.652838
-2.232266 6.736579 -1.531299
-2.377348 7.189711 -1.447017
-2.652652 7.919955 -1.389885
-2.935909 8.781918 -1.316410
-3.312098 9.932138 -1.234903
-3.560440 10.697231 -1.061673
-3.544719 10.655751 -0.792731
-3.513941 10.574733 -0.524748
-3.506205 10.563720 -0.261112
-3.505300 10.567152 -0.000315
-10.028893 30.462118 0.750583
-10.057967 30.586668 1.509959
-9.957719 30.298397 2.240950
0.001253 -0.107651 -0.002419
-3.600104 10.913592 1.355699
-3.594839 10.903872 1.627801
-3.514674 10.671051 1.862473
-3.524481 10.713814 2.144149
-0.180281 0.452150 -0.351207
-0.184166 0.464796 -0.340290
-0.202210 0.520858 -0.353455
-0.224262 0.589795 -0.370207
-0.289935 0.793928 -0.450603
-0.545233 1.586230 -0.794401
-1.259570 3.802571 -1.717540
-1.337572 4.049380 -1.706796
-1.430193 4.342241 -1.702738
-1.533353 4.665694 -1.695524
-1.653705 5.046192 -1.690339
-1.789114 5.474475 -1.682140
-1.971445 6.046581 -1.692909
-2.127415 6.541058 -1.655122
-2.242891 6.910089 -1.567007
-2.347775 7.246877 -1.455505
-2.611253 7.950236 -1.392455
-2.912432 8.889762 -1.329727
-3.271985 10.005980 -1.241592
-3.493905 10.704427 -1.060346
-3.490015 10.705199 -0.794789
-3.505745 10.760313 -0.532794
-3.498690 10.751327 -0.265136
-3.488501 10.732573 -0.000257
-10.019295 31.037193 0.763384
-9.947112 30.849615 1.520135
-9.907046 30.761663 2.270818
-3.599507 11.123961 1.100220
-3.534791 10.928597 1.355030
-3.670099 11.364614 1.692772
-3.459694 10.720036 1.867371
-3.457922 10.720935 2.141581
-0.177474 0.454973 -0.352222
-0.181815 0.469323 -0.342244
-0.198482 0.522175 -0.353449
-0.220660 0.592944 -0.371098
-0.289666 0.811229 -0.458294
-0.533827 1.584247 -0.791953
-1.235807 3.808350 -1.716757
-1.314193 4.058929 -1.707509
-1.403436 4.346957 -1.701356
-1.508114 4.681792 -1.698069
-1.627455 5.066687 -1.693895
-1.757517 5.486637 -1.682675
0.001247 -0.107407 -0.002411
-2.090257 6.557029 -1.656026
-2.258122 7.096230 -1.605625
-2.319011 7.299379 -1.463254
-2.586123 8.037191 -1.404739
-2.870775 8.938599 -1.334429
-3.228166 10.076476 -1.247817
-3.494646 10.930117 -1.080341
-3.436140 10.751877 -0.796709
-3.502657 10.975351 -0.542229
-3.469258 10.876285 -0.267639
-3.441692 10.802197 -0.000219
-10.100657 31.940989 0.784192
-11.544307 36.542957 1.796927
0.001247 -0.107407 -0.002411
-3.536150 11.142103 1.100063
-3.481889 10.982989 1.359246
-3.442770 10.871696 1.616989
-3.386193 10.697866 1.860257
-3.406093 10.774549 2.148282
-0.170756 0.444587 -0.345077
-0.176006 0.462134 -0.337342
-0.194972 0.523408 -0.353443
-0.215165 0.589174 -0.368401
-0.282752 0.807821 -0.455723
-0.522447 1.582179 -0.789506
-1.213924 3.815313 -1.716744
-1.292388 4.073673 -1.710405
-1.377779 4.355095 -1.701341
-1.480536 4.690536 -1.698053
-1.594274 5.065162 -1.690307
-1.724167 5.493129 -1.681555
-1.897608 6.059883 -1.690343
-2.051866 6.569087 -1.656006
0.001256 -0.107294 -0.002407
-2.283688 7.341322 -1.468782
-2.546481 8.070470 -1.407956
-2.846888 9.045873 -1.347747
-3.197206 10.177925 -1.257980
-3.497355 11.156873 -1.100521
-3.400754 10.859260 -0.803081
-5.664007 18.166044 -0.890867
-3.472813 11.112043 -0.272811
-3.445022 11.035966 -0.000146
-10.076271 32.497482 0.796530
0.001256 -0.107294 -0.002407
0.001256 -0.107294 -0.002407
-3.408998 10.966987 1.080917
-3.387036 10.902369 1.346944
0.001256 -0.107294 -0.002407
0.001256 -0.107294 -0.002407
-3.363003 10.858000 2.160914
-0.165984 0.440792 -0.342011
-0.175695 0.473318 -0.343211
-0.190700 0.522983 -0.352500
-0.213630 0.599117 -0.372880
-0.278374 0.813073 -0.457427
-0.512413 1.585375 -0.789499
-1.189586 3.819055 -1.715189
-1.265940 4.076042 -1.708210
-1.353455 4.370511 -1.704062
-1.446561 4.681221 -1.691640
-1.564123 5.076486 -1.690886
-1.689241 5.497857 -1.679887
-1.847049 6.024858 -1.677671
-2.016726 6.596184 -1.659673
-2.222085 7.287648 -1.642143
-2.274531 7.471589 -1.491695
-2.503699 8.104445 -1.411172
-2.814477 9.134722 -1.358286
-3.161614 10.280465 -1.268141
-3.595616 11.720551 -1.153329
-4.600835 15.044909 -1.106616
-5.600792 18.348566 -0.898058
-7.849106 25.787861 -0.625326
0.001241 -0.107163 -0.002402
-10.045409 33.094570 0.809760
-20.242752 66.877930 3.274663
0.001241 -0.107163 -0.002402
-3.367949 11.069117 1.088950
-3.294144 10.831082 1.335802
-3.439170 11.326767 1.678088
-3.369109 11.107982 1.923941
-3.243065 10.695296 2.124986
-0.165279 0.450102 -0.347106
-0.169353 0.464419 -0.337330
-0.185566 0.519130 -0.349678
-0.207514 0.593608 -0.369287
-0.273074 0.814791 -0.457420
-0.501395 1.583084 -0.787051
-1.167483 3.827738 -1.715947
-1.242373 4.085184 -1.708923
-1.329503 4.381729 -1.705416
-1.423289 4.704150 -1.696743
-1.535337 5.089199 -1.692062
-1.659026 5.511027 -1.680971
-1.813350 6.041082 -1.679173
-1.980370 6.611203 -1.660576
-2.184088 7.311327 -1.644615
-2.288768 7.676627 -1.529406
-2.469932 8.164232 -1.418922
-2.764546 9.156121 -1.359094
-3.115389 10.344317 -1.273671
-3.566126 11.870974 -1.165904
-4.540088 15.150804 -1.112422
-5.542810 18.543400 -0.905900
-7.681120 25.769497 -0.623746
-7.731025 25.954065 0.002983
-10.130177 34.083679 0.832592
-11.809711 39.802326 1.946790
0.001253 -0.107047 -0.002398
-3.374905 11.322778 1.111880
-3.230570 10.848100 1.335599
-3.397696 11.421904 1.689268
-3.433513 11.558353 1.997985
-3.266751 11.006160 2.182471
-0.163520 0.456122 -0.350160
-0.166547 0.467186 -0.338304
-0.184445 0.528799 -0.354364
-0.204486 0.598356 -0.371075
-0.265742 0.809535 -0.453993
-0.495459 1.600206 -0.793547
-1.143279 3.829216 -1.713622
-1.217696 4.090604 -1.708183
-1.302332 4.387859 -1.704718
-1.392393 4.701465 -1.692890
-1.505920 5.099911 -1.692642
-1.624064 5.515348 -1.679303
-1.772023 6.031106 -1.673587
-1.942105 6.628570 -1.661939
-2.141661 7.329913 -1.645842
-2.300177 7.890413 -1.568595
-2.423404 8.182250 -1.419546
-2.722884 9.218113 -1.365741
-3.087999 10.474706 -1.287307
-3.527771 11.996586 -1.176070
-4.474040 15.261875 -1.118505
-5.485590 18.747774 -0.914204
-7.513602 25.750061 -0.622166
-7.559597 25.941977 0.003034
-10.116994 34.775257 0.848122
-13.768303 47.424530 2.315253
-3.244104 11.110348 0.816512
-3.225789 11.061505 1.084540
-3.165779 10.860906 1.334928
-6.939591 23.961370 3.523146
-3.368624 11.593811 2.000612
-3.167378 10.902143 2.158404
-0.155449 0.440678 -0.339956
-0.160733 0.459902 -0.333402
-0.178723 0.523213 -0.350605
-0.200801 0.601414 -0.371965
-0.262937 0.819866 -0.458264
-0.490130 1.618976 -0.800857
-1.120902 3.839591 -1.715151
-1.193530 4.097691 -1.708169
-1.276455 4.395428 -1.704703
-1.367287 4.718657 -1.696074
-1.472276 5.095761 -1.688459
-1.593775 5.532147 -1.681489
-1.736135 6.039475 -1.673064
-1.903294 6.639767 -1.661920
-2.102248 7.349421 -1.647483
-2.317852 8.124599 -1.611853
-2.388294 8.245933 -1.427944
-2.678955 9.268042 -1.370719
-3.053003 10.590391 -1.299089
-3.493587 12.149562 -1.188831
-4.410107 15.373863 -1.124727
-5.411395 18.912701 -0.920559
-7.368432 25.806473 -0.622429
-7.394747 25.933256 0.003084
-10.129233 35.608047 0.867026
-13.366945 47.053371 2.293466
0.001245 -0.106806 -0.002389
-3.152556 11.041150 1.080845
-3.109058 10.902015 1.337748
-7.163390 25.285728 3.711078
-7.063544 24.948338 4.279943
0.001245 -0.106806 -0.002389
-0.151471 0.438354 -0.337910
-0.159930 0.469322 -0.338293
-0.177105 0.531129 -0.354354
-0.193474 0.590593 -0.365680
-0.255192 0.812803 -0.453979
-0.481646 1.627169 -0.803289
-1.095417 3.833488 -1.709744
-1.168804 4.102824 -1.707428
-1.250514 4.402829 -1.704689
-1.339990 4.728402 -1.696699
-1.442323 5.104297 -1.688442
-1.558214 5.530242 -1.678167
-1.699683 6.045762 -1.672034
-1.862880 6.645122 -1.660519
-2.061101 7.373202 -1.649955
-2.285164 8.197081 -1.623298
-2.359742 8.323891 -1.438932
-2.644681 9.354014 -1.380978
-2.998049 10.624616 -1.301146
-3.435279 12.205441 -1.192323
-4.348755 15.499056 -1.131923
-5.352862 19.114048 -0.928768
-7.190181 25.744566 -0.619884
-7.232927 25.933123 0.003135
-10.208372 36.667923 0.891506
0.001254 -0.106694 -0.002386
-11.647642 41.965191 3.059218
-3.105471 11.128866 1.087576
-3.082675 11.053892 1.354067
-6.715202 24.232737 3.551413
-3.091074 11.114580 1.912369
0.001254 -0.106694 -0.002386
-0.152783 0.455970 -0.348103
-0.156979 0.472079 -0.339266
-0.171463 0.525488 -0.350593
-0.191679 0.600473 -0.370160
-0.251153 0.819657 -0.456539
-0.472144 1.631807 -0.804094
-1.074912 3.850716 -1.714355
-1.144800 4.113411 -1.708869
-1.224531 4.410083 -1.704675
-1.311294 4.736397 -1.696684
-1.411376 5.112878 -1.688428
-1.531764 5.561522 -1.684761
-1.666702 6.068948 -1.675559
-1.822954 6.652097 -1.659579
-2.020053 7.392639 -1.651596
-2.238874 8.215939 -1.624384
-2.328963 8.408298 -1.450891
-2.604275 9.420791 -1.388458
-2.971515 10.778412 -1.317557
-3.392582 12.337166 -1.203043
-4.281934 15.608669 -1.138005
-5.290154 19.334490 -0.937813
-7.016273 25.711647 -0.618029
-7.070306 25.928137 0.003185
-10.215654 37.559666 0.911776
-6.481466 23.825790 1.159031
-6.358576 23.388094 1.704702
-3.146211 11.536906 1.125402
-3.016934 11.074022 1.354328
-6.568270 24.246271 3.547846
0.001239 -0.106562 -0.002380
-3.073886 11.324286 2.230407
-0.148655 0.453642 -0.346058
-0.154102 0.474787 -0.340239
-0.166911 0.523176 -0.348711
-0.185772 0.594792 -0.366566
-0.244415 0.815967 -0.453968
-0.463080 1.638166 -0.805711
-1.052603 3.858762 -1.715112
-1.119052 4.114659 -1.706674
-1.198984 4.418996 -1.705346
-1.283862 4.745815 -1.697311
-1.382280 5.124737 -1.689603
-1.492229 5.544354 -1.677033
-1.631122 6.078571 -1.675542
-1.783038 6.658859 -1.658638
-1.975350 7.398596 -1.650329
-2.190916 8.228811 -1.624362
-2.329364 8.606628 -1.482281
-2.555013 9.456807 -1.391490
-2.926224 10.860732 -1.325401
-3.340390 12.429749 -1.210056
-4.212438 15.712222 -1.143670
-5.224894 19.540461 -0.946207
-6.507692 24.397095 -0.585719
-6.898745 25.887346 0.003228
-10.214832 38.433578 0.931627
-6.337447 23.839663 1.157964
0.001248 -0.106449 -0.002377
-3.006399 11.279640 1.098805
-2.934773 11.024100 1.346210
0.001248 -0.106449 -0.002377
-6.562564 24.829550 4.239537
-3.020025 11.387544 2.239334
-0.144550 0.451283 -0.344013
-0.148552 0.467358 -0.335337
-0.165516 0.532801 -0.353398
-0.185791 0.611544 -0.374633
-0.241840 0.827990 -0.459093
-0.453179 1.642775 -0.806517
-1.030695 3.868469 -1.716640
-1.095200 4.122962 -1.707388
-1.171175 4.422520 -1.703964
-1.254490 4.747761 -1.695376
-1.353585 5.138291 -1.691373
-1.459643 5.556955 -1.678118
-1.594524 6.084242 -1.674512
-1.742884 6.669448 -1.658619
-1.927878 7.398944 -1.647816
-2.145354 8.257027 -1.627299
-2.351026 8.894992 -1.528889
-2.507251 9.506425 -1.396468
-2.880071 10.942872 -1.333246
-3.300770 12.574155 -1.222074
-4.142134 15.827817 -1.150169
-5.169474 19.792709 -0.956827
-6.374544 24.465250 -0.586398
-6.730917 25.875675 0.003278
-10.327072 39.782940 0.962958
-6.259974 24.109901 1.169343
-5.956323 22.968456 1.669128
0.001233 -0.106318 -0.002372
0.001233 -0.106318 -0.002372
-3.124679 12.044356 1.763595
0.001233 -0.106318 -0.002372
-2.939124 11.347743 2.228240
-0.143377 0.460602 -0.349106
-0.148144 0.480171 -0.342188
-0.161278 0.532181 -0.352454
-0.182420 0.616238 -0.376421
-0.233636 0.819032 -0.453954
-0.444445 1.650792 -0.808949
-1.007539 3.876418 -1.717398
-1.070097 4.129514 -1.707375
-1.145107 4.429331 -1.703949
-1.225225 4.753417 -1.694721
-1.321532 5.142666 -1.690166
-1.427961 5.569126 -1.679204
-1.557784 6.093726 -1.674494
-1.706218 6.688936 -1.660904
-1.883207 7.404356 -1.646550
-2.098134 8.273186 -1.628016
-2.370259 9.193865 -1.577114
-2.467515 9.582240 -1.405337
-2.832113 11.029196 -1.341554
-3.252954 12.701722 -1.232423
-4.075870 15.952096 -1.157363
-5.093087 19.987762 -0.964662
-6.103056 24.006548 -0.574566
-6.567974 25.861773 0.003326
-10.431102 41.192860 0.995653
0.001242 -0.106205 -0.002368
-5.856059 23.132116 1.678558
0.001242 -0.106205 -0.002368
-2.937632 11.587697 1.410267
-3.057562 12.073790 1.765297
