# This PCD file was generated using the MATLAB® pcwrite function
# from Computer Vision Toolbox®.
# .PCD v.7 - Point Cloud Data file format
VERSION .7
FIELDS x y z
SIZE 4 4 4
TYPE F F F
COUNT 1 1 1
WIDTH 1676
HEIGHT 1
VIEWPOINT 0 0 0 1 0 0 0
POINTS 1676
DATA ascii
18.694559 16.196619 0.599980
18.949390 16.407610 1.196241
19.726688 17.078461 1.854270
19.631311 16.984304 2.452714
-0.002514 -0.076052 -0.001923
20.098461 17.373528 3.768013
20.132488 17.391582 4.406704
-0.002514 -0.076052 -0.001923
0.435270 0.302029 -0.344087
0.449259 0.313853 -0.336335
0.485826 0.345308 -0.343946
0.546066 0.396963 -0.364590
2.838060 2.371178 -1.771704
3.040970 2.544312 -1.784829
3.239841 2.714674 -1.783399
3.466424 2.907760 -1.782988
3.718781 3.122758 -1.782017
3.992553 3.357038 -1.775497
4.315263 3.631927 -1.771165
4.660219 3.925557 -1.756666
5.129656 4.327095 -1.764402
5.332382 4.498043 -1.659032
5.571167 4.699610 -1.553811
7.090297 5.997234 -1.750859
8.102336 6.925657 -1.749822
9.331132 7.981908 -1.721462
-0.002503 -0.075939 -0.001921
-0.002503 -0.075939 -0.001921
17.560951 15.062310 -1.598425
22.909752 19.666544 -1.379958
23.401005 20.076574 -0.685932
18.453001 15.805460 0.024117
19.829281 16.984566 0.633439
19.804483 16.952068 1.244184
20.247309 17.321301 1.893615
20.085699 17.171127 2.496795
-0.002503 -0.075939 -0.001921
21.255310 18.157785 3.964731
20.764627 17.725199 4.522018
17.697037 15.091126 4.415609
0.436197 0.298427 -0.343063
0.450227 0.310160 -0.335351
0.484293 0.339075 -0.341131
0.537967 0.384547 -0.357421
2.853473 2.356092 -1.772540
3.058793 2.529240 -1.786435
3.254920 2.694334 -1.782610
3.482115 2.886668 -1.782241
3.738586 3.102615 -1.782679
4.012239 3.334116 -1.775473
4.332163 3.603434 -1.769358
4.686129 3.901249 -1.757739
5.151985 4.295089 -1.763365
5.334873 4.447238 -1.651658
5.603712 4.673604 -1.555436
7.125588 5.958939 -1.751189
8.148234 6.881424 -1.750743
9.407516 7.953867 -1.726936
-0.002494 -0.075829 -0.001919
-0.002494 -0.075829 -0.001919
17.623529 14.940347 -1.596135
22.921522 19.441013 -1.373553
19.073528 16.159967 -0.556613
20.107225 17.028505 0.026416
20.463362 17.319933 0.650547
-0.002494 -0.075829 -0.001919
20.252884 17.124437 1.884938
20.406364 17.249491 2.524708
-0.002494 -0.075829 -0.001919
21.252729 17.944227 3.944927
20.764374 17.524830 4.500581
17.149820 14.451818 4.258169
0.442228 0.299424 -0.346113
0.449713 0.305491 -0.333391
0.493349 0.342173 -0.345810
0.524130 0.367805 -0.346671
2.874347 2.345560 -1.776792
3.079351 2.516395 -1.789663
3.268920 2.675044 -1.781822
3.501972 2.869077 -1.783672
3.755369 3.079949 -1.781974
4.028906 3.308632 -1.774174
4.357667 3.582226 -1.771115
4.714841 3.879261 -1.759910
5.180032 4.267953 -1.764346
5.333989 4.394042 -1.643368
5.637798 4.645405 -1.557060
7.168823 5.922963 -1.752992
8.194511 6.842279 -1.752313
9.491455 7.931602 -1.733792
11.600401 9.707330 -1.757495
14.609081 12.235957 -1.763771
17.726517 14.852845 -1.597556
19.241072 16.123203 -1.147813
23.120497 19.376015 -0.670904
23.114113 19.357800 0.030611
23.159233 19.389742 0.733127
19.424116 16.239927 1.208547
20.463167 17.101221 1.895382
20.275400 16.932413 2.496063
-0.002510 -0.075701 -0.001915
46.210358 38.647964 8.537937
21.089312 17.586346 4.548343
-0.002510 -0.075701 -0.001915
0.447093 0.299100 -0.348145
0.451969 0.302921 -0.333386
0.498560 0.341585 -0.347680
0.530890 0.368215 -0.349352
2.884506 2.325095 -1.774214
3.096079 2.499368 -1.790456
3.290863 2.660436 -1.784878
3.516521 2.845978 -1.782201
3.781267 3.063725 -1.785363
4.051850 3.287191 -1.775428
4.382245 3.558850 -1.772278
4.736738 3.850106 -1.759333
5.205702 4.237264 -1.764316
5.333413 4.340099 -1.635075
5.667213 4.613236 -1.557442
7.204278 5.880442 -1.752952
8.238434 6.796196 -1.752911
9.678800 7.991925 -1.759151
11.664374 9.643514 -1.758354
14.692578 12.158098 -1.764979
17.914484 14.830466 -1.606391
22.942024 19.007299 -1.361308
23.141718 19.160629 -0.668084
23.136709 19.143742 0.030602
23.163553 19.160133 0.729751
23.193354 19.172132 1.436387
20.695253 17.087837 1.907531
19.929819 16.442173 2.441479
-0.002499 -0.075588 -0.001913
46.794731 38.667355 8.603530
21.131430 17.409389 4.535070
16.278259 13.390060 4.002486
0.446589 0.294438 -0.346104
0.455482 0.301535 -0.334358
0.496866 0.335445 -0.344864
0.545856 0.375495 -0.357405
2.902472 2.312011 -1.776759
3.111823 2.483315 -1.791251
3.302285 2.638038 -1.782554
3.534731 2.826975 -1.782908
3.798737 3.042681 -1.785343
4.072600 3.265130 -1.776044
4.404572 3.534884 -1.772848
4.755619 3.821271 -1.758212
5.237939 4.213459 -1.766811
5.333888 4.290637 -1.627705
5.696346 4.584105 -1.558241
7.246568 5.847695 -1.755127
8.285490 6.755025 -1.754480
9.752745 7.961794 -1.764353
11.727798 9.582627 -1.759443
14.785860 12.092379 -1.767661
18.011312 14.741727 -1.607543
22.951216 18.792515 -1.355281
23.128513 18.925608 -0.664432
23.133932 18.924227 0.030556
23.164223 18.936459 0.726413
23.206503 18.958525 1.430493
20.807764 16.986000 1.909185
-0.002491 -0.075479 -0.001911
-0.002491 -0.075479 -0.001911
47.349018 38.682671 8.665731
-0.002491 -0.075479 -0.001911
-0.002491 -0.075479 -0.001911
0.447386 0.290870 -0.345081
0.459002 0.300108 -0.335331
0.503329 0.336032 -0.347670
2.766078 2.174942 -1.788324
2.918984 2.297650 -1.778450
3.131214 2.468373 -1.793668
3.319306 2.620243 -1.783306
3.555732 2.810205 -1.785065
3.814269 3.017823 -1.783959
4.097673 3.246502 -1.778576
4.426782 3.510772 -1.773419
4.793616 3.805187 -1.763678
5.271582 4.190642 -1.769810
5.341543 4.244332 -1.622169
5.722383 4.549099 -1.557798
7.284643 5.807185 -1.755825
8.326219 6.708560 -1.754760
9.800282 7.903885 -1.764303
11.787854 9.518802 -1.760075
14.872696 12.020960 -1.769609
-0.002480 -0.075366 -0.001908
22.957153 18.576994 -1.349165
23.122675 18.698956 -0.661045
23.146870 18.706079 0.030533
23.172388 18.720980 0.723366
23.199343 18.730310 1.423454
48.006721 38.811390 4.385957
48.024799 38.800110 5.830654
21.275627 17.142805 3.229264
-0.002480 -0.075366 -0.001908
-0.002480 -0.075366 -0.001908
-0.002480 -0.075366 -0.001908
0.452232 0.290474 -0.347113
0.454427 0.292014 -0.330438
0.501624 0.329828 -0.344853
2.759863 2.142927 -1.775772
2.933999 2.282058 -1.779287
3.144391 2.449269 -1.792840
3.338129 2.602924 -1.784825
3.573753 2.790958 -1.785772
3.836422 2.999443 -1.785985
4.113775 3.220594 -1.777278
4.445879 3.484133 -1.772803
4.814364 3.776448 -1.763103
5.286992 4.153077 -1.766757
5.338936 4.191760 -1.613878
5.755759 4.523295 -1.559839
7.322000 5.770193 -1.756896
8.374031 6.665331 -1.756328
9.852224 7.852420 -1.765358
11.856955 9.458771 -1.761853
14.967487 11.951324 -1.772288
18.769810 15.001382 -1.659141
22.969261 18.361782 -1.343319
23.313080 18.631901 -0.663281
23.153238 18.491241 0.030499
23.188332 18.506983 0.720515
23.215277 18.522795 1.417938
48.637924 38.860989 4.423305
48.620476 38.834934 5.876730
21.388412 17.031229 3.231474
17.199308 13.671982 3.117385
-0.002471 -0.075256 -0.001906
15.253901 12.105361 3.698426
0.444841 0.280546 -0.339980
0.467420 0.298246 -0.338256
0.505274 0.328217 -0.345786
2.784820 2.137598 -1.783817
2.956030 2.271977 -1.784393
3.169881 2.440884 -1.799314
3.354475 2.585507 -1.785576
3.585798 2.766989 -1.783576
3.854995 2.979263 -1.786647
4.137149 3.200493 -1.779171
4.463312 3.456217 -1.771593
4.834304 3.748412 -1.762532
5.326453 4.134666 -1.771775
5.341312 4.145089 -1.607428
5.788285 4.495039 -1.561465
7.364792 5.735365 -1.759068
8.419245 6.624732 -1.757899
9.904096 7.803557 -1.766694
11.908477 9.391272 -1.761571
15.051570 11.881297 -1.774241
18.917772 14.947315 -1.664688
22.970121 18.152617 -1.337303
23.139971 18.275076 -0.655255
23.148407 18.276041 0.030451
23.189886 18.296589 0.717457
23.215490 18.304569 1.411561
49.211281 38.871105 4.455824
49.187374 38.826065 5.918304
15.493331 12.171330 2.329764
15.484279 12.160369 2.794024
16.230734 12.741510 3.419486
15.328434 12.021037 3.699615
0.456354 0.285530 -0.347103
0.466808 0.293503 -0.336296
0.517319 0.333042 -0.352340
2.798929 2.122735 -1.784698
2.962384 2.249451 -1.780110
3.181890 2.419880 -1.797675
3.374104 2.569671 -1.787866
3.605061 2.748689 -1.785009
3.868599 2.952985 -1.784580
4.152949 3.174400 -1.777873
4.497111 3.441157 -1.776913
4.864474 3.725703 -1.765252
5.344511 4.099267 -1.769732
5.343234 4.095477 -1.600516
5.832281 4.473955 -1.565986
7.405353 5.696496 -1.760505
8.463906 6.581127 -1.759148
9.956917 7.749648 -1.767751
11.973718 9.331254 -1.763123
15.129575 11.801920 -1.775272
19.064674 14.880471 -1.669678
22.977257 17.943697 -1.331560
23.138248 18.057749 -0.652143
23.159262 18.062019 0.030425
23.202419 18.090117 0.714694
23.218678 18.090656 1.405468
49.834446 38.885654 4.491481
49.829987 38.855980 5.967973
-0.002476 -0.075015 -0.001900
15.614366 12.113448 2.804478
-0.002476 -0.075015 -0.001900
15.050745 11.661976 3.616252
0.458496 0.282915 -0.347099
0.466250 0.288679 -0.334336
0.526714 0.335482 -0.357020
2.809091 2.104016 -1.782892
2.983265 2.237492 -1.784361
3.204862 2.408357 -1.802527
3.388263 2.548604 -1.787078
3.624682 2.729659 -1.786440
3.890447 2.934214 -1.786607
4.176660 3.153292 -1.779766
4.514857 3.412204 -1.775702
4.884757 3.696568 -1.764679
5.353850 4.055786 -1.764661
5.342486 4.045743 -1.593146
5.859926 4.441608 -1.566371
7.447798 5.661077 -1.762678
8.506367 6.533330 -1.759750
10.017442 7.704449 -1.770466
12.037169 9.266246 -1.764215
15.209214 11.719378 -1.776302
19.237215 14.837781 -1.677145
22.993715 17.737440 -1.326266
23.155306 17.850483 -0.649514
23.179482 17.863592 0.030413
23.197489 17.865396 0.711351
23.216984 17.868372 1.398996
50.459007 38.907875 4.527695
50.445839 38.871407 6.014999
-0.002467 -0.074905 -0.001898
22.006699 16.899473 3.935654
15.496475 11.870458 3.235210
-0.002467 -0.074905 -0.001898
0.459193 0.279319 -0.346077
0.466946 0.285035 -0.333354
0.526260 0.330402 -0.355141
2.820169 2.086834 -1.781981
2.997986 2.221476 -1.785200
3.213318 2.385520 -1.799265
3.398928 2.525786 -1.784755
3.640781 2.708847 -1.786422
3.910702 2.914154 -1.787952
4.195190 3.129293 -1.779747
4.539439 3.389722 -1.777462
4.910995 3.671978 -1.766304
5.357545 4.009745 -1.758079
5.335152 3.991431 -1.583942
5.899840 4.418573 -1.570066
7.488543 5.624155 -1.764485
8.555250 6.492755 -1.761966
10.071522 7.653968 -1.772078
12.093931 9.199294 -1.764621
15.302181 11.651093 -1.779171
19.300596 14.709883 -1.675137
22.999140 17.530752 -1.320617
23.185097 17.661064 -0.647379
23.199800 17.666727 0.030398
23.211458 17.663614 0.708728
23.226269 17.662928 1.393470
51.107647 38.941128 4.565894
51.093563 38.903954 6.065596
-0.002459 -0.074796 -0.001896
51.039814 38.824326 9.089812
15.963741 12.084750 3.318191
15.976601 12.086325 3.804493
0.462581 0.277826 -0.347089
0.475970 0.287711 -0.338238
0.530010 0.328523 -0.356074
2.828298 2.067434 -1.779281
3.005373 2.199935 -1.781770
3.229324 2.367624 -1.800061
3.425624 2.515198 -1.790888
3.655272 2.686820 -1.785680
3.928358 2.891020 -1.787932
4.210537 3.102921 -1.778450
4.562348 3.365952 -1.778627
4.940817 3.648678 -1.769025
5.359344 3.962636 -1.750994
5.349858 3.952792 -1.581162
5.927974 4.384771 -1.570452
7.512780 5.572660 -1.762241
8.599219 6.448268 -1.763216
10.128247 7.602574 -1.773964
12.159802 9.139206 -1.766405
15.401210 11.586929 -1.782776
19.454813 14.645782 -1.680817
23.006134 17.327023 -1.315152
23.178371 17.445381 -0.644273
23.199326 17.449305 0.030357
23.230265 17.467089 0.706298
23.249905 17.470003 1.388895
51.738071 38.938732 4.601694
51.767628 38.934471 6.118273
-0.002448 -0.074683 -0.001893
-0.002448 -0.074683 -0.001893
20.901758 15.650419 4.325637
15.298835 11.432014 3.627257
0.468802 0.278271 -0.350139
0.478106 0.284989 -0.338233
0.528141 0.322307 -0.353258
2.842386 2.051802 -1.780161
3.025665 2.188118 -1.786023
3.241869 2.348011 -1.799233
3.435027 2.490513 -1.787797
3.677084 2.670300 -1.788563
3.942369 2.866205 -1.786550
4.230303 3.079853 -1.779069
4.586683 3.343155 -1.780387
4.963716 3.621429 -1.769551
5.360746 3.915663 -1.743907
5.354225 3.908086 -1.575631
5.955930 4.354042 -1.571254
7.552094 5.536588 -1.764050
8.648816 6.405534 -1.765429
10.181795 7.551367 -1.775576
12.231736 9.080118 -1.768876
15.489273 11.509766 -1.784910
19.440186 14.459538 -1.672222
23.025753 17.128143 -1.310321
23.189182 17.244709 -0.641701
23.211718 17.249716 0.030331
23.240971 17.259722 0.703580
23.243263 17.255903 1.382601
52.414639 38.977509 4.642019
-0.002463 -0.074554 -0.001890
17.865108 13.223908 2.627944
17.626591 13.037414 3.110837
-0.002463 -0.074554 -0.001890
15.950013 11.778595 3.765518
0.465249 0.271642 -0.346063
0.473096 0.277231 -0.333340
0.527514 0.317353 -0.351379
2.849909 2.032819 -1.777462
3.035750 2.168616 -1.784302
3.255753 2.329425 -1.799217
3.453745 2.474704 -1.790087
3.691321 2.648098 -1.787820
3.962273 2.845795 -1.787896
4.256010 3.061192 -1.782239
4.609374 3.319057 -1.781554
4.986464 3.594039 -1.770078
5.363366 3.869937 -1.737327
5.359814 3.864627 -1.570559
5.982098 4.318741 -1.571226
7.596349 5.499940 -1.766592
8.684873 6.357248 -1.765394
10.231916 7.497432 -1.776637
12.292257 9.018868 -1.770205
15.579347 11.442150 -1.787785
19.629484 14.425701 -1.681202
23.031462 16.932941 -1.305139
-0.002455 -0.074445 -0.001888
23.211300 17.042265 0.030288
23.234415 17.053839 0.700557
23.252605 17.055508 1.377356
53.093349 39.009766 4.682343
-0.002455 -0.074445 -0.001888
-0.002455 -0.074445 -0.001888
22.158585 16.210899 3.894511
17.091173 12.478450 3.506757
16.063963 11.720335 3.776386
0.461737 0.264917 -0.341985
0.479418 0.277598 -0.336269
0.532704 0.316392 -0.353249
2.865243 2.018102 -1.779238
3.050463 2.151747 -1.785140
3.275461 2.315051 -1.802448
3.462845 2.449930 -1.786995
3.711935 2.629548 -1.789979
3.982048 2.825272 -1.789241
4.271495 3.033756 -1.780944
4.629433 3.291761 -1.781532
5.018410 3.573282 -1.773900
5.364747 3.822244 -1.730242
5.371378 3.825808 -1.567322
6.019974 4.293522 -1.574510
7.634699 5.460828 -1.768033
8.730858 6.311544 -1.766966
10.289742 7.449019 -1.779079
12.362038 8.957612 -1.772449
15.687611 11.378987 -1.792307
20.028572 14.543055 -1.708030
23.036716 16.726646 -1.299676
-0.002444 -0.074332 -0.001885
23.214117 16.838936 0.030250
23.238651 16.845163 0.697736
23.268234 16.855032 1.372397
-0.002444 -0.074332 -0.001885
18.353090 13.265797 2.140720
-0.002444 -0.074332 -0.001885
-0.002444 -0.074332 -0.001885
-0.002444 -0.074332 -0.001885
15.960263 11.499163 3.735852
0.463688 0.262355 -0.341981
0.485685 0.277994 -0.339198
0.532061 0.311368 -0.351370
2.884499 2.006911 -1.783701
3.072041 2.140596 -1.790248
3.289156 2.296274 -1.802432
3.478817 2.431145 -1.787748
3.725940 2.607151 -1.789237
3.997177 2.801290 -1.788542
4.290860 3.010328 -1.781563
4.650293 3.266274 -1.782106
5.058085 3.557889 -1.780468
5.363526 3.774464 -1.722655
5.374776 3.781304 -1.561792
6.045035 4.258890 -1.574484
7.668046 5.418026 -1.768369
8.769080 6.262430 -1.767251
10.331309 7.388580 -1.778761
12.423530 8.893343 -1.773778
15.772704 11.302543 -1.794447
20.243517 14.522113 -1.719069
23.042303 16.528418 -1.294492
23.199041 16.629784 -0.633550
23.215364 16.636131 0.030210
23.248066 16.648109 0.695200
23.253399 16.640406 1.365907
54.471596 39.065132 4.764269
18.364912 13.113523 2.133272
-0.002435 -0.074222 -0.001883
-0.002435 -0.074222 -0.001883
16.852970 12.007316 3.429197
16.200806 11.531836 3.776518
0.471234 0.263778 -0.346050
0.480601 0.270241 -0.334304
0.527086 0.303275 -0.346680
2.899344 1.992461 -1.785478
3.083276 2.121933 -1.789380
3.300186 2.274715 -1.800793
3.497694 2.414401 -1.790038
3.747400 2.590082 -1.792122
4.018769 2.780908 -1.790570
4.310096 2.986783 -1.782182
4.672554 3.241777 -1.783272
5.070132 3.521262 -1.777151
5.365064 3.729091 -1.716076
5.394377 3.747215 -1.560851
6.080227 4.229840 -1.576940
7.703725 5.374810 -1.769074
8.807042 6.213082 -1.767538
10.386689 7.335323 -1.780651
12.481432 8.826394 -1.774648
15.842822 11.215101 -1.794936
20.373650 14.433101 -1.722693
23.056147 16.337635 -1.289858
23.208483 16.434605 -0.631119
23.230951 16.439127 0.030189
23.262493 16.456144 0.692855
23.258068 16.441528 1.360651
-0.002448 -0.074091 -0.001879
-0.002448 -0.074091 -0.001879
-0.002448 -0.074091 -0.001879
16.803108 11.829633 2.916124
17.136942 12.057672 3.472359
15.985054 11.238671 3.711018
0.477445 0.264062 -0.349100
0.491197 0.273513 -0.340166
0.532207 0.302277 -0.348550
2.911570 1.975326 -1.785465
3.098825 2.106345 -1.791073
3.316662 2.257878 -1.802402
3.512410 2.393708 -1.790022
3.761150 2.567507 -1.791380
4.033579 2.756768 -1.789869
4.329197 2.963116 -1.782802
4.694719 3.217108 -1.784441
5.098618 3.497643 -1.779875
5.364678 3.682711 -1.708993
5.424265 3.721783 -1.563123
6.116977 4.204918 -1.580224
7.745307 5.339706 -1.771621
8.847410 6.163116 -1.768145
10.440533 7.283474 -1.782543
12.556751 8.768310 -1.777812
-0.002440 -0.073981 -0.001877
20.513977 14.355826 -1.727419
23.068132 16.140909 -1.285038
23.239363 16.255953 -0.629308
23.243841 16.247692 0.030164
23.263580 16.250181 0.690077
23.287363 16.261539 1.356924
58.481941 40.918465 5.073311
19.997898 13.939909 2.304333
18.441338 12.840256 2.656919
17.371117 12.082401 3.002608
17.120356 11.903049 3.455445
16.219055 11.264709 3.750195
0.476501 0.259532 -0.347059
0.485976 0.265882 -0.335274
0.538671 0.302418 -0.351357
2.911209 1.950995 -1.778289
3.109839 2.087550 -1.790205
3.325530 2.235729 -1.799953
3.526134 2.374176 -1.790008
3.774764 2.544859 -1.790638
4.043656 2.729306 -1.787126
4.346620 2.938251 -1.782783
4.715154 3.191228 -1.785014
5.115951 3.466143 -1.778756
5.373499 3.643055 -1.704937
5.447653 3.691688 -1.563561
6.148697 4.173111 -1.581853
7.780528 5.296004 -1.772325
8.888583 6.118232 -1.769400
10.500608 7.235794 -1.785540
12.609211 8.700427 -1.778226
16.007761 11.057131 -1.798852
-0.002431 -0.073872 -0.001875
13.453591 9.271721 -0.747325
13.467283 9.274698 -0.363993
13.483479 9.279390 0.016688
23.285395 16.072254 0.688113
23.290743 16.064674 1.351762
58.794140 40.634418 5.080187
20.059414 13.806365 2.301968
-0.002431 -0.073872 -0.001875
17.812254 12.238949 3.066648
16.866425 11.577047 3.390216
16.801538 11.528457 3.869465
0.481315 0.258749 -0.349091
0.490855 0.265077 -0.337224
0.523403 0.287327 -0.340108
2.924661 1.934800 -1.779172
3.121118 2.068151 -1.789338
3.340266 2.217698 -1.800749
3.539065 2.352287 -1.789223
3.793326 2.524627 -1.792073
4.070593 2.713524 -1.791882
4.367534 2.914668 -1.784040
4.732867 3.162232 -1.784400
5.136255 3.436734 -1.778736
5.368280 3.592674 -1.696341
5.472445 3.662576 -1.564456
6.179526 4.142148 -1.583484
7.819445 5.256753 -1.774136
8.938187 6.074443 -1.771941
10.552321 7.182050 -1.787156
12.674138 8.634584 -1.780013
16.112932 10.989122 -1.803194
-0.002420 -0.073759 -0.001873
-0.002420 -0.073759 -0.001873
-0.002420 -0.073759 -0.001873
-0.002420 -0.073759 -0.001873
-0.002420 -0.073759 -0.001873
-0.002420 -0.073759 -0.001873
20.044762 13.635960 1.724117
-0.002420 -0.073759 -0.001873
19.904903 13.521134 2.844939
17.884521 12.137353 3.066992
19.850960 13.470252 3.974681
-0.002420 -0.073759 -0.001873
0.476094 0.251250 -0.343995
0.488484 0.259400 -0.334288
0.519628 0.280442 -0.336356
2.945044 1.924075 -1.784530
3.136405 2.052279 -1.791032
3.350792 2.195895 -1.799113
3.549942 2.329898 -1.787672
3.805140 2.500765 -1.790607
4.085486 2.688400 -1.791182
4.389404 2.892750 -1.785938
4.751441 3.135023 -1.784383
5.155387 3.405244 -1.778165
5.368455 3.547740 -1.689765
5.504222 3.636668 -1.567188
6.199560 4.102250 -1.582218
7.862337 5.218072 -1.776680
8.979972 6.027421 -1.773195
10.601727 7.123887 -1.788218
12.738884 8.571596 -1.782035
16.222530 10.927554 -1.808274
19.835981 13.368125 -1.650194
13.490801 9.065826 -0.743313
-0.002412 -0.073649 -0.001870
-0.002412 -0.073649 -0.001870
-0.002412 -0.073649 -0.001870
-0.002412 -0.073649 -0.001870
-0.002412 -0.073649 -0.001870
-0.002412 -0.073649 -0.001870
23.007755 15.446623 3.275901
22.574093 15.143350 3.856110
17.538296 11.740755 3.497431
17.544062 11.740702 4.008547
0.475168 0.246595 -0.341955
0.504930 0.266324 -0.344059
0.520259 0.276470 -0.335415
2.961303 1.909666 -1.787203
3.151609 2.036302 -1.792727
3.369886 2.180737 -1.802345
3.574890 2.316082 -1.793038
3.819891 2.478930 -1.790591
4.102886 2.665984 -1.791847
4.407973 2.868603 -1.786558
4.766651 3.105612 -1.783176
5.183339 3.380944 -1.780890
-0.002427 -0.073521 -0.001867
5.520630 3.601790 -1.565790
6.219522 4.065510 -1.581368
7.898338 5.178542 -1.778127
9.022588 5.978537 -1.774449
10.659466 7.073852 -1.790941
12.801523 8.503710 -1.783595
16.292505 10.834535 -1.808766
20.843340 13.876311 -1.727116
13.494980 8.952403 -0.740536
13.507028 8.957461 -0.360620
13.511612 8.954106 0.016656
13.517240 8.951427 0.394072
13.517195 8.948397 0.774671
-0.002427 -0.073521 -0.001867
17.832624 11.815711 2.022546
20.432108 13.538893 2.897858
17.833225 11.799181 3.034292
16.917372 11.185773 3.361014
17.466190 11.542704 3.975452
0.475511 0.243092 -0.340933
0.502456 0.260714 -0.341122
0.547255 0.290243 -0.351338
2.976830 1.896157 -1.789879
3.165201 2.019241 -1.793566
3.380894 2.160996 -1.801520
3.582002 2.292141 -1.789948
3.840758 2.461105 -1.793477
4.119707 2.644167 -1.792515
4.421690 2.841192 -1.785265
4.789664 3.081378 -1.784938
5.196131 3.347828 -1.778676
5.369366 3.459323 -1.677116
5.547575 3.575296 -1.567605
6.230187 4.021134 -1.578037
7.935019 5.137402 -1.779570
9.066112 5.934721 -1.776350
10.709120 7.020899 -1.792562
12.870757 8.446463 -1.786538
16.427912 10.792936 -1.816970
13.798891 9.051176 -1.139819
13.496827 8.845073 -0.737856
13.513759 8.849886 -0.359381
13.510076 8.844460 0.016630
13.519016 8.843979 0.392705
13.518902 8.837509 0.771854
13.526625 8.839599 1.149639
-0.002416 -0.073408 -0.001865
39.886131 26.167805 5.637037
17.239111 11.265356 2.922386
-0.002416 -0.073408 -0.001865
16.826538 10.978184 3.815314
0.484547 0.245156 -0.346020
0.502938 0.256947 -0.340141
0.540485 0.281374 -0.345713
2.986620 1.878124 -1.788971
3.177210 2.001088 -1.793554
3.397162 2.143003 -1.803129
3.597108 2.272599 -1.790703
3.853735 2.438040 -1.792737
4.134187 2.618765 -1.791817
4.443156 2.818907 -1.787162
4.812553 3.056984 -1.786701
5.222787 3.321242 -1.780852
5.376641 3.420022 -1.673062
5.577298 3.547725 -1.569879
7.044066 4.496321 -1.776946
7.970731 5.093564 -1.780644
9.105512 5.885773 -1.777283
10.757657 6.961680 -1.793627
12.942888 8.387533 -1.789709
16.516884 10.715702 -1.819849
13.837767 8.959416 -1.138535
13.502777 8.737840 -0.735355
13.516353 8.740348 -0.358055
13.517509 8.734759 0.016617
13.523258 8.735510 0.391386
13.528133 8.732361 0.769514
13.534114 8.729918 1.145860
17.911993 11.568593 2.016089
20.544237 13.274689 2.891897
-0.002408 -0.073298 -0.001862
17.428608 11.234342 3.436229
-0.002408 -0.073298 -0.001862
0.479182 0.237722 -0.340924
0.513673 0.259751 -0.346002
2.860607 1.773148 -1.808238
3.001146 1.862426 -1.790748
3.195554 1.986226 -1.796956
3.409872 2.123515 -1.803116
3.614080 2.253318 -1.792226
3.870120 2.416265 -1.793446
4.149621 2.595027 -1.791801
4.457061 2.790548 -1.785869
4.831047 3.028486 -1.786683
5.247100 3.294348 -1.782479
5.382613 3.378774 -1.668503
5.596426 3.514603 -1.569400
7.075213 4.458951 -1.778162
8.005321 5.050869 -1.781720
9.147344 5.836038 -1.778538
10.811309 6.908322 -1.795799
12.994516 8.311792 -1.789892
16.568882 10.610075 -1.818506
13.931479 8.906723 -1.141919
13.507792 8.627376 -0.732763
13.521337 8.629799 -0.356772
13.520926 8.626572 0.016597
13.529888 8.626021 0.390118
13.526381 8.617475 0.766506
13.532557 8.618503 1.141509
18.027353 11.496514 2.021601
17.937902 11.430787 2.515226
17.392191 11.077072 2.926153
16.991682 10.812428 3.337679
-0.002399 -0.073189 -0.001860
0.485332 0.237830 -0.343975
0.521470 0.260639 -0.349909
2.850324 1.743476 -1.795109
3.015259 1.847144 -1.792527
3.205832 1.966937 -1.796089
3.425916 2.105335 -1.804724
3.630534 2.234564 -1.793750
3.885970 2.395045 -1.794158
4.168553 2.572490 -1.793149
4.478280 2.767996 -1.787767
4.848837 3.000724 -1.786666
5.262131 3.260169 -1.780814
5.381145 3.334372 -1.661928
5.622535 3.484581 -1.570755
7.103617 4.418068 -1.778549
8.040574 5.006546 -1.782796
9.184546 5.785501 -1.779151
10.859233 6.848421 -1.796865
13.039253 8.234790 -1.789391
16.586456 10.486787 -1.813682
14.031664 8.853994 -1.145713
13.505404 8.516318 -0.729901
13.525675 8.522936 -0.355536
13.521661 8.514127 0.016575
13.532478 8.518072 0.388799
13.530636 8.510652 0.763974
13.536711 8.508246 1.137585
18.082230 11.380916 2.020158
18.086092 11.379434 2.526778
17.319170 10.885870 2.902919
17.089331 10.732590 3.344267
-0.002388 -0.073076 -0.001858
0.482807 0.232295 -0.340917
0.510150 0.249286 -0.341105
2.862540 1.727590 -1.796034
3.029625 1.831242 -1.794305
3.228250 1.955290 -1.802052
3.438415 2.085677 -1.804712
3.639479 2.210148 -1.791430
3.895393 2.369763 -1.791968
4.190097 2.552545 -1.795861
4.496170 2.743282 -1.788389
4.872928 2.976919 -1.789022
5.271443 3.223819 -1.777500
5.387545 3.295243 -1.657875
5.649538 3.456379 -1.572571
7.130245 4.379478 -1.778940
8.070502 4.962704 -1.783140
9.225834 5.735222 -1.780407
10.910643 6.793273 -1.798762
13.088312 8.157392 -1.789346
16.608366 10.362866 -1.809224
14.150415 8.815601 -1.151156
13.512149 8.408520 -0.727494
13.525827 8.414197 -0.354213
13.526820 8.408606 0.016559
13.540875 8.411175 0.387625
13.532443 8.402994 0.761344
13.538568 8.400605 1.133657
18.120609 11.263998 2.017389
17.899120 11.117250 2.491646
17.798510 11.046215 2.972571
-0.002404 -0.072947 -0.001854
17.912064 11.105090 4.001824
0.487431 0.231516 -0.342949
0.520851 0.252048 -0.346968
2.866554 1.707961 -1.792276
3.038711 1.813451 -1.793400
3.245660 1.941169 -1.805454
3.448849 2.065601 -1.803887
3.658432 2.193808 -1.794491
3.912146 2.350048 -1.793405
4.206282 2.530214 -1.796528
4.515059 2.720236 -1.789650
4.891521 2.950771 -1.789601
5.312688 3.208581 -1.785170
5.384857 3.252007 -1.651302
5.675801 3.428966 -1.574390
7.161658 4.343816 -1.780572
8.101836 4.919742 -1.783851
9.259814 5.684761 -1.780701
10.958920 6.738617 -1.800386
13.191457 8.119931 -1.797116
16.603750 10.231236 -1.802385
14.084533 8.665041 -1.141784
13.515136 8.305684 -0.725091
13.525417 8.309149 -0.352938
13.531480 8.306705 0.016540
13.535334 8.302920 0.386155
13.535408 8.300063 0.758901
13.544960 8.299788 1.130293
-0.002395 -0.072838 -0.001852
17.829527 10.935817 2.473398
-0.002395 -0.072838 -0.001852
-0.002395 -0.072838 -0.001852
17.087608 10.458596 3.804410
0.487698 0.227917 -0.341926
0.527183 0.251884 -0.349897
2.879779 1.693385 -1.794140
3.052555 1.797924 -1.795179
3.254475 1.920097 -1.803735
3.459923 2.044262 -1.803063
3.669866 2.171842 -1.793710
3.928037 2.327890 -1.794116
4.220049 2.504349 -1.795831
4.529936 2.692523 -1.788996
4.910989 2.922817 -1.790176
5.333695 3.178132 -1.785700
5.378051 3.204000 -1.643216
5.704790 3.400410 -1.576664
7.190189 4.301117 -1.780961
8.138889 4.874374 -1.785295
9.301215 5.636631 -1.782282
11.002510 6.675673 -1.800902
13.258736 8.056414 -1.799831
16.642435 10.123075 -1.800134
13.885971 8.428298 -1.121571
13.518880 8.200694 -0.722690
13.532275 8.202781 -0.351792
13.545126 8.204475 0.016534
13.545799 8.202013 0.385124
13.542229 8.193673 0.756556
13.555224 8.195478 1.127074
18.165207 10.998693 2.007910
17.906401 10.837164 2.475097
17.886528 10.816941 2.966221
17.475777 10.559027 3.383608
17.880136 10.801205 3.966537
0.495383 0.228674 -0.345996
0.529086 0.248864 -0.349892
2.887180 1.674558 -1.792255
3.060552 1.778032 -1.793377
3.266254 1.900859 -1.803724
3.478331 2.028183 -1.806298
3.687848 2.153018 -1.796002
3.940624 2.303686 -1.793377
4.233212 2.479150 -1.795135
4.549507 2.667673 -1.790256
4.928679 2.893739 -1.790159
5.353991 3.148458 -1.786233
5.384133 3.164169 -1.639164
5.724689 3.367615 -1.576645
7.215251 4.259755 -1.780939
8.163891 4.825504 -1.784534
9.341678 5.585547 -1.783539
11.061520 6.624627 -1.804181
13.313547 7.981816 -1.800709
16.671961 10.005729 -1.796779
14.079865 8.436007 -1.133191
13.524963 8.094634 -0.720375
13.538353 8.096608 -0.350648
13.546320 8.098554 0.016512
13.545015 8.091647 0.383752
13.543131 8.084417 0.753925
13.553061 8.087527 1.123001
18.539206 11.080776 2.042197
-0.002376 -0.072615 -0.001847
17.904804 10.687328 2.958978
-0.002376 -0.072615 -0.001847
-0.002376 -0.072615 -0.001847
0.489724 0.221509 -0.340901
0.518955 0.238756 -0.342067
2.892635 1.655306 -1.789433
3.077295 1.764162 -1.796947
3.274451 1.880287 -1.802005
3.487592 2.005757 -1.804662
3.697431 2.129970 -1.794452
3.959048 2.283929 -1.795540
4.249887 2.455067 -1.795802
4.560320 2.638642 -1.788327
4.947336 2.866386 -1.790738
5.379627 3.120670 -1.788411
5.394352 3.128294 -1.636625
5.753372 3.338669 -1.578921
7.245898 4.219966 -1.782157
8.197872 4.780105 -1.785612
9.382579 5.536830 -1.785120
11.106176 6.562026 -1.804975
13.359708 7.905129 -1.800669
16.642498 9.857627 -1.787374
13.531954 7.995862 -1.085266
13.530592 7.992159 -0.718156
13.540510 7.992017 -0.349462
13.555046 7.994608 0.016500
13.552269 7.990117 0.382672
13.546941 7.980874 0.751577
13.553205 7.978544 1.119072
16.329449 9.620114 1.792265
18.364155 10.823810 2.520717
22.342628 13.174170 3.679746
18.298346 10.768456 3.518246
17.831944 10.488406 3.928265
0.500354 0.223952 -0.347006
0.526808 0.239319 -0.345974
2.904351 1.639129 -1.790359
3.086606 1.745074 -1.796041
3.287191 1.862440 -1.802846
3.502651 1.987607 -1.806273
3.712029 2.109038 -1.795208
3.975749 2.263107 -1.796976
4.264374 2.430667 -1.795788
4.579134 2.614361 -1.789589
4.962530 2.837001 -1.790128
5.382986 3.081010 -1.783453
5.394319 3.086540 -1.631061
5.776283 3.307556 -1.579821
7.269733 4.179566 -1.782135
8.229948 4.737325 -1.786694
9.429316 5.489191 -1.787668
11.139084 6.495061 -1.804115
13.420495 7.833912 -1.802466
13.589393 7.927334 -1.454703
13.774254 8.033250 -1.100868
13.536872 7.887545 -0.715935
13.543616 7.888689 -0.348320
13.559897 7.892209 0.016483
13.555052 7.883345 0.381444
13.551754 7.878551 0.749323
13.559774 7.877249 1.115847
18.462019 10.746902 2.019916
18.361465 10.679830 2.511854
15.968137 9.271428 2.620610
15.991116 9.281506 3.064398
18.374277 10.667196 4.034132
0.496047 0.217798 -0.342929
0.525530 0.234716 -0.344015
2.918458 1.625651 -1.793160
3.099804 1.729715 -1.797822
3.296712 1.842682 -1.801981
3.512522 1.967211 -1.805450
3.724169 2.088378 -1.795197
3.982694 2.236541 -1.794063
4.278290 2.406927 -1.795775
4.596174 2.589009 -1.790213
4.980842 2.809454 -1.790706
5.400506 3.051022 -1.783437
5.392313 3.043917 -1.624994
5.803511 3.280221 -1.582099
7.295798 4.138723 -1.782528
8.259210 4.690950 -1.787038
9.473870 5.444513 -1.790217
11.168736 6.428876 -1.802981
13.471320 7.762945 -1.803350
13.601150 7.832417 -1.451182
14.015992 8.070564 -1.116471
13.537902 7.786873 -0.713628
13.549473 7.787585 -0.347269
13.560902 7.791390 0.016460
13.557745 7.783578 0.380310
13.555820 7.776464 0.747070
13.560788 7.776517 1.112337
63.230076 36.491409 6.898786
-0.002372 -0.072265 -0.001839
22.820707 13.110187 3.733750
22.108084 12.688835 4.223033
-0.002372 -0.072265 -0.001839
0.505195 0.219313 -0.348017
0.516705 0.225706 -0.337168
2.928180 1.608938 -1.793150
3.110135 1.711947 -1.797812
3.312413 1.826464 -1.804532
3.524551 1.946459 -1.805438
3.738141 2.067937 -1.795954
3.999167 2.215528 -1.795501
4.296194 2.383474 -1.797125
4.618017 2.566364 -1.792751
5.002332 2.783676 -1.792471
5.402246 3.009504 -1.777930
5.393363 3.003335 -1.619936
5.831751 3.250661 -1.584375
7.324064 4.097401 -1.783333
8.294155 4.645868 -1.788485
9.507180 5.390970 -1.790512
11.207115 6.362616 -1.802948
13.528276 7.692272 -1.804920
13.661989 7.762985 -1.452796
14.169681 8.047866 -1.124799
13.536128 7.682071 -0.711138
13.549395 7.683710 -0.346086
13.565667 7.687050 0.016442
13.561108 7.681646 0.379176
13.557439 7.673592 0.744719
13.563822 7.671283 1.108829
18.924559 10.722818 2.056700
-0.002361 -0.072152 -0.001837
16.312166 9.222320 2.659428
21.518097 12.178746 4.096391
15.754029 8.894186 3.435825
0.512906 0.219807 -0.352086
0.523018 0.225319 -0.340096
2.939658 1.592507 -1.794078
3.125327 1.696228 -1.800486
3.323621 1.806893 -1.804521
3.540902 1.928931 -1.807861
3.749178 2.044920 -1.795173
4.015905 2.193716 -1.796938
4.315167 2.361587 -1.799157
4.628637 2.536243 -1.790822
5.019204 2.754050 -1.792457
5.403136 2.969032 -1.772424
5.399699 2.964759 -1.616389
5.857574 3.220956 -1.586193
7.353074 4.058149 -1.784553
8.328057 4.601981 -1.789935
9.544583 5.337498 -1.791450
11.252587 6.302977 -1.804297
13.574101 7.611989 -1.804882
13.846913 7.760343 -1.467433
13.643003 7.642209 -1.079493
13.541890 7.579131 -0.709011
13.555132 7.580673 -0.345035
13.568321 7.585316 0.016422
13.561599 7.575615 0.377946
13.556156 7.566641 0.742178
13.568210 7.570623 1.105603
-0.002353 -0.072042 -0.001835
45.713219 25.634140 6.193833
18.145138 10.128684 2.948840
17.949722 10.011023 3.405780
22.460716 12.534922 4.882714
0.510056 0.214450 -0.349026
0.526239 0.223264 -0.341070
2.947652 1.574805 -1.793131
3.130781 1.675697 -1.797791
3.337529 1.789611 -1.806217
3.550767 1.907735 -1.807039
3.764529 2.025208 -1.796699
4.030522 2.171568 -1.797651
4.325831 2.334980 -1.797781
4.650203 2.513345 -1.793360
5.043731 2.729859 -1.795409
5.391980 2.922112 -1.763075
5.401883 2.925266 -1.611837
5.883246 3.191058 -1.588012
7.380156 4.017745 -1.785360
8.353115 4.553113 -1.789545
9.584188 5.287375 -1.793034
11.296047 6.242039 -1.805373
13.599066 7.523141 -1.802322
13.719607 7.584518 -1.449236
13.636672 7.535439 -1.075480
13.545586 7.478753 -0.706887
13.558787 7.480229 -0.343985
13.568498 7.482849 0.016399
13.561735 7.473188 0.376762
13.561521 7.467185 0.740111
13.568414 7.468218 1.102091
-0.002344 -0.071933 -0.001832
18.680788 10.292547 2.522138
22.562403 12.441278 3.655341
21.778608 11.997183 4.119359
-0.002344 -0.071933 -0.001832
0.511706 0.211604 -0.349023
0.524875 0.218651 -0.339111
2.957084 1.557922 -1.793121
3.145484 1.660346 -1.800466
3.343450 1.767854 -1.803646
3.565313 1.889130 -1.808650
3.774931 2.002718 -1.795919
4.043366 2.148441 -1.797639
4.339623 2.310140 -1.797768
4.663339 2.485738 -1.792708
5.058125 2.699951 -1.794802
5.405748 2.889287 -1.761962
5.407166 2.887724 -1.608292
5.908773 3.160975 -1.589831
7.407026 3.977169 -1.786168
8.386507 4.508821 -1.790995
9.628738 5.239821 -1.795586
11.332205 6.177006 -1.805343
13.677382 7.463984 -1.806880
13.765221 7.506455 -1.449385
13.737956 7.488619 -1.079973
13.546835 7.377627 -0.704674
13.560009 7.379008 -0.342894
13.574979 7.384456 0.016383
13.569902 7.375829 0.375821
13.564422 7.366972 0.737949
13.569629 7.367039 1.098720
64.526237 35.268711 6.949459
22.449644 12.214858 3.021730
22.316195 12.137293 3.604031
23.238068 12.631579 4.381642
15.701170 8.505115 3.391234
0.513348 0.208746 -0.349020
0.514290 0.209053 -0.331287
2.972622 1.544360 -1.796859
3.153832 1.641466 -1.799561
3.355589 1.749538 -1.804490
3.573326 1.866945 -1.807017
3.794936 1.985454 -1.799752
4.067575 2.131432 -1.802705
4.358242 2.287900 -1.799802
4.683003 2.461652 -1.794610
5.077349 2.672721 -1.795974
5.395641 2.843599 -1.753163
5.393463 2.840104 -1.599201
5.929023 3.127920 -1.590275
7.437107 3.938274 -1.787803
8.411005 4.459635 -1.790605
9.673039 5.191949 -1.798136
11.376713 6.116486 -1.806695
-0.002349 -0.071691 -0.001826
13.612617 7.320725 -1.428806
13.884731 7.465652 -1.088031
13.547367 7.276724 -0.702461
13.562253 7.278992 -0.341847
13.571973 7.281497 0.016356
13.568617 7.273867 0.374634
13.568390 7.267913 0.735880
13.577147 7.269890 1.095916
64.858345 34.966614 6.963529
-0.002349 -0.071691 -0.001826
-0.002349 -0.071691 -0.001826
-0.002349 -0.071691 -0.001826
15.821245 8.452826 3.406548
0.505836 0.201022 -0.342906
0.515893 0.206196 -0.331282
2.977200 1.524832 -1.794039
3.166805 1.625076 -1.801342
3.366014 1.730305 -1.804480
3.592845 1.850118 -1.811063
3.801820 1.961083 -1.797434
4.063749 2.099313 -1.795441
4.370492 2.261240 -1.799107
4.695843 2.433866 -1.793959
5.093090 2.643536 -1.795962
5.397573 2.803507 -1.748208
5.408428 2.808206 -1.598682
5.956488 3.097373 -1.592552
7.472862 3.900620 -1.790677
8.444697 4.413451 -1.792055
9.711874 5.140945 -1.799721
11.421949 6.053677 -1.808045
13.812292 7.332475 -1.813242
13.625120 7.226344 -1.425655
13.556254 7.183668 -1.058919
13.550698 7.177969 -0.700431
13.567339 7.181071 -0.340890
13.578321 7.181153 0.016340
13.573673 7.175913 0.373641
13.569908 7.168116 0.733715
13.581747 7.168648 1.092829
45.708652 24.272623 4.891565
17.045996 9.004368 2.279882
20.508150 10.838760 3.291173
20.607742 10.882983 3.861198
16.468754 8.679728 3.535141
0.522679 0.206157 -0.353085
0.522177 0.205673 -0.334212
2.992874 1.510553 -1.797777
3.173650 1.604706 -1.799542
3.378244 1.711263 -1.805323
3.594462 1.823784 -1.806184
3.810542 1.936888 -1.795885
4.078194 2.076155 -1.796154
4.384261 2.235381 -1.799095
4.710620 2.406076 -1.793946
5.114175 2.616054 -1.797728
5.406016 2.767082 -1.745447
5.413414 2.769890 -1.595138
5.976906 3.062999 -1.592995
7.494578 3.855409 -1.790245
8.478125 4.367028 -1.793505
9.742638 5.083342 -1.799697
11.468605 5.991459 -1.809673
13.871797 7.258850 -1.815275
13.793225 7.211494 -1.438645
13.650233 7.130219 -1.062862
13.529855 7.063995 -0.697128
13.564130 7.076325 -0.339710
13.576880 7.077269 0.016314
13.573978 7.073005 0.372504
13.571963 7.066182 0.731551
13.585620 7.067617 1.089741
45.905197 24.028807 4.897315
21.148140 11.027753 2.820090
-0.002329 -0.071469 -0.001822
20.618208 10.732205 3.851123
16.706642 8.679482 3.575053
0.518110 0.200164 -0.349008
0.533000 0.207699 -0.340074
3.000102 1.493113 -1.796832
3.189324 1.590365 -1.803115
3.391358 1.694157 -1.807021
3.609858 1.806326 -1.808608
3.824978 1.917395 -1.797413
4.093448 2.055172 -1.797595
4.400411 2.212713 -1.800447
4.722711 2.378969 -1.793297
5.130805 2.588444 -1.798309
5.408129 2.729887 -1.741043
5.415471 2.732600 -1.591093
6.001232 3.033265 -1.594816
7.518120 3.814519 -1.790642
8.511510 4.324242 -1.795327
9.787023 5.037185 -1.802573
11.500537 5.926514 -1.809373
13.926591 7.188756 -1.817082
13.992647 7.217276 -1.455125
13.826524 7.124913 -1.073395
13.514560 6.959851 -0.694286
13.531094 6.962766 -0.337876
13.538486 6.960893 0.016239
13.537370 6.957576 0.370433
13.533591 6.949907 0.727375
13.545576 6.950422 1.083384
65.889580 34.052143 7.009674
21.051054 10.827393 2.799013
-0.002345 -0.071341 -0.001818
20.553780 10.552639 3.827976
-0.002345 -0.071341 -0.001818
0.521257 0.197968 -0.350023
0.543967 0.209415 -0.345936
3.014060 1.477812 -1.799635
3.202290 1.573176 -1.804895
3.400166 1.673292 -1.806158
3.627132 1.788950 -1.811845
3.841651 1.897298 -1.799708
4.112629 2.034359 -1.800484
4.410155 2.185727 -1.799073
4.740544 2.352747 -1.794560
5.146480 2.558084 -1.798295
5.407043 2.690063 -1.735540
5.425112 2.697018 -1.589062
6.020762 2.999640 -1.595261
7.540381 3.771272 -1.790625
8.547201 4.280614 -1.797516
9.817166 4.979137 -1.802550
11.540179 5.863017 -1.810176
13.987096 7.115187 -1.819345
13.667118 6.945067 -1.416940
14.084322 7.156402 -1.090097
13.524027 6.863252 -0.692620
13.531680 6.861481 -0.336832
13.543169 6.864665 0.016220
13.548572 6.861746 0.369636
13.539435 6.851394 0.725496
13.546708 6.852432 1.080293
66.189636 33.725609 7.020908
21.018055 10.652722 2.786153
-0.002334 -0.071228 -0.001816
20.632214 10.443130 3.831285
17.230116 8.702382 3.665302
0.527414 0.197392 -0.353074
0.534685 0.200861 -0.339090
3.022924 1.460550 -1.799626
3.206926 1.552394 -1.802201
3.413385 1.655429 -1.807856
3.641051 1.769793 -1.813458
3.847976 1.872760 -1.797392
4.123015 2.009923 -1.799748
4.428118 2.162948 -1.801108
4.749336 2.322969 -1.792634
5.163253 2.529369 -1.798876
5.395375 2.645158 -1.726744
5.435781 2.663230 -1.587536
6.043551 2.967664 -1.596623
7.569389 3.731406 -1.792262
8.575627 4.233204 -1.798232
9.853119 4.926218 -1.803815
11.581211 5.800173 -1.811254
14.049528 7.045397 -1.822071
13.680648 6.852864 -1.414160
14.207631 7.116706 -1.096376
13.529876 6.768220 -0.690867
13.535694 6.765514 -0.335923
13.550748 6.770442 0.016206
13.545424 6.762109 0.368494
13.546962 6.757236 0.723806
13.550742 6.756436 1.077483
20.580641 10.289271 2.175635
21.114967 10.549427 2.790889
17.192625 8.573365 2.726302
16.834526 8.386335 3.116758
16.858866 8.391551 3.575904
0.528956 0.194457 -0.353071
2.896523 1.376329 -1.817227
3.026950 1.440863 -1.796807
3.224220 1.538011 -1.806668
3.420045 1.634235 -1.806141
3.646986 1.745838 -1.811013
3.857441 1.849870 -1.796613
4.136618 1.987077 -1.800464
4.439609 2.135915 -1.800414
4.776636 2.302430 -1.797727
5.178150 2.499702 -1.798865
-0.002317 -0.071008 -0.001812
5.437551 2.625132 -1.583489
6.080667 2.941367 -1.601655
7.598829 3.690013 -1.793898
8.602793 4.183218 -1.798582
9.894102 4.875676 -1.806048
11.621175 5.734116 -1.812057
14.113398 6.976019 -1.825027
13.672180 6.750076 -1.409179
14.041082 6.928257 -1.080299
13.520741 6.666262 -0.688386
13.539039 6.669734 -0.335014
13.549931 6.669530 0.016181
13.550553 6.667161 0.367594
13.546717 6.659637 0.721731
13.557047 6.659164 1.074818
-0.002317 -0.071008 -0.001812
-0.002317 -0.071008 -0.001812
16.863890 8.283181 2.666268
17.200968 8.443036 3.175254
16.283869 7.985950 3.444022
0.524328 0.188389 -0.348994
2.889398 1.351537 -1.807442
3.043786 1.426901 -1.801482
3.232122 1.518166 -1.805765
3.428474 1.613234 -1.805277
3.659035 1.725721 -1.811816
3.873748 1.829504 -1.798909
4.147077 1.961794 -1.799728
4.448854 2.108787 -1.799039
4.783813 2.270841 -1.795162
5.193293 2.469061 -1.798851
-0.002306 -0.070896 -0.001809
-0.002306 -0.070896 -0.001809
6.106665 2.910682 -1.603936
7.618605 3.645447 -1.793469
8.630673 4.135461 -1.799299
9.930368 4.820484 -1.807313
11.670401 5.675091 -1.814516
14.181691 6.905437 -1.828440
13.673096 6.649617 -1.405115
14.211889 6.911616 -1.090281
13.524618 6.568415 -0.686542
13.544680 6.572676 -0.334147
13.552595 6.573896 0.016162
13.552589 6.568278 0.366598
13.548729 6.560802 0.719754
13.557960 6.562666 1.071866
20.984812 10.187133 2.205636
18.000227 8.720913 2.365287
21.168262 10.263923 3.337750
19.299839 9.343856 3.552827
15.688431 7.575923 3.308412
0.538212 0.191476 -0.357136
2.897541 1.334990 -1.807434
3.050788 1.408678 -1.800538
3.244420 1.501214 -1.807546
3.439751 1.594363 -1.806123
3.672613 1.706328 -1.813429
3.886289 1.808081 -1.799668
4.163740 1.940436 -1.801893
4.463036 2.084052 -1.799711
4.798936 2.244185 -1.795790
5.209563 2.440052 -1.799433
5.407287 2.534264 -1.715725
-0.002321 -0.070767 -0.001806
6.123739 2.875575 -1.603923
7.641643 3.602479 -1.793866
8.651225 4.084088 -1.798546
9.967252 4.767637 -1.808903
11.705091 5.608754 -1.814770
14.246658 6.835894 -1.831627
13.675708 6.553526 -1.401419
14.724208 7.058418 -1.126321
13.526657 6.473124 -0.684700
13.544911 6.476389 -0.333196
13.560040 6.481038 0.016146
13.556385 6.473708 0.365698
13.554314 6.467139 0.718060
13.565400 6.469839 1.069479
20.252449 9.685157 2.122696
20.427307 9.761002 2.676964
18.186728 8.679159 2.859460
-0.002321 -0.070767 -0.001806
15.971340 7.600360 3.358750
0.538171 0.187731 -0.356114
2.907176 1.319135 -1.808405
3.057662 1.390440 -1.799594
3.246968 1.479533 -1.803957
3.449286 1.574641 -1.806114
3.681144 1.684471 -1.812610
3.893729 1.784183 -1.798123
4.173570 1.915738 -1.801158
4.483868 2.062463 -1.803110
4.810467 2.215821 -1.795141
5.225672 2.410937 -1.800016
5.404841 2.494934 -1.710225
5.489021 2.532662 -1.584965
6.158190 2.848715 -1.608498
7.669730 3.561886 -1.795504
8.682105 4.037685 -1.800000
10.007408 4.716240 -1.811136
11.751897 5.548208 -1.816955
14.309512 6.764976 -1.834585
13.690277 6.463617 -1.399010
14.503885 6.849053 -1.106409
13.533460 6.380610 -0.683131
13.551701 6.383772 -0.332422
13.565032 6.387477 0.016130
13.557737 6.378455 0.364747
13.557449 6.372788 0.716271
13.568599 6.375439 1.066809
20.266939 9.548805 2.118404
-0.002313 -0.070658 -0.001803
20.015453 9.417406 3.138521
15.212710 7.134787 2.784738
-0.002313 -0.070658 -0.001803
0.533418 0.181800 -0.352038
2.905655 1.298029 -1.802532
3.074006 1.376693 -1.804269
3.263933 1.464730 -1.808426
3.457064 1.554097 -1.805253
3.687884 1.661802 -1.810979
3.907677 1.763424 -1.799651
4.188315 1.893365 -1.802599
4.497773 2.037524 -1.803782
4.830420 2.191410 -1.797682
5.236414 2.379297 -1.798818
5.409075 2.458993 -1.706920
5.514460 2.506024 -1.587979
6.164330 2.808367 -1.605733
7.695856 3.520246 -1.796730
8.710969 3.990220 -1.801088
10.038376 4.660333 -1.811760
11.773308 5.475488 -1.815277
14.361217 6.688503 -1.836166
13.680819 6.362748 -1.394216
14.223851 6.615318 -1.082110
13.537846 6.287385 -0.681473
13.550650 6.287880 -0.331473
13.563984 6.291517 0.016104
13.562066 6.285105 0.363893
13.554546 6.276061 0.714192
13.567564 6.279528 1.063853
20.579924 9.552623 2.145348
-0.002302 -0.070545 -0.001801
19.870600 9.209075 3.107398
15.783252 7.294069 2.881439
15.112944 6.975232 3.160928
0.527071 0.175194 -0.346945
2.911897 1.280665 -1.801547
3.077483 1.356851 -1.801452
3.272739 1.446010 -1.808419
3.471270 1.536569 -1.807804
3.704421 1.643734 -1.814214
3.921533 1.742548 -1.801180
4.196191 1.867753 -1.801141
4.504717 2.009341 -1.801727
4.841656 2.162869 -1.797035
5.260832 2.354023 -1.802367
5.411313 2.422297 -1.703065
5.522172 2.471102 -1.585951
6.180803 2.772937 -1.605721
7.719953 3.477621 -1.797542
8.737783 3.941747 -1.801808
10.067264 4.603383 -1.812065
11.805057 5.407708 -1.815256
14.425149 6.617493 -1.839355
13.697766 6.274761 -1.392175
14.234962 6.520828 -1.080028
13.534350 6.190967 -0.679452
13.556182 6.195590 -0.330700
13.567726 6.198296 0.016084
13.563957 6.191079 0.362990
13.565489 6.186276 0.712878
13.569505 6.185504 1.061180
21.078098 9.638099 2.191484
21.272573 9.719046 2.765310
18.113914 8.262132 2.825029
15.886374 7.231145 2.892570
-0.002293 -0.070435 -0.001799
0.522199 0.169410 -0.342868
2.913280 1.261088 -1.797629
3.087269 1.339947 -1.802382
3.278145 1.425784 -1.806620
3.482125 1.517408 -1.808650
3.709555 1.619549 -1.811773
3.930237 1.719281 -1.800403
4.207280 1.843676 -1.801132
4.518700 1.983462 -1.802399
4.854440 2.135062 -1.797025
5.274709 2.323799 -1.802357
5.410235 2.383121 -1.698113
5.536703 2.439385 -1.585940
6.186918 2.731517 -1.602955
7.742669 3.432661 -1.797942
8.770408 3.893982 -1.803632
10.106569 4.551199 -1.814299
11.851768 5.344269 -1.817441
14.448962 6.527825 -1.837494
13.692400 6.176874 -1.387933
14.235718 6.418971 -1.077124
13.548348 6.103104 -0.678338
13.555651 6.100958 -0.329797
13.568263 6.101237 0.016062
13.567032 6.098062 0.362134
13.561285 6.089969 0.710798
13.573673 6.090151 1.058652
20.988449 9.446360 2.176280
20.606764 9.269359 2.671708
20.172606 9.064464 3.137783
16.535259 7.410917 3.002666
16.054319 7.190272 3.340228
0.522063 0.165692 -0.341847
2.925912 1.246036 -1.800555
3.093971 1.320996 -1.801437
3.293494 1.409347 -1.810193
3.488187 1.495353 -1.806935
3.724225 1.600523 -1.814199
3.945836 1.698311 -1.802700
4.220268 1.819551 -1.801848
4.535601 1.959825 -1.804435
4.877828 2.110971 -1.800843
5.287076 2.291801 -1.801752
5.408486 2.344970 -1.693163
5.565654 2.412898 -1.589963
6.204733 2.696745 -1.603402
7.762693 3.388147 -1.797927
8.800270 3.846729 -1.805088
10.142815 4.495313 -1.815890
11.886357 5.277678 -1.817973
14.505973 6.450249 -1.839763
13.700153 6.082591 -1.384974
14.232783 6.319030 -1.074082
13.546469 6.005535 -0.676409
13.559175 6.005811 -0.328980
13.572547 6.009201 0.016044
13.563251 5.999591 0.361084
13.566589 5.995645 0.709198
13.572506 5.995693 1.055836
21.099285 9.350570 2.182146
20.796059 9.206875 2.689109
17.128584 7.567727 2.657217
20.847986 9.217713 3.776432
-0.002298 -0.070194 -0.001793
0.521830 0.162098 -0.340825
2.935041 1.229982 -1.801527
3.105152 1.304706 -1.803303
3.298700 1.389016 -1.808396
3.505402 1.479021 -1.811194
3.733791 1.579157 -1.814191
3.959328 1.677168 -1.804228
4.232769 1.796094 -1.802564
4.545491 1.933029 -1.803745
4.879904 2.078376 -1.797006
5.304099 2.262957 -1.802930
5.411735 2.309259 -1.689858
5.594025 2.387156 -1.593985
6.240190 2.669670 -1.608439
7.786079 3.345062 -1.798741
8.813678 3.792155 -1.803233
10.165319 4.435349 -1.815229
11.924202 5.212456 -1.819057
14.556008 6.372341 -1.841348
13.760878 6.014966 -1.387520
14.243803 6.225772 -1.072141
13.553826 5.915425 -0.675026
13.562866 5.913996 -0.328211
13.574409 5.916503 0.016021
13.570555 5.909378 0.360372
13.572050 5.904630 0.707690
13.587132 5.908689 1.054296
20.945402 9.137647 2.160725
-0.002289 -0.070084 -0.001791
-0.002289 -0.070084 -0.001791
-0.002289 -0.070084 -0.001791
15.173453 6.579517 3.140531
0.502658 0.150241 -0.327587
2.937679 1.211090 -1.798587
3.119507 1.289735 -1.807045
3.305393 1.369413 -1.807493
