# This PCD file was generated using the MATLAB® pcwrite function
# from Computer Vision Toolbox®.
# .PCD v.7 - Point Cloud Data file format
VERSION .7
FIELDS x y z
SIZE 4 4 4
TYPE F F F
COUNT 1 1 1
WIDTH 1618
HEIGHT 1
VIEWPOINT 0 0 0 1 0 0 0
POINTS 1618
DATA ascii
9.141583 -5.880257 -2.049870
10.620180 -6.761001 -2.071911
10.650082 -6.782485 -1.778650
10.644694 -6.784266 -1.478634
10.658358 -6.798107 -1.184760
0.000792 -0.049437 -0.001302
0.000792 -0.049437 -0.001302
0.000792 -0.049437 -0.001302
0.000792 -0.049437 -0.001302
21.407078 -13.646263 0.574364
20.623030 -13.158329 1.125600
19.626730 -12.529795 1.612988
0.000792 -0.049437 -0.001302
18.878134 -12.072215 2.604248
17.375038 -11.119147 2.883138
18.245338 -11.682571 3.542178
18.913752 -12.118029 4.213764
0.507765 -0.373726 -0.358673
1.972215 -1.311770 -1.318212
1.988297 -1.322554 -1.257883
2.010525 -1.337779 -1.201442
3.365484 -2.208104 -1.896083
3.592963 -2.355818 -1.904585
3.810402 -2.496365 -1.895287
4.088639 -2.677100 -1.901793
4.398690 -2.878569 -1.907678
4.743257 -3.101398 -1.910180
5.145939 -3.363077 -1.914424
0.000775 -0.049311 -0.001298
5.616506 -3.670293 -1.754201
6.230232 -4.069089 -1.761979
7.911279 -5.157743 -2.007922
9.110119 -5.936420 -2.050594
10.576361 -6.818756 -2.070914
10.658283 -6.876423 -1.786730
10.654233 -6.876436 -1.485369
10.659522 -6.885059 -1.189221
0.000775 -0.049311 -0.001298
0.000775 -0.049311 -0.001298
0.000775 -0.049311 -0.001298
0.000775 -0.049311 -0.001298
19.883907 -12.839973 0.535414
19.304077 -12.476474 1.057457
18.770718 -12.142348 1.548491
0.000775 -0.049311 -0.001298
19.421253 -12.575805 2.689163
20.554033 -13.316592 3.423958
0.000775 -0.049311 -0.001298
18.236403 -11.834016 4.077901
0.505828 -0.376620 -0.358669
1.970541 -1.327137 -1.322129
1.982187 -1.335181 -1.258816
2.005844 -1.351525 -1.203232
3.351090 -2.226937 -1.895218
3.581167 -2.377374 -1.905391
3.798902 -2.520833 -1.896821
4.077633 -2.704237 -1.903967
4.387020 -2.906805 -1.909720
4.725070 -3.129389 -1.910170
5.129390 -3.395543 -1.915606
5.607289 -3.708746 -1.924824
5.607870 -3.711909 -1.758248
6.223267 -4.115441 -1.766587
7.886629 -5.206321 -2.009156
9.077712 -5.989766 -2.050947
10.547576 -6.888790 -2.073169
10.660333 -6.964541 -1.793693
10.650185 -6.963222 -1.490473
10.660523 -6.975208 -1.193870
0.000779 -0.049208 -0.001296
0.000779 -0.049208 -0.001296
0.000779 -0.049208 -0.001296
14.241370 -9.322939 -0.010025
19.375469 -12.675955 0.523740
19.183130 -12.560117 1.054915
18.819401 -12.327540 1.558360
19.566799 -12.824897 2.166692
17.806643 -11.684431 2.475033
17.957302 -11.787329 3.002456
18.126211 -11.906742 3.545805
18.164511 -11.940823 4.077566
0.506812 -0.381303 -0.360708
1.961687 -1.337395 -1.321142
1.977686 -1.348394 -1.260689
1.992347 -1.359023 -1.199633
3.344911 -2.249480 -1.898635
3.575304 -2.402859 -1.909453
3.792316 -2.547647 -1.900671
4.059642 -2.724818 -1.902501
4.368930 -2.930891 -1.909025
4.706197 -3.154562 -1.909516
5.116983 -3.428230 -1.917980
5.600540 -3.750405 -1.929781
5.613153 -3.760141 -1.766356
6.193239 -4.146803 -1.764724
7.854438 -5.248018 -2.008305
9.052563 -6.045675 -2.052783
10.519565 -6.956908 -2.075424
10.661695 -7.052890 -1.800655
10.651673 -7.051614 -1.496275
10.658713 -7.061554 -1.198144
0.000785 -0.049101 -0.001294
14.161830 -9.377029 -0.800778
14.198667 -9.404825 -0.404770
14.236119 -9.436606 -0.010025
24.412376 -16.159540 0.662785
0.000785 -0.049101 -0.001294
19.933634 -13.218711 1.657002
0.000785 -0.049101 -0.001294
17.784468 -11.812078 2.481081
0.000785 -0.049101 -0.001294
18.010344 -11.974977 3.536143
21.456686 -14.267867 4.834664
0.503510 -0.383059 -0.359683
1.968984 -1.357881 -1.330942
1.982162 -1.367138 -1.268202
0.000766 -0.048978 -0.001289
3.324671 -2.263601 -1.894344
3.554091 -2.418241 -1.905371
3.772148 -2.564574 -1.897573
4.047259 -2.750116 -1.903948
4.353824 -2.956944 -1.909700
4.691395 -3.183626 -1.910788
5.089504 -3.452231 -1.914985
5.582330 -3.784636 -1.930873
5.617410 -3.809522 -1.774463
6.180855 -4.189884 -1.767945
7.828330 -5.297702 -2.009539
9.018458 -6.100281 -2.053135
10.475888 -7.012165 -2.074427
0.000766 -0.048978 -0.001289
10.643819 -7.131792 -1.500680
10.667458 -7.152880 -1.203540
10.892849 -7.308458 -0.923319
14.159380 -9.489116 -0.803575
14.191109 -9.517399 -0.406070
14.248351 -9.562757 -0.010037
19.162817 -12.849179 0.521953
20.969984 -14.066913 1.162063
18.558985 -12.464497 1.548600
17.904184 -12.035452 1.997707
18.341978 -12.333156 2.568775
18.684681 -12.572098 3.148128
0.000766 -0.048978 -0.001289
17.923979 -12.075764 4.054003
0.494381 -0.381125 -0.354574
0.000772 -0.048872 -0.001287
2.911268 -2.010150 -1.869693
3.085275 -2.128965 -1.871548
3.306984 -2.280152 -1.891766
3.541913 -2.439592 -1.906178
3.758689 -2.587845 -1.898336
4.029602 -2.772920 -1.903208
4.343229 -2.986073 -1.912429
4.672692 -3.211286 -1.910775
5.073967 -3.485481 -1.916763
5.570281 -3.823095 -1.934174
5.623805 -3.862221 -1.783584
6.164946 -4.230756 -1.770240
7.806055 -5.348080 -2.011605
8.980198 -6.149799 -2.052372
9.949851 -6.747847 -1.978131
0.000772 -0.048872 -0.001287
10.647713 -7.225802 -1.507180
10.656473 -7.237099 -1.207067
0.000772 -0.048872 -0.001287
14.164359 -9.614221 -0.807030
14.202591 -9.647232 -0.407986
14.257950 -9.688247 -0.010049
24.314610 -16.499941 0.665332
20.686253 -14.055435 1.150955
19.684793 -13.382298 1.649048
17.803522 -12.117006 1.994232
18.316439 -12.473996 2.575520
17.782951 -12.116586 3.007832
18.016615 -12.284311 3.565305
17.302818 -11.808326 3.929214
0.495302 -0.385788 -0.356612
0.484637 -0.378767 -0.330753
2.897023 -2.024797 -1.867806
3.074727 -2.147604 -1.872438
3.297055 -2.301089 -1.893470
3.532602 -2.462932 -1.908611
3.743999 -2.609342 -1.898326
4.013864 -2.795990 -1.903199
4.323140 -3.008808 -1.911049
4.655982 -3.239125 -1.911407
5.046214 -3.509139 -1.913767
5.546861 -3.853914 -1.933609
5.619284 -3.906475 -1.789153
6.139142 -4.264978 -1.769763
7.775396 -5.392839 -2.011587
8.952997 -6.206873 -2.054209
9.896417 -6.794924 -1.975182
0.000779 -0.048765 -0.001285
0.000779 -0.048765 -0.001285
10.664224 -7.331933 -1.212648
0.000779 -0.048765 -0.001285
14.173351 -9.739507 -0.810674
0.000779 -0.048765 -0.001285
0.000779 -0.048765 -0.001285
19.295551 -13.266506 0.529840
18.301561 -12.594930 1.022168
18.192606 -12.524867 1.529977
17.741928 -12.224854 1.995193
19.891930 -13.710616 2.808238
18.659996 -12.869244 3.168726
0.000779 -0.048765 -0.001285
0.000779 -0.048765 -0.001285
0.496195 -0.390487 -0.358652
0.482723 -0.381436 -0.330749
2.885587 -2.041338 -1.867798
3.069941 -2.170258 -1.876922
3.285503 -2.320952 -1.894317
3.521630 -2.485197 -1.910229
3.729185 -2.630750 -1.898316
4.002554 -2.822129 -1.905373
4.309090 -3.035681 -1.912406
4.637530 -3.265778 -1.911395
5.038745 -3.546748 -1.918529
5.513799 -3.878011 -1.929729
0.000783 -0.048661 -0.001283
6.094000 -4.285723 -1.763742
7.742897 -5.436317 -2.011154
8.920623 -6.260490 -2.054933
9.872029 -6.861800 -1.978089
0.000783 -0.048661 -0.001283
10.649305 -7.406465 -1.519248
10.669587 -7.425960 -1.218041
10.854368 -7.556510 -0.930837
14.186277 -9.868612 -0.814599
0.000783 -0.048661 -0.001283
15.133901 -10.536268 -0.010597
0.000783 -0.048661 -0.001283
18.700054 -13.026948 1.048654
18.009005 -12.551944 1.520597
18.068926 -12.602854 2.040129
18.687525 -13.042308 2.648683
19.847601 -13.854048 3.383984
17.482475 -12.217889 3.487154
18.185516 -12.716668 4.162691
0.491382 -0.391243 -0.356605
0.472223 -0.378103 -0.324862
2.871152 -2.055782 -1.865909
3.054725 -2.185733 -1.875115
3.267927 -2.336624 -1.891738
3.501552 -2.501139 -1.906962
3.715762 -2.653136 -1.899077
3.983455 -2.842881 -1.903905
4.293366 -3.061430 -1.913081
4.620449 -3.293396 -1.912023
5.018489 -3.575583 -1.918514
5.491646 -3.909592 -1.929716
5.633010 -4.011921 -1.807902
6.056765 -4.311682 -1.760031
7.713326 -5.481831 -2.011552
8.897529 -6.320697 -2.057882
10.338935 -7.272216 -2.079866
0.000765 -0.048536 -0.001279
10.647448 -7.496035 -1.525049
10.664430 -7.513435 -1.222313
10.851819 -7.647411 -0.934327
14.193297 -9.994766 -0.818243
0.000765 -0.048536 -0.001279
0.000765 -0.048536 -0.001279
21.860119 -15.396039 0.605351
18.234293 -12.859797 1.026667
17.988916 -12.692039 1.525067
0.000765 -0.048536 -0.001279
18.579884 -13.126722 2.644096
0.000765 -0.048536 -0.001279
0.000765 -0.048536 -0.001279
0.000765 -0.048536 -0.001279
0.478179 -0.386018 -0.348433
0.481702 -0.388761 -0.332703
2.863871 -2.075239 -1.868720
3.039460 -2.201120 -1.873311
3.253208 -2.354243 -1.890872
3.488440 -2.522833 -1.907768
3.699203 -2.673322 -1.898296
3.965771 -2.864585 -1.903166
4.272342 -3.084560 -1.911699
4.601687 -3.319849 -1.912011
4.998109 -3.604330 -1.918503
5.468640 -3.942006 -1.929702
5.622684 -4.053161 -1.811947
6.025012 -4.342911 -1.758167
7.687319 -5.531942 -2.013201
8.852163 -6.367572 -2.056005
10.322936 -7.349762 -2.085047
10.648056 -7.585288 -1.841303
10.651387 -7.590410 -1.531780
0.000772 -0.048429 -0.001276
10.848838 -7.741559 -0.937956
14.197695 -10.120155 -0.821790
0.000772 -0.048429 -0.001276
0.000772 -0.048429 -0.001276
20.685923 -14.750104 0.575151
18.777245 -13.403361 1.061636
17.928204 -12.808857 1.526352
18.031181 -12.891593 2.052771
22.662142 -16.196159 3.238586
17.223898 -12.330073 2.960831
17.456263 -12.504923 3.510826
17.486467 -12.531037 4.035353
0.485953 -0.395741 -0.355577
0.486773 -0.396588 -0.337603
2.851800 -2.092091 -1.868712
3.028091 -2.220059 -1.874201
3.239471 -2.373400 -1.890863
3.478560 -2.545957 -1.910200
3.686554 -2.697272 -1.899829
3.958068 -2.894491 -1.907526
4.254778 -3.109003 -1.911688
4.582191 -3.346984 -1.911999
4.980009 -3.636047 -1.919683
5.442987 -3.971067 -1.928583
5.641180 -4.116899 -1.825635
6.003340 -4.379714 -1.759077
7.654012 -5.574864 -2.012766
8.806054 -6.411430 -2.053756
10.277824 -7.409636 -2.084698
10.667234 -7.691356 -1.852172
10.651636 -7.685780 -1.538279
10.665402 -7.701262 -1.232539
10.859447 -7.843351 -0.942708
14.213923 -10.258891 -0.826184
0.000776 -0.048326 -0.001274
14.354292 -10.371054 -0.010133
26.155062 -18.871696 0.730711
18.334524 -13.252883 1.041031
17.716824 -12.812650 1.514617
18.252520 -13.208245 2.086626
18.465950 -13.371887 2.649960
17.146460 -12.424313 2.959759
17.713800 -12.843187 3.577455
17.705189 -12.846323 4.103346
0.474193 -0.391357 -0.348426
0.490382 -0.403348 -0.341520
2.841401 -2.109404 -1.869643
3.014076 -2.236298 -1.873293
3.220184 -2.387667 -1.887428
3.464127 -2.565848 -1.910191
3.677195 -2.722687 -1.902906
3.937090 -2.913841 -1.905330
4.240118 -3.135563 -1.913047
4.561577 -3.372091 -1.911345
4.963881 -3.667926 -1.921460
5.418769 -4.001121 -1.928018
5.636406 -4.162907 -1.831711
5.987707 -4.420984 -1.761834
7.626791 -5.622211 -2.013998
8.778785 -6.468903 -2.055964
10.238435 -7.470905 -2.085324
10.679150 -7.793258 -1.861925
10.655701 -7.781897 -1.545243
10.672695 -7.799894 -1.238492
10.854727 -7.934978 -0.946197
14.234056 -10.398044 -0.830767
0.000759 -0.048200 -0.001270
0.000759 -0.048200 -0.001270
22.369528 -16.343496 0.627429
0.000759 -0.048200 -0.001270
17.788103 -13.020166 1.527121
17.907784 -13.116976 2.055807
17.391058 -12.749120 2.506124
17.026930 -12.487694 2.951474
17.615925 -12.927403 3.572645
17.626442 -12.944487 4.102276
0.480536 -0.400076 -0.354549
0.489734 -0.407086 -0.342497
2.830913 -2.126682 -1.870575
3.001413 -2.253505 -1.873283
3.206656 -2.406066 -1.887419
3.449569 -2.585650 -1.910181
3.654306 -2.738247 -1.899037
3.922027 -2.937469 -1.906048
4.223764 -3.160928 -1.913719
4.548460 -3.402702 -1.913898
4.946013 -3.698611 -1.922640
5.400540 -4.035573 -1.929660
5.635947 -4.212438 -1.839308
5.962426 -4.455290 -1.761819
7.596147 -5.667110 -2.014397
8.741652 -6.519243 -2.055943
10.200283 -7.533143 -2.086276
10.682252 -7.889679 -1.870280
10.655808 -7.875966 -1.551741
10.667985 -7.890616 -1.243137
0.000763 -0.048096 -0.001268
14.257881 -10.541324 -0.835632
0.000763 -0.048096 -0.001268
28.485811 -21.035917 -0.018881
21.741003 -16.077982 0.612397
0.000763 -0.048096 -0.001268
18.807865 -13.930375 1.621632
17.907499 -13.275386 2.064532
17.474173 -12.964676 2.528832
0.000763 -0.048096 -0.001268
17.727087 -13.165888 3.610504
17.572407 -13.060869 4.107117
0.474356 -0.399647 -0.351482
0.498851 -0.418103 -0.350338
2.813217 -2.138620 -1.866806
2.984359 -2.267443 -1.870579
3.193004 -2.424377 -1.887408
3.436348 -2.606446 -1.910985
3.638739 -2.759129 -1.899026
3.903827 -2.958790 -1.905309
4.202758 -3.182852 -1.912338
4.527543 -3.427603 -1.913245
4.917260 -3.721217 -1.919644
5.375949 -4.065361 -1.929094
5.641312 -4.266738 -1.848936
5.940063 -4.491786 -1.762728
7.565218 -5.711829 -2.014795
8.710517 -6.574082 -2.057407
10.172858 -7.603437 -2.089506
10.686189 -7.987582 -1.878915
10.658370 -7.972655 -1.558705
10.670555 -7.987469 -1.248714
10.907190 -8.166480 -0.958792
0.000769 -0.047990 -0.001265
26.107855 -19.509691 -0.773442
26.139103 -19.540010 -0.017442
26.159243 -19.569168 0.740328
21.309944 -15.961820 1.225779
0.000769 -0.047990 -0.001265
18.221794 -13.670333 2.109846
18.581348 -13.949196 2.700739
17.259905 -12.965195 3.017564
18.281559 -13.739732 3.739525
17.767691 -13.364491 4.170681
0.475069 -0.404326 -0.353520
0.500905 -0.424012 -0.353277
2.802540 -2.155743 -1.867738
2.978665 -2.289866 -1.875062
3.174927 -2.439352 -1.884829
3.421123 -2.626698 -1.910976
3.626005 -2.782151 -1.900559
3.884015 -2.978866 -1.903841
4.184077 -3.207623 -1.912326
4.509511 -3.454650 -1.913874
4.900601 -3.752831 -1.921421
5.355083 -4.099403 -1.930185
0.000752 -0.047864 -0.001261
5.901166 -4.517434 -1.759015
7.528339 -5.754134 -2.013942
8.670071 -6.624360 -2.057014
10.144950 -7.673654 -2.092734
10.692696 -8.091225 -1.888387
10.663340 -8.072022 -1.566134
10.677138 -8.088215 -1.254853
10.833331 -8.211734 -0.956518
0.000752 -0.047864 -0.001261
14.089808 -10.677438 -0.419753
28.781128 -21.777067 -0.019092
22.430866 -16.988695 0.637436
21.512800 -16.307034 1.242880
18.618784 -14.129846 1.619500
0.000752 -0.047864 -0.001261
17.218117 -13.084506 2.513412
17.118225 -13.018221 3.006231
17.553598 -13.357701 3.606706
17.375933 -13.227709 4.096485
0.468820 -0.403887 -0.350452
0.500045 -0.427918 -0.354253
2.794184 -2.175426 -1.870548
2.966735 -2.308479 -1.875952
3.156791 -2.454202 -1.882250
3.404744 -2.645130 -1.910151
3.611183 -2.804632 -1.901320
3.872995 -3.005608 -1.906744
4.167316 -3.232714 -1.913001
4.489814 -3.480462 -1.913861
4.877671 -3.779731 -1.920812
5.333168 -4.131224 -1.930722
0.000756 -0.047760 -0.001259
5.879958 -4.554791 -1.760386
7.504123 -5.801939 -2.016007
8.631653 -6.671379 -2.056622
10.102651 -7.735993 -2.093359
10.698180 -8.192147 -1.897578
10.662923 -8.171148 -1.573096
10.681509 -8.191170 -1.260991
10.824187 -8.302909 -0.959864
27.385296 -20.949287 -1.624805
28.229143 -21.601068 -0.843346
28.781052 -22.038286 -0.019106
25.063522 -19.211565 0.715682
21.613977 -16.579844 1.254268
21.192707 -16.269272 1.851718
18.673985 -14.346408 2.181263
16.975601 -13.055250 2.488931
0.000756 -0.047760 -0.001259
20.780153 -15.987745 4.288196
17.228020 -13.272382 4.079535
0.473656 -0.411647 -0.355555
0.495156 -0.428467 -0.352288
2.785064 -2.193055 -1.872419
2.952652 -2.323818 -1.875045
3.142887 -2.472241 -1.882241
3.386841 -2.662363 -1.908512
3.592814 -2.822397 -1.899767
3.855888 -3.027748 -1.906732
4.145918 -3.254246 -1.911618
4.475975 -3.510803 -1.916415
4.854562 -3.806464 -1.920200
5.305007 -4.158234 -1.929051
5.644012 -4.422507 -1.874264
5.843143 -4.580128 -1.757137
7.472940 -5.848667 -2.016823
8.573575 -6.707908 -2.052145
10.061122 -7.793393 -2.093661
10.710712 -8.299453 -1.908167
10.666155 -8.268053 -1.580291
10.680003 -8.284636 -1.266195
0.000763 -0.047654 -0.001257
27.149523 -21.010212 -1.617682
28.193142 -21.831644 -0.845938
28.180849 -21.837769 -0.018748
20.904165 -16.216871 0.599321
20.671598 -16.048443 1.204905
18.281843 -14.208740 1.604346
18.492805 -14.382425 2.170032
18.759119 -14.594044 2.762861
18.781267 -14.621660 3.327787
0.000763 -0.047654 -0.001257
17.379736 -13.548507 4.133869
0.463326 -0.407975 -0.349423
0.488753 -0.428063 -0.349342
2.775063 -2.211602 -1.874290
2.941896 -2.343378 -1.876831
3.134131 -2.495184 -1.885657
3.376033 -2.685084 -1.910945
3.579176 -2.845823 -1.901299
3.836670 -3.049324 -1.905993
4.130345 -3.280285 -1.912977
4.450865 -3.533682 -1.914478
4.833681 -3.836282 -1.920784
5.269144 -4.179123 -1.924619
5.634688 -4.468946 -1.879830
5.806233 -4.605190 -1.753887
7.437860 -5.890285 -2.016386
8.542800 -6.763146 -2.053981
10.014961 -7.852839 -2.093635
10.717680 -8.403524 -1.917918
10.672013 -8.373873 -1.588418
10.689007 -8.393098 -1.273079
0.000743 -0.047531 -0.001253
27.122263 -21.247131 -1.623458
27.855499 -21.835842 -0.839616
22.176605 -17.399910 -0.015031
21.316328 -16.738678 0.614049
18.415590 -14.477565 1.078284
18.243952 -14.348145 1.608268
18.380173 -14.465223 2.166564
20.975769 -16.513090 3.103885
0.000743 -0.047531 -0.001253
16.964104 -13.378141 3.532473
0.000743 -0.047531 -0.001253
0.463953 -0.412664 -0.351462
0.490666 -0.434002 -0.352281
2.755631 -2.221979 -1.869582
2.923024 -2.355754 -1.873230
3.114309 -2.508600 -1.882221
3.356484 -2.700973 -1.908491
3.563005 -2.866286 -1.901288
3.819301 -3.071252 -1.905980
4.113124 -3.305070 -1.913649
4.439611 -3.566206 -1.918312
4.814766 -3.866320 -1.921964
5.242243 -4.206903 -1.923500
5.647019 -4.531310 -1.892503
5.758552 -4.621500 -1.747402
7.405625 -5.934142 -2.016784
8.510130 -6.817020 -2.055444
9.966747 -7.907844 -2.092960
10.720673 -8.505479 -1.927108
10.673754 -8.474467 -1.595844
10.693883 -8.496382 -1.279402
0.000750 -0.047425 -0.001250
26.960531 -21.371889 -1.621041
27.475580 -21.794773 -0.831874
28.243143 -22.410248 -0.018814
20.795141 -16.524529 0.601783
18.092642 -14.393332 1.064223
18.617706 -14.814909 1.648766
0.000750 -0.047425 -0.001250
18.130424 -14.448887 2.694937
18.173309 -14.488056 3.249376
17.044611 -13.600796 3.565489
18.606457 -14.853318 4.466733
0.468554 -0.420574 -0.356563
0.492517 -0.439969 -0.355218
2.752697 -2.245403 -1.876151
2.909656 -2.372423 -1.873219
3.097252 -2.524129 -1.880497
3.336416 -2.717322 -1.906039
3.551025 -2.890108 -1.903592
3.800368 -3.091925 -1.905241
4.096646 -3.331663 -1.915007
4.417792 -3.590424 -1.917658
4.791205 -3.892688 -1.921354
5.211481 -4.233016 -1.921277
5.651254 -4.587880 -1.902636
5.731308 -4.655482 -1.747387
0.000754 -0.047321 -0.001248
8.482039 -6.877141 -2.058391
9.927481 -7.969933 -2.094236
10.746117 -8.629394 -1.940767
10.671597 -8.572888 -1.602805
10.697913 -8.599997 -1.285724
0.000754 -0.047321 -0.001248
26.731199 -21.441809 -1.614576
26.703793 -21.435072 -0.812190
28.319057 -22.744940 -0.018878
0.000754 -0.047321 -0.001248
18.456953 -14.856031 1.090726
17.857674 -14.385369 1.588959
17.595572 -14.184956 2.093465
18.037874 -14.545463 2.693593
18.400606 -14.847531 3.305728
17.311346 -13.981255 3.638593
18.592840 -15.018053 4.484136
0.464999 -0.422159 -0.355538
0.482024 -0.436184 -0.349330
2.740983 -2.262704 -1.877082
2.895814 -2.389544 -1.873210
3.083910 -2.543497 -1.881345
3.321919 -2.738106 -1.906842
3.535542 -2.912193 -1.904354
3.786585 -3.117842 -1.907415
4.077094 -3.355813 -1.914996
4.398165 -3.617665 -1.918287
4.766829 -3.919742 -1.920744
5.191015 -4.267389 -1.922919
5.660213 -4.650514 -1.914797
5.694796 -4.681921 -1.744597
6.520783 -5.357999 -1.792938
8.452024 -6.935934 -2.060967
9.877213 -8.026107 -2.093560
10.664194 -8.668000 -1.935154
10.721217 -8.717150 -1.617918
10.699591 -8.705799 -1.292046
0.000760 -0.047214 -0.001246
26.582050 -21.582346 -1.613195
27.137074 -22.047594 -0.829232
21.120230 -17.181664 -0.014408
21.506176 -17.500929 0.628381
21.056339 -17.147957 1.250554
0.000760 -0.047214 -0.001246
0.000760 -0.047214 -0.001246
17.356714 -14.168179 2.604340
18.009865 -14.709964 3.251128
17.135040 -14.007577 3.618914
18.253794 -14.924319 4.423608
0.460236 -0.422457 -0.353493
0.474450 -0.434344 -0.345404
2.727190 -2.276742 -1.876132
2.885443 -2.407828 -1.874996
3.062936 -2.554850 -1.877053
3.301185 -2.751872 -1.903574
3.516613 -2.929433 -1.902799
3.767917 -3.137636 -1.906674
4.059994 -3.379606 -1.915668
4.376687 -3.640859 -1.917632
4.749547 -3.949829 -1.922520
5.168840 -4.297420 -1.923455
5.656836 -4.700385 -1.922394
5.679330 -4.722197 -1.747815
6.475916 -5.381778 -1.788752
8.405852 -6.976683 -2.059090
9.837083 -8.084785 -2.094510
10.678734 -8.778705 -1.946577
10.691071 -8.791867 -1.620685
10.703457 -8.808192 -1.298368
0.000743 -0.047089 -0.001242
26.292919 -21.592325 -1.602870
25.713526 -21.132444 -0.789315
26.365873 -21.682682 -0.017688
21.397532 -17.611755 0.628117
20.878683 -17.197948 1.245718
17.418514 -14.365601 1.564524
21.490126 -17.725208 2.581302
17.596645 -14.527335 2.652502
17.828306 -14.728349 3.233143
16.962360 -14.025092 3.598913
18.226534 -15.072163 4.437319
0.454018 -0.421781 -0.350426
0.476173 -0.440375 -0.348342
2.727506 -2.304029 -1.885521
2.875519 -2.428225 -1.877682
3.050769 -2.575167 -1.878755
3.282743 -2.768406 -1.901935
3.500864 -2.951313 -1.903559
3.752393 -3.162225 -1.908120
4.039290 -3.401628 -1.914971
4.356740 -3.667866 -1.918261
4.726291 -3.977826 -1.922505
5.145762 -4.328248 -1.923993
5.660338 -4.759758 -1.933034
5.662786 -4.763444 -1.751034
0.000747 -0.046985 -0.001239
8.362767 -7.022346 -2.058324
9.787689 -8.141645 -2.094158
10.811367 -8.991453 -1.980066
10.689484 -8.896849 -1.628344
10.714142 -8.923529 -1.305996
15.725186 -13.079977 -1.439247
20.827288 -17.320969 -1.276093
0.000747 -0.046985 -0.001239
20.909113 -17.407150 -0.014295
20.007244 -16.670048 0.590164
20.271112 -16.901175 1.215435
17.354176 -14.480884 1.566229
17.342552 -14.481389 2.092856
17.154741 -14.335127 2.598643
17.338690 -14.493396 3.159401
17.736523 -14.835301 3.781293
17.599785 -14.731625 4.305872
0.449221 -0.422072 -0.348380
0.476562 -0.445225 -0.350299
0.486636 -0.453804 -0.338620
2.863131 -2.445790 -1.878571
3.032448 -2.588577 -1.876176
3.264211 -2.784807 -1.900296
3.481263 -2.968961 -1.902006
3.733497 -3.181815 -1.907379
4.019904 -3.424729 -1.914959
4.339331 -3.694462 -1.919529
4.705721 -4.005280 -1.923088
5.126903 -4.362658 -1.926188
5.663508 -4.816100 -1.943165
5.653384 -4.810921 -1.756563
6.420969 -5.459733 -1.790384
8.322184 -7.067572 -2.057931
9.739402 -8.196517 -2.093809
10.686771 -8.992435 -1.966631
10.697720 -9.007907 -1.637399
10.720842 -9.033605 -1.313065
15.443482 -12.997149 -1.420244
20.725920 -17.439238 -1.275947
26.473522 -22.270332 -0.820270
20.842466 -17.555470 -0.014264
20.844786 -17.569748 0.617947
20.040577 -16.899559 1.207279
0.000754 -0.046878 -0.001237
0.000754 -0.046878 -0.001237
17.448441 -14.745462 2.655597
17.857901 -15.100994 3.269849
17.661205 -14.940367 3.782954
17.622654 -14.918305 4.331772
0.454989 -0.431124 -0.354502
0.463690 -0.438762 -0.342451
0.484351 -0.456399 -0.338616
2.841515 -2.454704 -1.873173
3.017753 -2.605890 -1.876165
3.244201 -2.799899 -1.897842
3.474730 -2.996603 -1.907396
3.718231 -3.205584 -1.908826
4.003230 -3.450140 -1.916315
4.315384 -3.716845 -1.918235
4.678498 -4.028503 -1.921285
5.100489 -4.390759 -1.925620
5.662456 -4.871122 -1.952283
5.656948 -4.869812 -1.766250
6.381301 -5.491286 -1.788282
8.271401 -7.109061 -2.055680
9.693723 -8.250670 -2.093782
10.680422 -9.092139 -1.974982
10.723284 -9.131608 -1.649016
10.740335 -9.152452 -1.321626
15.291064 -13.019951 -1.413041
26.189392 -22.274466 -1.619525
25.941254 -22.079329 -0.807650
21.207588 -18.071445 -0.014503
21.128954 -18.010868 0.629411
19.704287 -16.811323 1.192852
17.194353 -14.686043 1.567010
18.919872 -16.166523 2.305687
18.055931 -15.435775 2.761604
19.057871 -16.301163 3.506795
16.945007 -14.509181 3.647859
17.306496 -14.822862 4.274935
0.450080 -0.431458 -0.352456
0.462675 -0.442521 -0.343427
0.489956 -0.466048 -0.344251
2.831241 -2.474903 -1.875857
3.003895 -2.624826 -1.877012
3.229682 -2.819626 -1.898646
3.452967 -3.013457 -1.905070
3.699412 -3.227474 -1.908813
3.983573 -3.473042 -1.916304
4.294964 -3.743513 -1.918862
4.660548 -4.061056 -1.923656
5.082663 -4.426226 -1.928366
5.648379 -4.917164 -1.957341
5.657063 -4.926347 -1.775012
6.351304 -5.529109 -1.788680
8.233562 -7.159042 -2.056400
9.646372 -8.309226 -2.094081
11.593591 -9.980691 -2.154256
10.750602 -9.264790 -1.661563
10.769235 -9.287242 -1.331868
15.102538 -13.010219 -1.402466
26.404053 -22.727472 -1.641010
26.307384 -22.660273 -0.823123
23.602528 -20.342190 -0.016015
25.965815 -22.390074 0.777797
20.603642 -17.788252 1.253767
19.665979 -16.986700 1.801369
19.086145 -16.498737 2.337529
18.829245 -16.288654 2.894680
18.810976 -16.278534 3.478549
0.000740 -0.046649 -0.001231
17.139683 -14.857054 4.255403
0.447855 -0.433930 -0.352452
0.464331 -0.448490 -0.346364
0.492882 -0.473390 -0.348007
2.813149 -2.487542 -1.873152
2.991707 -2.644333 -1.878714
3.213660 -2.838077 -1.898636
3.433021 -3.030753 -1.903515
3.685250 -3.252294 -1.910987
3.965180 -3.497043 -1.916975
4.270724 -3.765577 -1.917566
4.638791 -4.088977 -1.924238
5.053009 -4.451527 -1.926694
5.589612 -4.922791 -1.946668
5.658182 -4.984330 -1.784236
6.310791 -5.557775 -1.786162
8.196900 -7.210115 -2.057490
9.601616 -8.367131 -2.094706
11.543650 -10.053668 -2.155621
10.718333 -9.344664 -1.664795
14.850906 -12.938924 -1.845336
14.956844 -13.035403 -1.395826
24.980717 -21.755981 -1.560290
25.613949 -22.321884 -0.805387
23.814171 -20.763842 -0.016161
23.799324 -20.765411 0.716426
19.252337 -16.818562 1.177367
0.000747 -0.046543 -0.001229
18.531809 -16.207737 2.281017
21.995281 -19.241692 3.398635
18.333706 -16.051701 3.407305
16.686621 -14.623938 3.628226
16.873569 -14.797564 4.210384
0.441730 -0.432986 -0.349385
0.454156 -0.444154 -0.340478
0.494395 -0.479600 -0.350822
2.801713 -2.505942 -1.874938
2.972615 -2.657831 -1.876134
3.191546 -2.852158 -1.895367
3.415794 -3.050382 -1.903505
3.662529 -3.269660 -1.908790
3.947459 -3.522891 -1.918333
4.247817 -3.788755 -1.916912
4.618301 -4.118048 -1.925418
5.032533 -4.486405 -1.928886
5.555646 -4.949686 -1.944622
5.662322 -5.047337 -1.794846
6.275050 -5.592429 -1.785310
8.152770 -7.257216 -2.057095
9.549075 -8.418274 -2.093704
11.493005 -10.129727 -2.157265
10.767624 -9.496554 -1.680836
14.713561 -12.968940 -1.837454
14.765595 -13.023705 -1.385110
24.726242 -21.785944 -1.552132
24.704657 -21.782135 -0.780692
23.497164 -20.734171 -0.015976
20.908236 -18.461094 0.632486
0.000727 -0.046420 -0.001225
0.000727 -0.046420 -0.001225
18.886488 -16.715275 2.336890
18.975958 -16.800041 2.946837
18.613958 -16.491894 3.477538
0.000727 -0.046420 -0.001225
18.846661 -16.714884 4.726820
0.440722 -0.436634 -0.350402
0.451778 -0.446720 -0.340474
0.495775 -0.485928 -0.353638
2.788421 -2.523615 -1.875828
2.958888 -2.676010 -1.876981
3.180786 -2.875238 -1.898613
3.403409 -3.075386 -1.906579
3.646662 -3.293056 -1.910233
3.923154 -3.541706 -1.916265
4.231848 -3.818095 -1.919463
4.590506 -4.140665 -1.923614
5.008324 -4.516496 -1.929424
5.531634 -4.985354 -1.946128
5.665355 -5.108286 -1.804994
6.238126 -5.622049 -1.783623
8.113833 -7.303839 -2.057443
9.499234 -8.474687 -2.093677
11.443630 -10.203538 -2.158910
14.548892 -12.968914 -2.282587
14.548818 -12.977864 -1.826398
14.620538 -13.046115 -1.378469
24.592314 -21.928179 -1.551783
24.316195 -21.689972 -0.772291
25.568512 -22.820553 -0.017291
23.195705 -20.721409 0.705589
19.162231 -17.132034 1.183926
0.000734 -0.046313 -0.001222
17.753128 -15.892092 2.207544
18.636177 -16.691900 2.908943
19.847971 -17.786655 3.727264
17.925642 -16.073931 3.937727
19.109213 -17.144127 4.817370
0.441084 -0.441265 -0.352440
0.453440 -0.452630 -0.343412
0.499870 -0.494467 -0.358332
2.777184 -2.541418 -1.877613
2.945034 -2.694103 -1.877828
3.159001 -2.888510 -1.895345
3.382327 -3.090541 -1.904253
3.627922 -3.313910 -1.910222
3.904349 -3.565390 -1.916937
4.203011 -3.835947 -1.916243
4.569674 -4.169480 -1.924793
4.982484 -4.545150 -1.929408
5.501668 -5.015728 -1.945604
5.666415 -5.168127 -1.814679
6.202043 -5.656248 -1.782772
8.073526 -7.354380 -2.058162
9.460813 -8.535401 -2.095601
11.384942 -10.269174 -2.158879
14.495694 -13.067110 -2.285575
14.430456 -13.017540 -1.820570
14.493522 -13.083302 -1.373515
0.000738 -0.046210 -0.001220
23.752811 -21.434843 -0.758256
23.352394 -21.088909 -0.015912
24.027395 -21.704645 0.734671
19.125818 -17.298206 1.187850
0.000738 -0.046210 -0.001220
18.044495 -16.345455 2.255839
0.000738 -0.046210 -0.001220
18.477642 -16.754108 3.487902
17.985348 -16.320265 3.972048
18.743753 -17.012386 4.749823
0.447659 -0.451865 -0.359584
0.448424 -0.452846 -0.341447
0.495896 -0.496130 -0.357388
2.763653 -2.558951 -1.878502
2.929276 -2.711431 -1.877818
3.134484 -2.899175 -1.890449
3.361467 -3.107957 -1.902698
3.607071 -3.334002 -1.909481
3.884020 -3.587713 -1.916925
4.183242 -3.863261 -1.917511
4.547942 -4.198990 -1.925971
4.956484 -4.573663 -1.929392
5.467781 -5.044254 -1.944063
5.672715 -5.233395 -1.826212
6.171070 -5.693086 -1.783170
8.022608 -7.392689 -2.055911
9.416108 -8.596583 -2.096874
11.331715 -10.339777 -2.159962
14.431388 -13.164805 -2.287630
0.000721 -0.046084 -0.001216
0.000721 -0.046084 -0.001216
0.000721 -0.046084 -0.001216
23.384604 -21.355791 -0.750474
23.386013 -21.364429 -0.015948
21.393179 -19.561298 0.657582
21.664307 -19.822371 1.353006
18.984316 -17.381830 1.784443
18.566277 -17.011869 2.333344
17.672073 -16.205942 2.787802
18.185278 -16.680981 3.450778
18.025244 -16.546047 4.001844
17.704990 -16.264145 4.510880
0.431364 -0.441514 -0.348348
0.451199 -0.460021 -0.345364
0.491986 -0.497663 -0.356444
2.749131 -2.574713 -1.878492
2.912539 -2.726921 -1.876950
3.119341 -2.918312 -1.891252
3.342424 -3.125913 -1.901915
3.592185 -3.358406 -1.911654
3.866313 -3.612459 -1.918281
4.161183 -3.887181 -1.917497
4.526739 -4.227585 -1.927149
4.933142 -4.604627 -1.930480
5.440330 -5.076873 -1.944554
0.000727 -0.045977 -0.001214
6.132700 -5.723106 -1.781484
7.980161 -7.438662 -2.055887
9.363799 -8.647897 -2.096197
11.275159 -10.407446 -2.160489
14.365837 -13.257018 -2.289221
14.279255 -13.186517 -1.820677
14.358534 -13.264030 -1.374980
0.000727 -0.045977 -0.001214
23.284996 -21.511686 -0.751168
23.090834 -21.340021 -0.015776
23.148018 -21.407583 0.715464
21.748169 -20.129665 1.365519
0.000727 -0.045977 -0.001214
18.437546 -17.090010 2.329513
18.138693 -16.825375 2.876701
18.173466 -16.863333 3.466920
17.989294 -16.704454 4.015150
17.510380 -16.272203 4.485071
0.434114 -0.448558 -0.352428
0.443720 -0.457764 -0.341440
0.494542 -0.505179 -0.360198
2.730589 -2.586738 -1.875787
2.897035 -2.743531 -1.876939
3.106743 -2.939847 -1.893683
3.323282 -3.143747 -1.901132
3.573045 -3.378930 -1.911641
3.847083 -3.635843 -1.918954
4.138989 -3.910976 -1.917484
4.499803 -4.250884 -1.925942
4.908225 -4.634184 -1.931018
5.405599 -5.102716 -1.942507
5.680784 -5.362005 -1.848354
6.092744 -5.751524 -1.779380
7.940320 -7.487086 -2.056606
9.316988 -8.704262 -2.096819
11.210952 -10.468062 -2.159620
14.280776 -13.331307 -2.287782
14.261630 -13.322707 -1.828105
0.000731 -0.045874 -0.001211
0.000731 -0.045874 -0.001211
23.403698 -21.871691 -0.758963
22.776226 -21.293808 -0.015591
22.874044 -21.399878 0.710843
21.201471 -19.852135 1.338367
20.657980 -19.351027 1.962778
17.984163 -16.863882 2.284458
17.988079 -16.879215 2.868191
18.002563 -16.898558 3.452822
17.780703 -16.702408 3.989981
17.430967 -16.386091 4.488814
0.428036 -0.447408 -0.349361
0.440056 -0.458991 -0.340454
0.493186 -0.509126 -0.361135
2.717209 -2.603539 -1.876675
2.884075 -2.762536 -1.878641
3.091363 -2.958840 -1.894487
3.304041 -3.161460 -1.900349
3.555146 -3.400624 -1.912358
3.820862 -3.652658 -1.916200
4.118042 -3.935944 -1.918111
4.479661 -4.280545 -1.927716
4.880307 -4.660935 -1.930449
5.379204 -5.136320 -1.943504
5.685378 -5.427953 -1.859885
6.055520 -5.782374 -1.778111
7.923016 -7.556931 -2.063264
9.272716 -8.763073 -2.098092
11.156514 -10.537782 -2.160704
14.198236 -13.407785 -2.286810
14.253052 -13.468676 -1.836838
14.304060 -13.521342 -1.384447
0.000738 -0.045767 -0.001209
24.204037 -22.880032 -0.789054
22.897829 -21.655132 -0.015681
22.987631 -21.754930 0.718324
21.214819 -20.094549 1.346545
18.220900 -17.271004 1.740529
17.988276 -17.062866 2.297450
17.869177 -16.961914 2.864772
17.764286 -16.868380 3.425683
17.813402 -16.926588 4.019132
17.921309 -17.040617 4.640320
0.423217 -0.447382 -0.347315
0.437675 -0.461412 -0.340451
0.487931 -0.509392 -0.359250
2.707617 -2.623976 -1.880258
2.869703 -2.780249 -1.879488
3.075854 -2.977751 -1.895290
3.286025 -3.180315 -1.900336
3.539792 -3.424784 -1.914529
3.802740 -3.677092 -1.917556
4.099667 -3.963409 -1.920020
4.452432 -4.303524 -1.926508
4.856415 -4.691509 -1.931537
5.352574 -5.169776 -1.944501
5.688022 -5.492811 -1.870956
6.011085 -5.806221 -1.774758
7.871088 -7.594151 -2.061011
9.220931 -8.814876 -2.097740
11.095880 -10.601740 -2.160670
14.125359 -13.493335 -2.287468
14.254806 -13.625984 -1.847066
14.289751 -13.663954 -1.390584
0.000721 -0.045642 -0.001205
0.000721 -0.045642 -0.001205
23.057961 -22.058605 -0.015797
22.787050 -21.815029 0.716022
20.463606 -19.608826 1.306013
18.222343 -17.472086 1.750281
0.000721 -0.045642 -0.001205
17.688255 -16.984743 2.851401
17.518347 -16.827780 3.396881
18.408316 -17.692596 4.176324
17.835911 -17.155684 4.643695
0.423370 -0.452080 -0.349353
0.437780 -0.466228 -0.342407
0.480165 -0.507187 -0.355487
2.690143 -2.636933 -1.878451
2.853888 -2.796613 -1.879476
3.056277 -2.992762 -1.893650
3.269234 -3.200356 -1.901095
3.517611 -3.442435 -1.913062
3.783117 -3.700135 -1.918228
4.074317 -3.984216 -1.918724
4.431953 -4.332973 -1.928283
4.829583 -4.719301 -1.931521
5.321591 -5.199070 -1.943977
5.685905 -5.553812 -1.880640
5.974997 -5.837913 -1.773906
7.826073 -7.637885 -2.060616
9.170279 -8.867730 -2.097713
11.032061 -10.662630 -2.160080
14.070558 -13.596404 -2.291152
0.000725 -0.045538 -0.001203
14.290072 -13.822075 -1.398265
14.595209 -14.126010 -0.956183
0.000725 -0.045538 -0.001203
23.204126 -22.454905 -0.015904
20.090559 -19.461319 0.634715
18.373049 -17.813726 1.179034
18.797062 -18.230030 1.815617
17.788198 -17.265921 2.297184
17.394920 -16.896833 2.819752
17.639008 -17.139162 3.439382
18.337530 -17.828415 4.183492
17.732828 -17.253880 4.642640
0.422266 -0.455603 -0.350371
0.439097 -0.472279 -0.345345
0.469909 -0.502439 -0.349845
2.672605 -2.649776 -1.876644
2.839296 -2.814163 -1.880323
3.032205 -3.004368 -1.889568
3.247062 -3.215166 -1.898769
3.500632 -3.465118 -1.914505
3.764044 -3.725033 -1.919585
4.052911 -4.008828 -1.919351
4.405817 -4.356979 -1.927671
4.804498 -4.750449 -1.932608
5.291830 -5.229532 -1.943960
5.692025 -5.625490 -1.893557
5.934925 -5.867672 -1.772219
7.783702 -7.686848 -2.061335
9.116475 -8.917533 -2.097034
10.956092 -10.715360 -2.157533
13.982309 -13.667401 -2.289480
14.418210 -14.101809 -1.888986
14.293759 -13.990120 -1.406649
14.532467 -14.227870 -0.957363
47.837067 -46.764236 -1.583974
0.000731 -0.045431 -0.001200
20.105659 -19.701000 0.638823
18.223276 -17.873020 1.176043
0.000731 -0.045431 -0.001200
18.361397 -18.033018 2.385055
17.882126 -17.569483 2.915140
17.448191 -17.156050 3.421953
18.147181 -17.853853 4.164144
19.092175 -18.787666 5.026881
0.419806 -0.457977 -0.350366
0.434068 -0.472314 -0.343380
0.472222 -0.510064 -0.353600
2.658390 -2.666744 -1.877533
2.821525 -2.829580 -1.879455
3.016407 -3.022953 -1.890371
3.224258 -3.230380 -1.896442
3.477637 -3.483108 -1.913036
3.738788 -3.742585 -1.917517
4.032031 -4.035379 -1.920620
4.384237 -4.386982 -1.929447
4.778698 -4.779299 -1.933145
5.263707 -5.263448 -1.944956
5.691563 -5.689587 -1.904164
5.897131 -5.897517 -1.770949
7.736762 -7.728664 -2.060567
9.063656 -8.971355 -2.097004
10.890214 -10.773999 -2.156661
13.887094 -13.736087 -2.287110
0.000711 -0.045309 -0.001196
14.299809 -14.157578 -1.415170
14.524797 -14.389541 -0.962398
25.776506 -25.519531 -0.858961
25.809225 -25.560602 -0.017592
22.459074 -22.263876 0.717995
17.985121 -17.850002 1.167518
17.986305 -17.857271 1.757372
18.298532 -18.179016 2.390469
0.000711 -0.045309 -0.001196
20.324678 -20.207823 4.009094
18.163374 -18.076145 4.191682
18.850941 -18.771667 4.992582
0.417436 -0.460286 -0.350363
0.426661 -0.469769 -0.339454
0.467047 -0.510179 -0.351717
2.647041 -2.685691 -1.880218
2.809761 -2.849014 -1.882014
3.000487 -3.041446 -1.891173
3.207710 -3.249524 -1.897201
3.459691 -3.503681 -1.913751
3.718065 -3.763288 -1.917503
4.011011 -4.059060 -1.921247
4.357205 -4.408577 -1.928237
4.753529 -4.807154 -1.933680
5.233127 -5.291295 -1.944432
5.701155 -5.762507 -1.918004
5.858821 -5.924702 -1.769263
7.695086 -7.770308 -2.060544
9.010708 -9.021918 -2.096652
10.812809 -10.821055 -2.153556
13.785510 -13.793290 -2.283343
14.332891 -14.344107 -1.899168
14.294554 -14.315721 -1.422711
0.000718 -0.045202 -0.001194
0.000718 -0.045202 -0.001194
0.000718 -0.045202 -0.001194
0.000718 -0.045202 -0.001194
17.931988 -17.996687 1.170616
18.155823 -18.226995 1.783900
17.683527 -17.766254 2.323041
17.857550 -17.946775 2.944171
17.942312 -18.044191 3.558842
18.257793 -18.366951 4.236359
18.571814 -18.694971 4.945351
0.411539 -0.458759 -0.347295
0.428028 -0.475660 -0.342390
0.459460 -0.507649 -0.347953
2.632695 -2.699851 -1.880206
2.790258 -2.860714 -1.879435
2.984993 -3.059352 -1.891976
3.186615 -3.265218 -1.895647
3.439020 -3.521523 -1.913011
3.696595 -3.784539 -1.917490
3.987828 -4.081986 -1.921233
4.334693 -4.436216 -1.929416
4.728738 -4.837091 -1.934769
5.209607 -5.328122 -1.946951
5.697170 -5.826619 -1.928148
5.826591 -5.962056 -1.770078
7.646346 -7.812923 -2.059776
8.959212 -9.067617 -2.095973
10.760820 -10.889597 -2.155198
13.694141 -13.850645 -2.280508
14.285030 -14.456336 -1.903418
14.308682 -14.490183 -1.432074
0.000725 -0.045095 -0.001192
20.469770 -20.731688 -0.689889
20.486622 -20.763039 -0.014236
0.000725 -0.045095 -0.001192
19.560534 -19.853828 1.284534
18.460077 -18.745766 1.824432
17.790960 -18.080366 2.350826
19.255762 -19.578844 3.193920
17.811567 -18.126234 3.554180
18.073971 -18.398901 4.218953
17.793570 -18.126635 4.766605
0.416238 -0.468522 -0.353418
0.430287 -0.483142 -0.346309
0.452999 -0.506470 -0.345130
0.477098 -0.531396 -0.343398
2.776790 -2.881466 -1.881993
2.967041 -3.076892 -1.891964
3.170031 -3.286604 -1.897178
3.422927 -3.547685 -1.915911
3.678283 -3.810333 -1.919531
3.965118 -4.106821 -1.921859
4.305890 -4.459017 -1.928207
4.702901 -4.867713 -1.935857
5.172763 -5.353287 -1.944903
5.688216 -5.884320 -1.936445
5.791049 -5.994006 -1.769641
7.598738 -7.856635 -2.059379
8.906698 -9.124888 -2.096594
10.712915 -10.970121 -2.158514
13.592859 -13.916896 -2.277669
14.288688 -14.637128 -1.915694
14.317602 -14.671667 -1.441576
0.000705 -0.044973 -0.001188
0.000705 -0.044973 -0.001188
0.000705 -0.044973 -0.001188
0.000705 -0.044973 -0.001188
0.000705 -0.044973 -0.001188
17.611776 -18.099306 1.751158
17.910189 -18.417925 2.381021
18.612761 -19.151878 3.106041
18.098185 -18.629974 3.632757
17.769279 -18.304836 4.173093
17.880539 -18.431871 4.819120
0.411395 -0.468330 -0.351372
0.419251 -0.476731 -0.339441
0.458933 -0.517834 -0.351704
0.482981 -0.542999 -0.349680
2.759137 -2.895994 -1.881124
2.947727 -3.093025 -1.891138
3.150020 -3.303368 -1.896394
3.401390 -3.565884 -1.915169
3.657173 -3.833336 -1.920202
3.941669 -4.129492 -1.921845
4.280398 -4.483634 -1.928192
4.676865 -4.898192 -1.936944
5.146121 -5.387058 -1.946407
5.695292 -5.961317 -1.950746
5.739375 -6.011241 -1.764621
7.553615 -7.902903 -2.059725
8.848763 -9.170267 -2.095265
10.643780 -11.029138 -2.157644
13.536230 -14.019102 -2.281585
14.297187 -14.814931 -1.928156
14.322115 -14.850915 -1.450799
0.000711 -0.044866 -0.001185
0.000711 -0.044866 -0.001185
20.158745 -20.921043 -0.014060
0.000711 -0.044866 -0.001185
19.374729 -20.129850 1.287791
17.533411 -18.233538 1.754124
17.538359 -18.251259 2.345945
18.124855 -18.866558 3.042689
17.623646 -18.358713 3.559284
17.627794 -18.375692 4.165386
17.625879 -18.379969 4.778907
0.405294 -0.466914 -0.348304
0.414259 -0.476572 -0.337476
0.452440 -0.516596 -0.348880
0.487429 -0.553493 -0.355065
2.746420 -2.915648 -1.883683
2.932655 -3.112490 -1.892756
3.122988 -3.313891 -1.891752
3.377197 -3.581266 -1.912972
3.632701 -3.851511 -1.918819
3.918068 -4.152011 -1.921830
4.256072 -4.509481 -1.928773
4.646171 -4.922145 -1.935823
5.116603 -5.417905 -1.946896
0.000716 -0.044763 -0.001183
5.720772 -6.058667 -1.769184
6.862415 -7.263950 -1.882279
8.794463 -9.222511 -2.095237
10.581687 -11.091562 -2.157887
13.433852 -14.078992 -2.278284
14.298768 -14.992945 -1.940244
14.328971 -15.029651 -1.460159
0.000716 -0.044763 -0.001183
0.000716 -0.044763 -0.001183
58.432476 -61.259872 -0.038553
0.000716 -0.044763 -0.001183
0.000716 -0.044763 -0.001183
17.776588 -18.699547 1.789252
17.469379 -18.383417 2.350436
18.238041 -19.203609 3.080236
18.601770 -19.599236 3.779653
17.555065 -18.505198 4.172555
17.507788 -18.468214 4.775637
0.404103 -0.470301 -0.349320
0.413049 -0.480036 -0.338453
0.448579 -0.517721 -0.347936
0.489498 -0.561294 -0.358655
2.729837 -2.931308 -1.883672
2.916736 -3.130046 -1.893559
3.109739 -3.336536 -1.894827
3.354224 -3.597849 -1.911503
3.615247 -3.875728 -1.920860
3.895651 -4.175784 -1.922457
4.236827 -4.540758 -1.931740
4.624118 -4.953498 -1.938014
5.094852 -5.457035 -1.950430
5.649153 -6.048015 -1.958100
5.708824 -6.115634 -1.776248
6.783041 -7.263141 -1.871863
8.748473 -9.277087 -2.096507
10.517102 -11.147506 -2.157295
13.355239 -14.153672 -2.278239
14.312210 -15.175172 -1.953452
14.336886 -15.206453 -1.469520
14.567985 -15.461524 -0.999657
0.000698 -0.044637 -0.001179
57.775295 -61.252079 -0.038176
0.000698 -0.044637 -0.001179
0.000698 -0.044637 -0.001179
17.347837 -18.454264 1.756451
17.347076 -18.466196 2.348273
18.591621 -19.801554 3.159211
0.000698 -0.044637 -0.001179
18.237906 -19.445702 4.361461
19.017637 -20.289204 5.219392
0.405189 -0.476288 -0.352381
0.414108 -0.486117 -0.341390
0.449482 -0.524062 -0.350752
0.492608 -0.570507 -0.363140
2.714403 -2.948197 -1.884518
2.901403 -3.149349 -1.895176
3.094498 -3.358322 -1.897129
3.341319 -3.625168 -1.915860
3.593122 -3.896379 -1.920846
3.871791 -4.198039 -1.922442
4.203061 -4.556600 -1.928145
4.598386 -4.982754 -1.939101
5.063598 -5.486181 -1.950412
5.601227 -6.066093 -1.953460
5.707049 -6.184124 -1.786644
6.567500 -7.114793 -1.823589
8.693811 -9.325777 -2.096153
10.448916 -11.203447 -2.156423
13.279193 -14.236060 -2.279128
14.318665 -15.357598 -1.966285
14.350141 -15.396525 -1.479863
0.000702 -0.044533 -0.001177
0.000702 -0.044533 -0.001177
57.120274 -61.260532 -0.037805
0.000702 -0.044533 -0.001177
44.102886 -47.375092 2.987365
18.693901 -20.112984 1.904574
18.909603 -20.358614 2.575772
18.754902 -20.206369 3.206714
18.288382 -19.711571 3.761178
18.096306 -19.518486 4.354405
19.118748 -20.633059 5.279672
0.397937 -0.473513 -0.348292
0.410304 -0.487175 -0.340406
0.447825 -0.527897 -0.351687
0.491897 -0.575926 -0.364932
2.699577 -2.966802 -1.886220
2.882911 -3.166389 -1.895163
3.069782 -3.371097 -1.894030
3.313699 -3.637970 -1.912205
3.568914 -3.916129 -1.920146
3.849625 -4.223604 -1.923708
4.181384 -4.586967 -1.930516
4.574214 -5.015506 -1.941293
5.037755 -5.523137 -1.952929
5.582504 -6.117731 -1.959444
5.706250 -6.256675 -1.797874
6.528082 -7.156420 -1.824308
8.638576 -9.377087 -2.096123
10.393291 -11.276786 -2.158622
13.201497 -14.321797 -2.280249
14.322140 -15.544567 -1.979303
14.364375 -15.595609 -1.490765
0.000709 -0.044427 -0.001174
0.000709 -0.044427 -0.001174
45.110214 -48.967857 -0.030144
43.616997 -47.381184 1.465212
0.000709 -0.044427 -0.001174
0.000709 -0.044427 -0.001174
17.361002 -18.918159 2.380008
18.500481 -20.170910 3.183632
18.116398 -19.759808 3.749863
18.390238 -20.071703 4.453743
18.998890 -20.748901 5.280474
0.396624 -0.476955 -0.349309
0.404206 -0.485548 -0.337460
0.440261 -0.525142 -0.347924
0.493658 -0.583921 -0.368521
2.681479 -2.980858 -1.885352
2.865582 -3.184693 -1.895966
3.045592 -3.383156 -1.890931
3.291678 -3.655500 -1.911463
3.549687 -3.941307 -1.922188
3.822939 -4.242798 -1.922412
4.155140 -4.610859 -1.930499
4.540750 -5.038185 -1.939619
5.011322 -5.557683 -1.954940
5.550291 -6.154966 -1.960810
5.708711 -6.333764 -1.810353
6.480474 -7.189094 -1.822799
8.582021 -9.423666 -2.095443
10.335795 -11.348375 -2.160540
13.108316 -14.385747 -2.278342
14.341402 -15.745782 -1.994374
14.372720 -15.790992 -1.501246
42.478012 -46.600491 -2.967521
0.000715 -0.044320 -0.001172
55.853661 -61.345486 -0.037098
40.855507 -44.899712 1.381165
0.000715 -0.044320 -0.001172
0.000715 -0.044320 -0.001172
55.930481 -61.578777 7.720415
18.134432 -20.002052 3.140414
18.036358 -19.907888 3.757693
18.581411 -20.522377 4.529476
19.341518 -21.367416 5.409845
0.397501 -0.483010 -0.352368
0.406254 -0.493000 -0.341378
0.437399 -0.527630 -0.347920
0.484458 -0.580097 -0.364026
2.669358 -3.001503 -1.888766
2.844997 -3.198319 -1.894326
3.029430 -3.405172 -1.893234
3.268329 -3.671523 -1.909993
3.525908 -3.960171 -1.921488
3.802507 -4.268872 -1.924321
4.128773 -4.634610 -1.930484
4.518351 -5.071305 -1.942364
4.976910 -5.583474 -1.953908
5.511113 -6.182385 -1.959404
0.000696 -0.044197 -0.001168
6.439161 -7.223608 -1.822405
8.528869 -9.477259 -2.096065
10.267859 -11.404666 -2.159947
13.028302 -14.469065 -2.279229
14.338683 -15.931009 -2.007017
14.386025 -15.988934 -1.512147
42.192989 -46.842739 -2.966821
0.000696 -0.044197 -0.001168
40.545128 -45.061649 -0.027286
40.187340 -44.695385 1.367628
0.000696 -0.044197 -0.001168
0.000696 -0.044197 -0.001168
55.322372 -61.596786 7.683975
17.845306 -19.912441 3.110153
18.124079 -20.236847 3.800208
0.000696 -0.044197 -0.001168
19.236761 -21.498819 5.415081
0.389313 -0.478702 -0.347259
0.402578 -0.493847 -0.340393
0.432330 -0.527314 -0.346036
0.487392 -0.589336 -0.368511
2.648674 -3.012678 -1.886186
2.827341 -3.214056 -1.894315
3.005691 -3.416414 -1.890134
3.244905 -3.687395 -1.908523
3.508993 -3.985318 -1.924215
3.779355 -4.291996 -1.924946
4.106070 -4.662486 -1.932258
4.490189 -5.096341 -1.942346
4.950052 -5.617719 -1.955918
5.479327 -6.215867 -1.960308
0.000702 -0.044091 -0.001166
6.387283 -7.248706 -1.819413
8.476044 -9.524630 -2.096035
10.192383 -11.448442 -2.157400
12.948871 -14.542983 -2.279419
14.363750 -16.138498 -2.023020
14.404317 -16.189501 -1.523469
41.922989 -47.068600 -2.966122
0.000702 -0.044091 -0.001166
0.000702 -0.044091 -0.001166
0.000702 -0.044091 -0.001166
0.000702 -0.044091 -0.001166
0.000702 -0.044091 -0.001166
54.699783 -61.613533 7.646797
0.000702 -0.044091 -0.001166
54.788940 -61.777981 11.562971
0.000702 -0.044091 -0.001166
0.000702 -0.044091 -0.001166
0.392499 -0.487269 -0.352360
0.399983 -0.496046 -0.340389
0.426042 -0.525718 -0.343213
0.486609 -0.594698 -0.370303
2.635131 -3.031849 -1.888745
2.807260 -3.229286 -1.893487
2.997211 -3.446034 -1.897068
3.223875 -3.705921 -1.908511
3.486769 -4.007363 -1.924885
3.756091 -4.315017 -1.925573
4.076872 -4.683075 -1.931048
4.460131 -5.122791 -1.942329
4.922976 -5.651845 -1.957929
5.438752 -6.243772 -1.958902
5.710088 -6.557644 -1.846124
6.335343 -7.276017 -1.816791
8.419980 -9.571692 -2.095679
10.085211 -11.464087 -2.148989
12.874342 -14.627628 -2.281004
14.368314 -16.331366 -2.036783
14.417755 -16.398794 -1.535069
20.803617 -23.651089 -1.481975
0.000709 -0.043984 -0.001164
53.996052 -61.403126 -0.036050
0.000709 -0.043984 -0.001164
39.849632 -45.374557 2.787651
41.134174 -46.868385 4.330348
54.039173 -61.601654 7.605554
0.000709 -0.043984 -0.001164
0.000709 -0.043984 -0.001164
0.000709 -0.043984 -0.001164
0.000709 -0.043984 -0.001164
0.380800 -0.479105 -0.344188
0.398427 -0.499602 -0.341365
0.426664 -0.532118 -0.346028
0.478647 -0.592086 -0.366707
2.616687 -3.045505 -1.887877
2.793676 -3.250812 -1.896733
2.973323 -3.459464 -1.894740
3.202718 -3.724313 -1.908497
3.462658 -4.025857 -1.924186
3.730185 -4.335040 -1.924917
4.053833 -4.710685 -1.932821
4.430794 -5.148279 -1.942311
4.895658 -5.685833 -1.959939
5.405501 -6.277826 -1.959805
5.712036 -6.633657 -1.858601
6.284557 -7.299289 -1.813799
8.354224 -9.610984 -2.093374
9.960661 -11.454732 -2.136390
0.000689 -0.043862 -0.001160
14.429725 -16.597868 -2.059316
14.429477 -16.603287 -1.546389
40.752338 -46.845737 -2.921564
0.000689 -0.043862 -0.001160
0.000689 -0.043862 -0.001160
39.660423 -45.670944 1.376724
39.044071 -44.977337 2.749471
39.965134 -46.069416 4.235222
0.000689 -0.043862 -0.001160
0.000689 -0.043862 -0.001160
0.000689 -0.043862 -0.001160
0.000689 -0.043862 -0.001160
0.000689 -0.043862 -0.001160
0.390734 -0.495436 -0.355414
