# This PCD file was generated using the MATLAB® pcwrite function
# from Computer Vision Toolbox®.
# .PCD v.7 - Point Cloud Data file format
VERSION .7
FIELDS x y z
SIZE 4 4 4
TYPE F F F
COUNT 1 1 1
WIDTH 1642
HEIGHT 1
VIEWPOINT 0 0 0 1 0 0 0
POINTS 1642
DATA ascii
-2.935201 0.476073 -1.504816
-3.067599 0.503867 -1.482768
-3.227508 0.536751 -1.467409
-3.393595 0.571556 -1.447547
-3.546062 0.603713 -1.414120
-3.757609 0.647318 -1.396686
-3.962574 0.690369 -1.367393
-4.142175 0.728409 -1.320024
-4.406360 0.783042 -1.290325
-4.545977 0.813144 -1.215412
-4.879369 0.882163 -1.180640
-5.259068 0.961727 -1.141451
-5.693277 1.052749 -1.095188
-6.216973 1.133116 -1.041714
-6.796000 1.250647 -0.973829
-7.688410 1.432879 -0.914894
-8.323408 1.563783 -0.790977
-8.649765 1.631163 -0.615684
-9.504728 1.807253 -0.450391
-10.134883 1.938388 -0.237911
-10.129312 1.939026 0.002180
-10.119890 1.940723 0.241944
-10.102954 1.940866 0.483002
-10.094701 1.940949 0.722610
-10.082582 1.942073 0.962292
-10.080349 1.945202 1.205482
-10.055628 1.941898 1.444817
-10.044416 1.943179 1.686900
-10.044603 1.946793 1.934393
-0.453012 -0.022397 -0.277446
-2.728855 0.449473 -1.567318
-2.810278 0.466839 -1.527530
-2.919476 0.490522 -1.498536
-3.071071 0.523114 -1.486181
-3.236225 0.558049 -1.473091
-3.385968 0.590442 -1.446002
-3.549155 0.625760 -1.417020
-3.751322 0.668680 -1.395996
-3.941173 0.709787 -1.361634
-4.167141 0.758634 -1.329534
-4.380400 0.804161 -1.284266
-4.542461 0.839836 -1.215910
-4.869714 0.909543 -1.179714
-5.247016 0.990882 -1.140201
-5.686440 1.085624 -1.095181
-6.205805 1.168209 -1.041060
-6.788030 1.289888 -0.973820
-7.683260 1.478061 -0.915346
-8.329187 1.615047 -0.792445
-8.610263 1.674975 -0.613597
-9.473958 1.858018 -0.449458
-10.134633 1.999296 -0.238172
-10.134919 2.001122 0.002200
-10.117659 2.001134 0.242193
-10.110497 2.003237 0.483956
-10.094397 2.001626 0.723464
-10.078352 2.001861 0.963050
-10.076077 2.004975 1.206426
-10.059090 2.003151 1.447062
-10.047826 2.004368 1.689513
0.000261 -0.116178 -0.003259
-0.450795 -0.020030 -0.276423
-0.458578 -0.018219 -0.266543
-2.803430 0.482391 -1.525649
-2.905440 0.505186 -1.493153
-3.074420 0.542419 -1.489594
-3.226813 0.576203 -1.470647
-3.378236 0.609265 -1.444457
-3.548469 0.647084 -1.418468
-3.742921 0.690240 -1.394624
-3.934501 0.732183 -1.360988
-4.176960 0.785949 -1.334287
-4.380498 0.831463 -1.285910
-4.542536 0.867305 -1.217421
-4.874973 0.941018 -1.182466
-5.253756 1.025031 -1.143096
-5.684982 1.120715 -1.096280
-6.198308 1.204041 -1.041052
-6.779562 1.330252 -0.973811
-7.670060 1.521564 -0.914875
-8.332726 1.666024 -0.793728
-8.525341 1.710262 -0.608326
-9.444832 1.908880 -0.448619
-10.139887 2.061533 -0.238568
-10.143691 2.065968 0.002223
-10.124824 2.063680 0.242677
-10.098131 2.061558 0.483967
-10.099209 2.065401 0.724741
-10.085056 2.065948 0.964929
-10.083096 2.067290 1.208770
-10.063753 2.066704 1.449588
-10.050494 2.067431 1.692127
-15.915651 3.344400 3.074439
-0.436773 -0.020189 -0.268265
-0.461414 -0.014627 -0.268496
-2.789468 0.496838 -1.520016
-2.908703 0.524072 -1.496732
-3.063518 0.558670 -1.486169
-3.219218 0.594104 -1.469016
-3.379302 0.630619 -1.446759
-3.536741 0.666007 -1.415556
-3.738212 0.711887 -1.394619
-3.929569 0.754950 -1.360981
-4.140003 0.803059 -1.324170
-4.388114 0.859707 -1.289756
-4.536798 0.893558 -1.217415
-4.866898 0.968758 -1.182000
-5.251103 1.055298 -1.143921
-5.677988 1.152556 -1.096273
-6.194234 1.241761 -1.041689
-6.767248 1.368531 -0.973249
-7.662136 1.567575 -0.915098
-8.358957 1.723684 -0.797228
-8.467911 1.749140 -0.604994
-9.428752 1.964144 -0.448424
-10.140824 2.123013 -0.238876
-10.130953 2.124465 0.002234
-10.117568 2.125135 0.242831
-10.104909 2.124107 0.484919
-10.092316 2.124942 0.725173
-10.088264 2.125815 0.966434
-10.085872 2.128903 1.210648
-10.068417 2.128630 1.452113
-10.055461 2.127504 1.695064
-16.192745 3.502581 3.132014
-0.442942 -0.016133 -0.272339
-0.457427 -0.012718 -0.266536
-2.780838 0.511354 -1.517197
-2.919034 0.543563 -1.503899
-3.063106 0.577204 -1.487874
-3.207927 0.611111 -1.465762
-3.373276 0.649176 -1.445984
-3.512204 0.681939 -1.407558
-3.737051 0.734346 -1.395979
-3.913409 0.775159 -1.357140
-4.153268 0.831249 -1.330111
-4.365547 0.881218 -1.284797
-4.525256 0.918490 -1.215892
-4.856765 0.996005 -1.181074
-5.244066 1.086551 -1.143913
-5.672266 1.186765 -1.096636
-6.188464 1.276865 -1.042006
-6.770178 1.410202 -0.974905
-7.654574 1.610907 -0.915319
-8.325244 1.765184 -0.795003
-8.447300 1.795792 -0.604292
-9.397519 2.012487 -0.447492
-10.141412 2.184591 -0.239183
-10.143241 2.188656 0.002258
-10.124408 2.186171 0.243317
-10.103524 2.185043 0.485495
-10.096743 2.187135 0.726448
-10.088385 2.188870 0.967754
-10.088261 2.190613 1.212525
-10.072704 2.190687 1.454639
-10.057367 2.190793 1.697678
-14.974483 3.321134 2.899936
-0.438986 -0.014174 -0.270298
-0.460206 -0.009102 -0.268491
-2.783958 0.529548 -1.520944
-2.922031 0.562589 -1.507480
-3.058953 0.595484 -1.487868
-3.203695 0.629688 -1.465757
-3.372272 0.670121 -1.447519
-3.523747 0.706691 -1.414091
-3.717451 0.752545 -1.390509
-3.928342 0.803210 -1.364166
-4.168043 0.860788 -1.336646
-4.361621 0.906905 -1.285341
-4.515275 0.944550 -1.214874
-4.850295 1.024075 -1.181067
-5.229452 1.115063 -1.142246
-5.670412 1.220878 -1.097737
-6.182013 1.314114 -1.042322
-6.769017 1.451082 -0.976005
-7.646120 1.656849 -0.915542
-8.321691 1.816459 -0.795733
-8.492515 1.857623 -0.608298
-9.359427 2.062436 -0.446285
-10.145119 2.248936 -0.239580
-10.147329 2.251245 0.002278
-10.126128 2.249949 0.243706
-10.099425 2.247354 0.485977
-10.075556 2.243559 0.725898
-10.040037 2.238862 0.964400
-10.051196 2.245105 1.209736
-10.043808 2.245141 1.452413
-10.051596 2.250607 1.698989
0.000259 -0.115739 -0.003247
-0.438387 -0.011541 -0.270295
-0.466381 -0.004724 -0.272402
-2.793951 0.548955 -1.528442
-2.912871 0.578280 -1.504785
-3.061844 0.614875 -1.491282
-3.188681 0.645685 -1.460877
-3.356919 0.687065 -1.442894
-3.526197 0.728813 -1.416991
-3.712388 0.774048 -1.390504
-3.924824 0.826367 -1.364800
-4.121500 0.875065 -1.323556
-4.364995 0.934354 -1.288087
-4.522282 0.973832 -1.218405
-4.843659 1.052107 -1.181060
-5.231785 1.147565 -1.144314
-5.668375 1.255027 -1.098836
-6.173686 1.349812 -1.042314
-6.763732 1.491068 -0.976552
-7.635780 1.700965 -0.915534
-8.337554 1.870937 -0.798309
-8.389788 1.884861 -0.601782
-9.356441 2.118738 -0.446736
-10.152718 2.312552 -0.240069
-10.145189 2.312548 0.002294
-10.038462 2.290646 0.241913
-10.033207 2.293019 0.483444
-10.040453 2.296536 0.724361
-10.035987 2.299095 0.965344
-10.047082 2.305397 1.210912
-10.031981 2.303543 1.452703
-10.049315 2.311365 1.700951
-14.923717 3.493947 2.898108
-0.436121 -0.009309 -0.269272
-0.453879 -0.004815 -0.265547
-2.803804 0.568489 -1.535942
-2.919262 0.597710 -1.510158
-3.052304 0.631306 -1.488714
-3.202020 0.668507 -1.468995
-3.355831 0.707375 -1.444429
-3.514042 0.747439 -1.414080
-3.716338 0.797770 -1.393913
-3.910156 0.846816 -1.361597
-4.150948 0.907572 -1.334851
-4.362611 0.960507 -1.289182
-4.534698 1.004593 -1.223456
-4.834950 1.079615 -1.180595
-5.226316 1.178251 -1.144723
-5.660373 1.287749 -1.098830
-6.170905 1.386863 -1.043276
-6.760134 1.531509 -0.977376
-7.625206 1.745032 -0.915524
-8.335638 1.921389 -0.799225
-8.370388 1.931374 -0.601218
-9.327882 2.168890 -0.445991
-10.148276 2.373486 -0.240286
-10.148526 2.375350 0.002314
-10.043858 2.353312 0.242398
-10.030814 2.353751 0.484020
-10.026391 2.354440 0.724371
-10.027708 2.358404 0.965914
-10.031043 2.362868 1.210689
-10.040944 2.367099 1.456065
-10.054324 2.374068 1.704214
-15.019021 3.608805 2.920772
-0.428831 -0.008345 -0.265191
-0.454907 -0.001686 -0.266524
-2.796387 0.583874 -1.534061
-2.906415 0.612431 -1.505672
-3.030410 0.644579 -1.480161
-3.186805 0.684365 -1.464115
-3.354620 0.727695 -1.445963
-3.519862 0.770507 -1.418433
-3.729258 0.823864 -1.400737
-3.897198 0.867576 -1.359034
-4.146853 0.932047 -1.335438
-4.367537 0.988556 -1.292476
-4.545069 1.035086 -1.227997
-4.833663 1.108992 -1.181967
-5.218790 1.208448 -1.144714
-5.652201 1.320440 -1.098823
-6.162138 1.422477 -1.043269
-6.758227 1.572447 -0.978477
-7.618211 1.789986 -0.915977
-8.356602 1.977697 -0.802356
-8.341032 1.975287 -0.599963
-9.301006 2.219286 -0.445335
-10.149290 2.435910 -0.240637
-10.149541 2.437787 0.002335
-10.044977 2.415139 0.242789
-10.024158 2.413538 0.484407
-10.021671 2.414704 0.725085
-10.026803 2.419650 0.967234
-10.047404 2.428512 1.214433
-10.055279 2.432308 1.460268
-10.058926 2.436892 1.707477
-14.932558 3.678916 2.908162
-0.441531 -0.002368 -0.273343
-0.459330 0.002355 -0.269455
-2.787186 0.598766 -1.531241
-2.909110 0.631050 -1.509251
-3.038252 0.665286 -1.486138
-3.208701 0.709648 -1.476297
-3.340779 0.744816 -1.442107
-3.511079 0.789928 -1.416975
-3.716505 0.843558 -1.397998
-3.907969 0.894367 -1.364782
-4.153697 0.959374 -1.339595
-4.338783 1.008032 -1.285865
-4.555238 1.065735 -1.232539
-4.830298 1.137900 -1.182880
-5.216767 1.240075 -1.145951
-5.647656 1.354079 -1.099552
-6.158927 1.459529 -1.044229
-6.748406 1.611466 -0.978467
-7.603277 1.832972 -0.915505
-8.367580 2.031864 -0.804560
-8.382971 2.037308 -0.603829
-9.281610 2.271442 -0.445047
-10.155723 2.499918 -0.241125
-10.152086 2.500800 0.002356
-10.045712 2.477056 0.243180
-10.036517 2.478357 0.485739
-10.039764 2.480992 0.727486
-10.052528 2.487968 0.971170
-10.065271 2.494940 1.218412
-10.059605 2.495277 1.463074
-10.059356 2.498893 1.710092
-25.941351 6.635617 5.062031
-0.434233 -0.001444 -0.269261
-0.456962 0.004671 -0.268473
-2.791581 0.617159 -1.535925
-2.906493 0.648355 -1.510143
-3.035464 0.683346 -1.486987
-3.202132 0.727756 -1.475478
-3.341120 0.765560 -1.444411
-3.511233 0.811686 -1.419147
-3.703652 0.863133 -1.395260
-3.920413 0.921814 -1.371168
-4.136363 0.980452 -1.336020
-4.352687 1.038529 -1.291911
-4.583879 1.101474 -1.242137
-4.823012 1.165818 -1.182872
-5.203193 1.268690 -1.144700
-5.635304 1.385681 -1.098806
-6.149769 1.495096 -1.044220
-6.746018 1.652422 -0.979567
-7.597684 1.878342 -0.916189
-8.403211 2.092769 -0.809170
-8.383952 2.089224 -0.604787
-9.252240 2.320895 -0.444300
-10.155974 2.562566 -0.241475
-10.152328 2.563428 0.002376
-10.055749 2.541626 0.243809
-10.038775 2.540818 0.486597
-10.051658 2.546045 0.729467
-10.046975 2.548478 0.972114
-10.061589 2.556045 1.219824
-10.055892 2.556345 1.464763
-10.065090 2.562473 1.713681
-11.095575 2.840688 2.166598
-0.441885 0.003393 -0.274354
-0.449520 0.005596 -0.264555
-2.797542 0.636073 -1.541549
-2.912419 0.667981 -1.515515
-3.018600 0.697638 -1.480998
-3.190026 0.744955 -1.472222
-3.344912 0.787302 -1.448254
-3.507635 0.832485 -1.419868
-3.688698 0.882741 -1.391840
-3.897927 0.940040 -1.365407
-4.144732 1.008368 -1.340771
-4.369879 1.070982 -1.299058
-4.599214 1.134057 -1.248195
-4.802164 1.190934 -1.179646
-5.202441 1.301705 -1.146351
-5.631990 1.420756 -1.099906
-6.146107 1.532127 -1.045182
-6.737325 1.693049 -0.979835
-7.587995 1.922692 -0.916411
-8.355752 2.131942 -0.805834
-8.366869 2.138006 -0.604500
-9.226497 2.371149 -0.443736
-10.159676 2.626329 -0.241918
-10.157498 2.629481 0.002400
-10.063459 2.605891 0.244391
-10.056110 2.607597 0.488212
-10.056846 2.611489 0.731023
-10.054049 2.614429 0.974368
-10.067137 2.619806 1.222404
-10.064694 2.622841 1.468406
-10.066159 2.626939 1.716621
-10.877362 2.849866 2.127245
-0.434526 0.004296 -0.270274
-0.452156 0.009293 -0.266509
-2.787942 0.651373 -1.538728
-2.899110 0.682989 -1.511027
-3.034630 0.721393 -1.491250
-3.192065 0.765361 -1.475466
-3.327045 0.803807 -1.442859
-3.482198 0.847929 -1.411870
-3.650297 0.895066 -1.379538
-3.915350 0.969840 -1.373710
-4.149027 1.036107 -1.344334
-4.392635 1.104482 -1.307855
-4.593584 1.161948 -1.248694
-4.794576 1.218692 -1.179638
-5.194207 1.331762 -1.146344
-5.626835 1.454331 -1.100637
-6.140029 1.569723 -1.045820
-6.734423 1.734013 -0.980937
-7.587258 1.970952 -0.917787
-8.340350 2.181069 -0.805639
-8.376830 2.192623 -0.606152
-9.180771 2.417471 -0.442251
-10.162519 2.692018 -0.242358
-10.162711 2.693900 0.002422
-10.076026 2.673659 0.245114
-10.068648 2.675337 0.489636
-10.075602 2.679094 0.733567
-10.074631 2.682538 0.977931
-10.085179 2.689196 1.226616
-10.073556 2.687782 1.472049
-10.069214 2.690292 1.719885
-10.636224 2.852184 2.083438
-0.433829 0.006905 -0.270271
-0.453128 0.012493 -0.267484
-2.780086 0.666573 -1.536847
-2.894462 0.699775 -1.511022
-3.022966 0.736488 -1.487825
-3.186939 0.783836 -1.475461
-3.309270 0.819553 -1.437464
-3.501870 0.874560 -1.422036
-3.664315 0.921805 -1.387046
-3.887346 0.985604 -1.366034
-4.133352 1.056766 -1.341354
-4.381833 1.128811 -1.306749
-4.591971 1.189284 -1.250204
-4.796169 1.249045 -1.181932
-5.184165 1.360321 -1.145922
-5.621761 1.486915 -1.101369
-6.139729 1.607834 -1.047428
-6.731291 1.775024 -0.982038
-7.584690 2.017418 -0.918932
-8.357651 2.237806 -0.808585
-8.407564 2.253381 -0.609327
-9.164112 2.469877 -0.442148
-10.167845 2.754813 -0.242847
-10.159847 2.756318 0.002442
-10.077111 2.736660 0.245553
-10.070218 2.736551 0.490496
-10.080435 2.743164 0.735123
-10.072258 2.742684 0.979249
-10.080816 2.748845 1.228027
-10.074396 2.750752 1.474575
-10.068577 2.750931 1.722499
-10.417250 2.854024 2.043713
-0.436449 0.010384 -0.272306
-0.447378 0.013683 -0.264544
-2.773985 0.681708 -1.535904
-2.889874 0.716040 -1.511017
-3.016263 0.753479 -1.486966
-3.183476 0.802796 -1.476268
-3.296896 0.836073 -1.434380
-3.479996 0.890164 -1.415492
-3.678142 0.948737 -1.394554
-3.895505 1.012292 -1.371142
-4.128365 1.081188 -1.341943
-4.376446 1.154672 -1.307292
-4.586245 1.216359 -1.250703
-4.790123 1.277311 -1.182384
-5.169691 1.389532 -1.144670
-5.617815 1.522001 -1.102469
-6.128108 1.641657 -1.047098
-6.722204 1.814422 -0.982307
-7.576479 2.060952 -0.919385
-8.357783 2.288410 -0.809869
-8.414894 2.307963 -0.610839
-9.134170 2.516701 -0.441402
-10.168430 2.818424 -0.243245
-10.162363 2.820454 0.002464
-10.101377 2.804678 0.246562
-10.126548 2.815715 0.494088
-10.123213 2.818505 0.739492
-10.106755 2.817499 0.984306
-10.108016 2.819701 1.233404
-10.091957 2.818800 1.479616
-10.076017 2.817912 1.726738
-10.199973 2.855851 2.004360
-0.429112 0.011160 -0.268225
-0.448273 0.016930 -0.265520
-2.748875 0.692294 -1.524643
-2.860891 0.726232 -1.498461
-3.026676 0.776069 -1.494652
-3.157101 0.815023 -1.466513
-3.291192 0.855724 -1.434375
-3.479344 0.912497 -1.417665
-3.657532 0.965750 -1.389084
-3.814232 1.013455 -1.344929
-4.123044 1.106328 -1.342530
-4.356166 1.176149 -1.303434
-4.583827 1.245306 -1.252213
-4.780161 1.304432 -1.181918
-5.170316 1.422175 -1.146737
-5.608312 1.554453 -1.102461
-6.128961 1.681445 -1.049028
-6.712884 1.853771 -0.982576
-7.563458 2.105998 -0.919374
-8.345283 2.338634 -0.810044
-8.511805 2.389142 -0.618860
-9.110722 2.568702 -0.441024
-10.170039 2.884491 -0.243686
-10.170223 2.886404 0.002488
-10.145235 2.882811 0.248093
-10.143462 2.886075 0.495795
-10.127195 2.883109 0.741049
-10.112614 2.882572 0.986559
-10.107565 2.884838 1.235515
-10.099552 2.884310 1.483258
-10.089217 2.885007 1.731954
0.000267 -0.114647 -0.003218
-0.430029 0.014235 -0.269240
-0.452530 0.021132 -0.268453
-2.749252 0.709733 -1.527452
-2.867978 0.746394 -1.504731
-3.012857 0.791004 -1.490372
-3.172537 0.840174 -1.476257
-3.285565 0.874785 -1.434368
-3.476930 0.933690 -1.419113
-3.649264 0.987007 -1.388395
-3.872997 1.055245 -1.367934
-4.126910 1.133475 -1.346093
-4.385249 1.213234 -1.314431
-4.601854 1.279653 -1.259282
-4.769792 1.332315 -1.181451
-5.159222 1.452362 -1.146316
-5.603949 1.589526 -1.103561
-6.124181 1.718512 -1.049990
-6.704887 1.894823 -0.983122
-7.533411 2.144495 -0.917288
-8.405407 2.409106 -0.817238
-8.569407 2.461543 -0.624111
-9.058765 2.610312 -0.439265
-10.171727 2.948881 -0.244130
-10.169472 2.952015 0.002509
-10.146945 2.947087 0.248578
-10.133642 2.946859 0.496181
-10.134064 2.950789 0.742889
-10.113693 2.948406 0.988438
-10.111031 2.949459 1.238093
-10.096745 2.948915 1.485505
-10.090125 2.950684 1.735218
0.000249 -0.114521 -0.003214
-0.435835 0.018899 -0.273315
-0.440033 0.020345 -0.261599
-2.747689 0.727174 -1.529323
-2.859407 0.762457 -1.502933
-3.014490 0.810558 -1.493787
-3.175724 0.861223 -1.480314
-3.286687 0.896533 -1.437443
-3.474413 0.954915 -1.420560
-3.660844 1.013662 -1.395218
-3.891547 1.085454 -1.376877
-4.119645 1.157323 -1.346087
-4.359154 1.232897 -1.308923
-4.578957 1.301666 -1.255233
-4.763234 1.360440 -1.181905
-5.152283 1.481853 -1.146723
-5.598092 1.622066 -1.104294
-6.116984 1.756094 -1.050628
-6.693215 1.933524 -0.983113
-7.527476 2.191601 -0.918203
-8.363627 2.450871 -0.814643
-8.508660 2.496926 -0.620779
-9.036715 2.662376 -0.438978
-10.174948 3.013998 -0.244618
-10.168842 3.015944 0.002529
-10.149617 3.013839 0.249111
-10.140678 3.012952 0.497418
-10.129581 3.013340 0.743883
-10.115464 3.010849 0.990317
-10.114080 3.014213 1.240670
-10.097857 3.012996 1.488309
-10.091700 3.012951 1.738481
-10.069614 3.009898 1.989166
-0.430147 0.019901 -0.270254
-0.445950 0.025001 -0.265509
-2.753075 0.745780 -1.534946
-2.847639 0.776387 -1.499342
-3.017761 0.830731 -1.498054
-3.163251 0.876865 -1.477059
-3.265141 0.910008 -1.430509
-3.446872 0.968319 -1.411836
-3.652696 1.033634 -1.394530
-3.857457 1.099426 -1.367283
-4.101339 1.177708 -1.342512
-4.368056 1.262524 -1.313870
-4.592871 1.335110 -1.261292
-4.751225 1.385968 -1.180978
-5.144865 1.512196 -1.147132
-5.584269 1.653212 -1.103547
-6.117728 1.793851 -1.052562
-6.681668 1.970981 -0.983106
-7.503088 2.230149 -0.916811
-8.392886 2.511328 -0.818883
-8.478700 2.539743 -0.619664
-9.017250 2.711717 -0.438785
-10.175842 3.078651 -0.245061
-10.179825 3.081787 0.002555
-10.160593 3.079578 0.249833
-10.141546 3.077413 0.498370
-10.132893 3.076574 0.745439
-10.118191 3.075762 0.992383
-10.118630 3.079710 1.243481
-10.104764 3.077205 1.491950
-10.082925 3.074121 1.740118
-10.072061 3.074486 1.993261
-0.434293 0.024057 -0.273308
-0.440158 0.026095 -0.262569
-2.754799 0.763869 -1.538693
-2.837347 0.791243 -1.496649
-3.019151 0.850395 -1.501468
-3.166013 0.898502 -1.481117
-3.269738 0.932283 -1.435123
-3.442343 0.988820 -1.412558
-3.661915 1.060554 -1.400672
-3.866645 1.126940 -1.373031
-4.106562 1.205510 -1.346669
-4.348827 1.284992 -1.310563
-4.619452 1.372917 -1.270889
-4.751486 1.417218 -1.183273
-5.135110 1.542797 -1.147126
-5.577404 1.687620 -1.104280
-6.102886 1.827973 -1.051907
-6.671069 2.011308 -0.983375
-7.493258 2.274649 -0.917264
-8.677383 2.655411 -0.848058
-8.474221 2.593777 -0.620484
-8.989420 2.760076 -0.438223
-10.180135 3.144634 -0.245595
-10.172106 3.145913 0.002572
-10.166787 3.146103 0.250461
-10.147711 3.143820 0.499605
-10.132755 3.142858 0.746855
-10.121815 3.143173 0.994634
-10.118983 3.144151 1.245826
-10.096964 3.140884 1.493638
-10.097629 3.144924 1.745983
-10.077836 3.140414 1.998099
-0.426928 0.024622 -0.269227
-0.427690 0.025025 -0.255716
-2.759621 0.783584 -1.544317
-2.871038 0.820913 -1.517261
-3.013381 0.868404 -1.501463
-3.156477 0.916247 -1.479486
-3.277529 0.956375 -1.441275
-3.433977 1.008766 -1.411826
-3.637033 1.076536 -1.393835
-3.819588 1.136994 -1.358963
-4.100465 1.230547 -1.347259
-4.340453 1.310884 -1.310557
-4.608723 1.399821 -1.270376
-4.766352 1.453397 -1.189248
-5.128921 1.574583 -1.147948
-5.568497 1.721424 -1.104641
-6.093130 1.864869 -1.052223
-6.663990 2.052802 -0.984199
-7.482738 2.320417 -0.917716
-8.755471 2.737799 -0.857284
-8.471273 2.648449 -0.621445
-8.958892 2.809130 -0.437570
-10.181520 3.211927 -0.246084
-10.175400 3.213799 0.002596
-10.160553 3.210834 0.250803
-10.149085 3.210936 0.500652
-10.139788 3.211748 0.748833
-10.123120 3.210134 0.996700
-10.122111 3.211694 1.248636
-10.098148 3.207658 1.496720
-10.089343 3.208601 1.747945
-10.075140 3.205813 2.001451
-0.431014 0.028805 -0.272282
-0.420279 0.025416 -0.251797
-2.746037 0.796802 -1.539621
-2.868994 0.838660 -1.519049
-3.009383 0.886418 -1.502313
-3.147207 0.932816 -1.477856
-3.266036 0.973576 -1.438962
-3.439825 1.032754 -1.416906
-3.630316 1.096928 -1.393831
-3.882448 1.182505 -1.383885
-4.098086 1.256067 -1.349037
-4.359792 1.344369 -1.318804
-4.620115 1.433208 -1.275930
-4.787059 1.489999 -1.196603
-5.113848 1.601446 -1.146698
-5.563744 1.754474 -1.105743
-6.087250 1.901899 -1.053186
-6.657426 2.091967 -0.985024
-7.466697 2.362951 -0.917479
-8.529116 2.718621 -0.836773
-8.470860 2.700863 -0.622544
-8.936231 2.858909 -0.437284
-10.188755 3.279469 -0.246709
-10.181315 3.278908 0.002618
-10.173472 3.280169 0.251620
-10.148716 3.275780 0.501604
-10.138094 3.274145 0.750108
-10.121399 3.272429 0.998392
-10.123489 3.276986 1.251212
-10.101988 3.271684 1.500084
-10.094944 3.273178 1.752182
-10.080058 3.272036 2.006287
-0.426924 0.030294 -0.270241
-0.432670 0.032396 -0.259625
-2.732373 0.809874 -1.534927
-2.863464 0.855280 -1.519044
-3.010433 0.906168 -1.505726
-3.149798 0.953979 -1.481913
-3.264978 0.994265 -1.441265
-3.447275 1.057444 -1.422713
-3.637531 1.122771 -1.399289
-3.871322 1.203726 -1.382601
-4.072050 1.273593 -1.343085
-4.364054 1.373903 -1.322650
-4.611117 1.459891 -1.275925
-4.805389 1.527103 -1.203496
-5.116841 1.635408 -1.149595
-5.556619 1.787879 -1.106475
-6.071815 1.935787 -1.052532
-6.652120 2.132919 -0.986126
-7.457948 2.407928 -0.918164
-8.459844 2.749931 -0.831593
-8.443188 2.745888 -0.621704
-8.903821 2.905306 -0.436539
-10.193654 3.346562 -0.247289
-10.180551 3.344042 0.002639
-10.174575 3.345901 0.252152
-10.153610 3.342662 0.502838
-10.144856 3.341602 0.752086
-10.124335 3.338491 1.000643
-10.126369 3.343069 1.254023
-10.114167 3.340805 1.504842
-10.097678 3.339046 1.756096
-10.082691 3.337785 2.010753
-0.422829 0.031740 -0.268199
-2.640039 0.795249 -1.570143
-2.730353 0.826857 -1.536798
-2.852764 0.870110 -1.516351
-3.002800 0.923005 -1.504867
-3.140128 0.971006 -1.480284
-3.253308 1.011345 -1.438951
-3.424629 1.071905 -1.416170
-3.610802 1.137033 -1.391772
-3.861879 1.225489 -1.381957
-4.071210 1.299634 -1.345459
-4.357235 1.399751 -1.323195
-4.600160 1.485901 -1.275414
-4.828935 1.566362 -1.211773
-5.106675 1.664951 -1.149590
-5.554848 1.823190 -1.108315
-6.063630 1.972103 -1.053173
-6.642803 2.172585 -0.986675
-7.445199 2.451614 -0.918386
-8.456409 2.803278 -0.832877
-8.422802 2.793279 -0.621419
-8.880616 2.954690 -0.436255
-10.200006 3.414482 -0.247915
-10.181232 3.409909 0.002658
-10.163933 3.407838 0.252399
-10.156199 3.409069 0.503980
-10.147389 3.407930 0.753781
-10.126845 3.404698 1.002894
-10.128798 3.409278 1.256832
-10.114667 3.406275 1.507925
-10.098114 3.404402 1.759683
-10.086767 3.404335 2.015590
-0.426859 0.035994 -0.271253
-2.638056 0.811701 -1.572096
-2.733227 0.845599 -1.541483
-2.838639 0.883687 -1.511862
-2.989969 0.938000 -1.501443
-3.135363 0.990333 -1.481091
-3.236332 1.026497 -1.434327
-3.431815 1.096682 -1.421976
-3.605092 1.159173 -1.392449
-3.850528 1.246551 -1.380674
-4.063015 1.323180 -1.345452
-4.337320 1.421853 -1.319887
-4.601810 1.516348 -1.278441
-4.840906 1.602907 -1.217287
-5.097886 1.695995 -1.149998
-5.537710 1.854259 -1.107201
-6.055253 2.008418 -1.053812
-6.623511 2.210107 -0.985836
-7.435917 2.496526 -0.919072
-8.469522 2.862605 -0.835825
-8.395982 2.840001 -0.620720
-8.870350 3.008561 -0.436614
-10.194614 3.478605 -0.248268
-10.190340 3.481037 0.002686
-10.171770 3.476417 0.253121
-10.156455 3.474937 0.505025
-10.145113 3.474849 0.755196
-10.132062 3.474151 1.005519
-10.128926 3.474969 1.259408
-10.114137 3.473640 1.511008
-10.095655 3.470989 1.762945
-10.086705 3.469733 2.019684
-0.430829 0.040373 -0.274307
-2.630880 0.826863 -1.571112
-2.712538 0.856567 -1.533035
-2.841091 0.903633 -1.516340
-2.983860 0.955304 -1.501438
-3.137551 1.011561 -1.485149
-3.241681 1.050158 -1.439711
-3.419532 1.114649 -1.419791
-3.588862 1.176845 -1.389029
-3.844432 1.269471 -1.381307
-4.061849 1.349241 -1.347827
-4.344686 1.452785 -1.324833
-4.597822 1.544916 -1.279951
-4.860237 1.641450 -1.224642
-5.085850 1.723874 -1.149578
-5.537719 1.889272 -1.109410
-6.040688 2.043749 -1.053483
-6.621215 2.252328 -0.987492
-7.424033 2.542049 -0.919527
-8.485456 2.925002 -0.839141
-8.418272 2.902548 -0.623619
-8.862938 3.065297 -0.437159
-10.201988 3.547505 -0.248939
-10.195803 3.549235 0.002709
-10.174751 3.545629 0.253748
-10.163803 3.543626 0.506447
-10.150553 3.542798 0.757173
-10.139965 3.540924 1.008330
-10.130512 3.541456 1.262217
-10.102636 3.535325 1.512415
-10.101474 3.536837 1.767509
-10.089925 3.536579 2.024520
-0.436436 0.045239 -0.278381
-2.619042 0.839272 -1.567192
-2.718681 0.876027 -1.539598
-2.832009 0.918370 -1.514542
-2.981050 0.973817 -1.503144
-3.132741 1.030353 -1.485957
-3.240320 1.070244 -1.442016
-3.412400 1.134432 -1.419786
-3.597262 1.203421 -1.395171
-3.815049 1.283874 -1.373631
-4.042612 1.368783 -1.344253
-4.337390 1.478548 -1.325379
-4.589998 1.572133 -1.280452
-4.859187 1.672881 -1.226936
-5.078544 1.755494 -1.150401
-5.525734 1.922204 -1.109405
-6.034112 2.079588 -1.054446
-6.603759 2.289178 -0.986931
-7.407218 2.582902 -0.919289
-8.406610 2.949955 -0.833039
-8.509479 2.990752 -0.631640
-8.865705 3.122404 -0.438163
-10.195756 3.611805 -0.249293
-10.197087 3.616263 0.002732
-10.176681 3.610754 0.254326
-10.159471 3.608418 0.507305
-10.155561 3.610946 0.759151
-10.144287 3.610770 1.010957
-10.137254 3.610130 1.265726
-10.122336 3.608602 1.518570
-10.103699 3.605689 1.771746
-10.092706 3.603585 2.029357
-0.430659 0.046156 -0.275319
-2.616627 0.856122 -1.569144
-2.709462 0.891030 -1.537717
-2.832544 0.937752 -1.518123
-2.967772 0.989082 -1.499720
-3.124395 1.047851 -1.485139
-3.240162 1.092134 -1.445091
-3.417154 1.159312 -1.424867
-3.568492 1.216358 -1.386969
-3.824440 1.313213 -1.380019
-4.042686 1.396189 -1.347221
-4.331761 1.504963 -1.326473
-4.563604 1.593347 -1.275898
-4.857915 1.704345 -1.229232
-5.071350 1.786186 -1.151225
-5.508404 1.952037 -1.108291
-6.022858 2.116162 -1.054762
-6.600976 2.331424 -0.988587
-7.394834 2.628317 -0.919742
-8.423751 3.013061 -0.836541
-8.487728 3.038441 -0.631355
-8.861331 3.180636 -0.438892
-10.201580 3.682816 -0.249964
-10.199816 3.684125 0.002755
-10.180626 3.680961 0.254999
-10.170880 3.681310 0.509009
-10.158238 3.678559 0.760987
-10.146906 3.678303 1.013393
-10.131733 3.676606 1.267836
-10.121137 3.674597 1.521653
-10.109824 3.674324 1.776634
-10.092537 3.671797 2.033821
-0.444219 0.054196 -0.284490
-2.593051 0.864514 -1.558374
-2.700329 0.905479 -1.535837
-2.811383 0.948466 -1.510052
-2.968134 1.008815 -1.503134
-3.115943 1.065284 -1.484323
-3.229733 1.109587 -1.443545
-3.404546 1.177099 -1.422683
-3.551975 1.233653 -1.383550
-3.789590 1.325238 -1.370425
-4.042871 1.422962 -1.350188
-4.333149 1.534089 -1.329770
-4.569993 1.625922 -1.280440
-4.856477 1.735873 -1.231526
-5.060333 1.815475 -1.151219
-5.500106 1.985251 -1.109022
-6.028394 2.157883 -1.057987
-6.584916 2.368800 -0.988304
-7.390065 2.675174 -0.921121
-8.463376 3.083459 -0.842258
-8.503031 3.100082 -0.633840
-8.868374 3.241627 -0.440174
-10.211327 3.753651 -0.250728
-10.202083 3.752128 0.002777
-10.175437 3.746037 0.255435
-10.169403 3.747745 0.510054
-10.162331 3.747029 0.762963
-10.152810 3.747410 1.016204
-10.143146 3.747733 1.272045
-10.115792 3.739282 1.524175
-10.109974 3.741049 1.780547
-10.094455 3.739107 2.038658
-0.446468 0.058097 -0.286525
0.000250 -0.113093 -0.003175
-2.701014 0.923651 -1.539584
-2.820255 0.970527 -1.518114
-2.954880 1.023408 -1.499711
-3.110619 1.084530 -1.485129
-3.227793 1.130260 -1.445851
-3.393596 1.195466 -1.421224
-3.540430 1.253474 -1.382178
-3.758272 1.338284 -1.362110
-4.007232 1.435998 -1.341264
-4.323298 1.559880 -1.329765
-4.570719 1.656504 -1.283468
-4.830901 1.759141 -1.227840
-5.054286 1.847710 -1.152457
-5.489395 2.018676 -1.109385
-6.017056 2.193379 -1.058304
-6.577472 2.410782 -0.989407
-7.370185 2.716384 -0.920652
-8.468979 3.141542 -0.844653
-8.550842 3.176372 -0.638816
-8.867540 3.299931 -0.441088
-10.215013 3.822580 -0.251354
-10.203214 3.822063 0.002799
-10.182876 3.816202 0.256203
-10.169366 3.815011 0.511193
-10.159717 3.815301 0.764518
-10.148297 3.814900 1.018082
-10.142950 3.814801 1.274852
-10.114913 3.807952 1.527536
-10.108989 3.809654 1.784458
-10.097744 3.807260 2.043865
-0.448638 0.062096 -0.288561
-2.578188 0.893710 -1.556409
-2.688245 0.937205 -1.535827
-2.818758 0.989292 -1.520800
-2.958402 1.044477 -1.504834
-3.108784 1.104538 -1.487562
-3.220378 1.149513 -1.445845
-3.389472 1.216457 -1.422673
-3.546496 1.279441 -1.387638
-3.760431 1.364165 -1.365941
-3.994704 1.457769 -1.340069
-4.317180 1.586273 -1.330860
-4.573072 1.687882 -1.287000
-4.812785 1.784180 -1.225996
-5.043262 1.876022 -1.152452
-5.484697 2.052282 -1.110859
-6.010623 2.232027 -1.059591
-6.570226 2.451627 -0.990509
-7.362513 2.763788 -0.921800
-8.425416 3.182428 -0.842244
-8.568930 3.240234 -0.641576
-8.865745 3.359897 -0.442000
-10.240587 3.900438 -0.252524
-10.215758 3.894757 0.002827
-10.183579 3.886178 0.256829
-10.180031 3.886775 0.512897
-10.157339 3.881892 0.766072
-10.144731 3.878923 1.019957
-10.146047 3.883475 1.278128
-10.119788 3.877150 1.531735
-10.110792 3.875587 1.788695
-10.098743 3.874846 2.048700
-0.473246 0.074856 -0.304866
-2.603320 0.920418 -1.575001
-2.693834 0.956874 -1.542389
-2.820872 1.008433 -1.525278
-2.956725 1.063606 -1.507394
-3.103415 1.123199 -1.488370
-3.218412 1.169626 -1.448152
-3.381747 1.236054 -1.422669
-3.540161 1.300645 -1.388317
-3.769455 1.392932 -1.372329
-3.983807 1.480144 -1.339470
-4.316245 1.614788 -1.333606
-4.582367 1.722198 -1.292557
-4.828900 1.822855 -1.232890
-5.036823 1.908211 -1.153690
-5.479050 2.087831 -1.112330
-5.984575 2.260561 -1.057324
-6.564541 2.493182 -0.991890
-7.357418 2.809381 -0.923179
-8.455007 3.248679 -0.847039
-8.686657 3.344234 -0.651813
-8.874038 3.420546 -0.443376
-11.307591 4.394012 -0.279124
-10.244516 3.974391 0.002865
-10.188948 3.954232 0.257549
-10.175392 3.952882 0.513848
-10.171208 3.955265 0.768892
-10.146740 3.949528 1.022581
-10.154198 3.954513 1.282103
-10.116864 3.943602 1.534817
-10.112568 3.945914 1.793257
-10.101151 3.943327 2.053908
-0.524808 0.099028 -0.338496
-2.595539 0.935311 -1.574017
-2.687422 0.972934 -1.542386
-2.820802 1.027940 -1.528859
-2.949694 1.081238 -1.507389
-3.094320 1.141004 -1.487555
-3.214163 1.190192 -1.449687
-3.363336 1.252011 -1.418305
-3.535213 1.323164 -1.389677
-3.774504 1.421091 -1.377437
-3.968985 1.501707 -1.337681
-4.304129 1.639747 -1.333052
-4.571417 1.749479 -1.292550
-4.824523 1.854511 -1.234726
-5.030164 1.940383 -1.154930
-5.469555 2.121918 -1.113061
-5.983206 2.301319 -1.059580
-6.548959 2.532198 -0.991884
-7.339952 2.853101 -0.923172
-8.420122 3.292914 -0.845556
-8.569808 3.356886 -0.644609
-8.876990 3.483008 -0.444566
-11.269528 4.456637 -0.278844
0.000241 -0.112760 -0.003165
-10.231325 4.041817 0.259268
-10.182546 4.026092 0.515458
-10.170921 4.025448 0.770728
-10.153805 4.022557 1.025766
-10.150120 4.023065 1.284678
-10.123774 4.016387 1.539574
-10.113890 4.016421 1.797819
-10.102365 4.013715 2.059114
-0.544262 0.110635 -0.351744
-2.591075 0.951017 -1.574992
-2.682764 0.989177 -1.543320
-2.809232 1.042245 -1.526165
-2.944659 1.098495 -1.508240
-3.099122 1.163265 -1.493236
-3.191260 1.202475 -1.442753
-3.364277 1.274435 -1.421933
-3.525403 1.342281 -1.388990
-3.767626 1.442980 -1.378073
-3.977555 1.531255 -1.343623
-4.249860 1.645497 -1.319291
-4.539491 1.766215 -1.286480
-4.836854 1.891235 -1.240701
-5.055140 1.982665 -1.163220
-5.457382 2.151586 -1.113057
-5.965558 2.334358 -1.058928
-6.537758 2.570353 -0.992433
-7.330078 2.898439 -0.924092
-8.439059 3.357381 -0.849427
-8.480192 3.375973 -0.639342
-8.880148 3.544077 -0.445756
-11.229050 4.513533 -0.278474
0.000248 -0.112653 -0.003163
0.000248 -0.112653 -0.003163
0.000248 -0.112653 -0.003163
-10.175304 4.093735 0.772843
-10.153363 4.086682 1.028015
-10.156233 4.091969 1.288419
-10.131654 4.085871 1.544330
-10.124200 4.084797 1.803681
-10.104563 4.080734 2.064319
-0.552551 0.117766 -0.357855
-2.589924 0.967590 -1.577924
-2.681478 1.006305 -1.546129
-2.804393 1.058714 -1.527057
-2.937629 1.115535 -1.508236
-3.091707 1.181187 -1.493233
-3.178757 1.218242 -1.440440
-3.335619 1.285258 -1.413211
-3.527354 1.367019 -1.393085
-3.742899 1.458174 -1.372314
-3.962739 1.552021 -1.341835
-4.255632 1.676770 -1.324238
-4.567830 1.808938 -1.297596
-4.828822 1.920677 -1.241616
-5.082273 2.029444 -1.172341
-5.449273 2.186322 -1.114160
-5.964561 2.373067 -1.061185
-6.529516 2.611126 -0.993536
-7.316814 2.940973 -0.924548
-8.448945 3.416848 -0.852377
-8.447083 3.419487 -0.638366
-8.881724 3.602995 -0.446854
-11.196676 4.575921 -0.278332
0.000230 -0.112528 -0.003158
0.000230 -0.112528 -0.003158
-23.409027 9.713198 1.194724
-10.215278 4.179431 0.777771
-10.163151 4.161654 1.031573
-10.153804 4.159743 1.291226
-10.140170 4.158123 1.549368
-10.126400 4.156432 1.808568
-10.111027 4.151967 2.070640
-0.552768 0.121828 -0.358871
-2.586682 0.984404 -1.579878
-2.674777 1.022287 -1.546126
-2.797384 1.075430 -1.527054
-2.923636 1.130226 -1.504813
-3.070755 1.193358 -1.486729
-3.175913 1.239368 -1.442744
-3.330684 1.306585 -1.414660
-3.508399 1.382998 -1.388982
-3.717818 1.473769 -1.366558
-3.952791 1.575617 -1.341830
-4.255859 1.705887 -1.327535
-4.572367 1.842971 -1.302140
-4.800921 1.941667 -1.237472
-5.100443 2.071894 -1.179385
-5.435954 2.217788 -1.114155
-5.958797 2.412377 -1.062795
-6.510065 2.647247 -0.992977
-7.298569 2.984447 -0.924542
-8.515840 3.504400 -0.861235
-8.452295 3.479107 -0.640299
-8.879739 3.664345 -0.447860
-11.172328 4.643950 -0.278416
0.000237 -0.112421 -0.003156
0.000237 -0.112421 -0.003156
-24.853352 10.493458 1.271843
-26.661633 11.270464 2.040011
0.000237 -0.112421 -0.003156
-10.168459 4.237235 1.296368
-10.137252 4.225924 1.552728
-10.132485 4.228017 1.814106
-10.123463 4.228273 2.078446
-0.551391 0.125101 -0.358869
-2.577117 0.998012 -1.577917
-2.676318 1.041286 -1.550811
-2.788859 1.090927 -1.526154
-2.924734 1.150733 -1.509082
-3.059841 1.209690 -1.485099
-3.185007 1.265061 -1.450440
-3.329306 1.328820 -1.417562
-3.504899 1.405523 -1.391028
-3.708630 1.495268 -1.366553
-3.948267 1.600747 -1.343610
-4.224163 1.721296 -1.320928
-4.569912 1.873242 -1.304662
-4.817582 1.981815 -1.244827
-5.132613 2.120843 -1.189751
-5.427856 2.251522 -1.115257
-5.945968 2.447542 -1.063113
-6.495889 2.685593 -0.993248
-7.282441 3.027332 -0.924767
-8.639312 3.615828 -0.875821
-8.466281 3.542871 -0.642923
-8.883506 3.726623 -0.449144
-11.141076 4.706746 -0.278318
0.000241 -0.112318 -0.003153
0.000241 -0.112318 -0.003153
-24.883488 10.676268 1.276567
-26.659693 11.451749 2.044945
-26.639606 11.453939 2.722449
0.000241 -0.112318 -0.003153
-10.152040 4.301723 1.558881
-10.132640 4.297439 1.818666
-10.110907 4.292120 2.081052
-0.550033 0.128398 -0.358864
-2.573895 1.014356 -1.579869
-2.663159 1.053953 -1.547055
-2.801551 1.115699 -1.536906
-2.920732 1.169127 -1.510787
-3.065565 1.233276 -1.491595
-3.180411 1.284980 -1.451975
-3.320951 1.348080 -1.417558
-3.501268 1.428065 -1.393072
-3.711448 1.522050 -1.371023
-3.934843 1.622025 -1.342416
-4.208246 1.743370 -1.319273
-4.565483 1.902761 -1.306679
-4.826813 2.019070 -1.250343
-5.121465 2.151274 -1.190160
-5.412358 2.282063 -1.114883
-5.927511 2.480274 -1.062462
-6.496003 2.730217 -0.995738
-7.273349 3.073329 -0.925915
-8.679723 3.692830 -0.882093
-8.437782 3.588477 -0.642363
-8.890515 3.790682 -0.450611
-11.109477 4.769340 -0.278221
0.000224 -0.112192 -0.003149
0.000224 -0.112192 -0.003149
-24.912355 10.859796 1.281292
-26.660196 11.634996 2.050159
-26.647247 11.640250 2.730122
-26.622873 11.640461 3.416286
0.000224 -0.112192 -0.003149
-10.137757 4.369412 1.824203
-10.123104 4.367101 2.088857
-0.542346 0.128878 -0.354784
-2.562576 1.027136 -1.576930
-2.654786 1.068661 -1.546114
-2.787896 1.129009 -1.533316
-2.913303 1.186031 -1.510784
-3.059439 1.251762 -1.492404
-3.163890 1.299626 -1.448121
-3.327806 1.374133 -1.424091
-3.511219 1.456749 -1.400581
-3.715813 1.549694 -1.376133
-3.916082 1.640870 -1.339438
-4.201005 1.769261 -1.320369
-4.553809 1.929135 -1.306675
-4.823328 2.050921 -1.252639
-5.115489 2.184050 -1.191814
-5.403854 2.315719 -1.115987
-5.925100 2.520083 -1.064720
-6.488572 2.771715 -0.997120
-7.256698 3.116087 -0.926140
-8.692229 3.758255 -0.885597
-8.454591 3.654167 -0.645265
-8.893443 3.853333 -0.451894
-11.061096 4.824393 -0.277716
-15.352922 6.742895 0.006089
-15.313387 6.731581 0.395500
-15.280083 6.723014 0.786696
-15.261716 6.717916 1.175299
-15.228456 6.709328 1.562892
-15.206668 6.705871 1.955023
-15.145481 6.681532 2.339076
0.000228 -0.112088 -0.003146
-10.127605 4.439142 2.095176
-0.548788 0.135641 -0.359878
-2.552807 1.040558 -1.574968
-2.662433 1.090583 -1.554552
-2.770926 1.140730 -1.527935
-2.902482 1.201401 -1.509071
-3.044642 1.266993 -1.489149
-3.152350 1.316416 -1.446577
-3.332754 1.399526 -1.429900
-3.524100 1.487767 -1.409456
-3.706174 1.571172 -1.376129
-3.919820 1.669819 -1.344192
-4.186261 1.792665 -1.319265
-4.519066 1.945001 -1.300101
-4.803320 2.076382 -1.250795
-5.064400 2.197434 -1.183100
-5.389349 2.347848 -1.115982
-5.906259 2.552662 -1.064068
-6.471357 2.810283 -0.997114
-7.243418 3.160390 -0.926828
-8.765953 3.851842 -0.895381
-8.459364 3.716723 -0.647336
-8.895937 3.916137 -0.453178
-11.023386 4.884012 -0.277482
-15.208172 6.786913 0.006035
-15.162629 6.769363 0.392607
-15.154979 6.772199 0.782273
-15.117382 6.761401 1.167291
-15.064466 6.743612 1.550192
-15.062294 6.745723 1.941493
-15.003966 6.725407 2.323434
-14.995112 6.727614 2.713982
0.000234 -0.111982 -0.003144
-0.544190 0.137576 -0.357836
-2.541162 1.053604 -1.572028
-2.661690 1.109428 -1.558298
-2.774812 1.162478 -1.534206
-2.889714 1.216445 -1.506503
-3.026677 1.280020 -1.484272
-3.163941 1.344464 -1.455811
-3.338983 1.426421 -1.436433
-3.494366 1.498719 -1.401255
-3.696136 1.593254 -1.376124
-3.912665 1.694772 -1.345376
-4.168253 1.813636 -1.317059
-4.505044 1.971095 -1.299590
-4.811849 2.113933 -1.256311
-5.091849 2.245578 -1.192635
-5.382224 2.382259 -1.117455
-5.897500 2.591048 -1.065357
-6.465204 2.852556 -0.998774
-7.225665 3.204248 -0.927055
0.000238 -0.111878 -0.003141
-8.518751 3.802983 -0.653559
-8.895473 3.979819 -0.454369
-10.982656 4.944440 -0.277204
-15.041024 6.815941 0.005965
-14.996263 6.801593 0.389337
-14.990495 6.805195 0.775870
0.000238 -0.111878 -0.003141
-14.932546 6.787794 1.540669
0.000238 -0.111878 -0.003141
-14.910415 6.786888 2.315058
-14.885631 6.781651 2.701301
-14.889566 6.789707 3.098301
-0.545858 0.142261 -0.359871
-2.539145 1.070534 -1.574961
-2.651414 1.123353 -1.556419
-2.775546 1.182332 -1.538683
-2.883665 1.233948 -1.507353
-3.020274 1.298313 -1.485080
-3.138778 1.354952 -1.448110
-3.326676 1.444140 -1.434977
-3.478204 1.515727 -1.398520
-3.687979 1.615430 -1.376759
-3.883154 1.708455 -1.338832
-4.169272 1.843429 -1.320907
-4.496476 1.998758 -1.300597
-4.783097 2.134275 -1.252166
-5.095900 2.283297 -1.196778
-5.371336 2.415004 -1.118189
-5.881841 2.625081 -1.065352
-6.444432 2.888179 -0.998215
-7.228076 3.255999 -0.929819
-8.511465 3.857517 -0.874130
-8.523204 3.864762 -0.655629
-8.824709 4.009132 -0.451969
-10.944275 5.003477 -0.276973
-15.044352 6.922896 0.005998
-15.019567 6.917624 0.391006
-17.788940 8.221189 0.923780
0.000221 -0.111753 -0.003137
0.000221 -0.111753 -0.003137
0.000221 -0.111753 -0.003137
0.000221 -0.111753 -0.003137
0.000221 -0.111753 -0.003137
0.000221 -0.111753 -0.003137
-0.538153 0.142567 -0.355792
-2.533892 1.086005 -1.575935
-2.652231 1.142479 -1.561106
-2.759973 1.194586 -1.534197
-2.885659 1.255275 -1.512478
-3.022010 1.320486 -1.489951
-3.146953 1.381019 -1.455805
-3.312622 1.460995 -1.432793
-3.472171 1.537451 -1.399883
-3.676258 1.635935 -1.376116
-3.881249 1.735013 -1.341801
-4.137111 1.857602 -1.314301
-4.489491 2.027225 -1.302109
-4.761305 2.157712 -1.249861
-5.067894 2.305976 -1.193456
-5.370888 2.452785 -1.121138
-5.873139 2.662409 -1.066639
-6.432435 2.927911 -0.999041
-7.210355 3.298535 -0.930045
-8.371464 3.851202 -0.862120
-8.547027 3.936085 -0.659224
-8.701530 4.012934 -0.446901
-10.905595 5.062252 -0.276741
0.000228 -0.111646 -0.003134
0.000228 -0.111646 -0.003134
-17.760500 8.333063 0.924824
-26.694223 12.586370 2.080299
-26.653372 12.578213 2.767361
-26.645987 12.585976 3.465115
-26.615799 12.577151 4.157395
-26.563419 12.563434 4.849128
-26.536266 12.561710 5.554291
-0.542905 0.148761 -0.359864
-2.536376 1.105201 -1.581805
-2.640188 1.155546 -1.558289
-2.745954 1.207469 -1.530608
-2.874502 1.270428 -1.510764
-3.007142 1.334820 -1.486697
-3.129997 1.395230 -1.451951
-3.305197 1.480970 -1.433516
-3.491416 1.571415 -1.411489
-3.666135 1.657187 -1.376113
-3.872269 1.758276 -1.342391
-4.123986 1.880681 -1.313745
-4.461423 2.045578 -1.297556
-4.769169 2.195366 -1.255379
-5.030990 2.324145 -1.188061
-5.352495 2.482074 -1.120396
-5.862390 2.698848 -1.067605
-6.421968 2.968444 -1.000146
-7.188810 3.339261 -0.929810
-8.337717 3.894278 -0.861009
-8.498404 3.973261 -0.657281
-8.618211 4.034509 -0.443858
-10.877439 5.125974 -0.276780
0.000232 -0.111542 -0.003131
0.000232 -0.111542 -0.003131
-17.932871 8.542128 0.936425
-17.876387 8.518631 1.395953
-26.673071 12.776688 2.777087
-26.660004 12.781721 3.476558
-26.636753 12.776080 4.172214
-26.571663 12.755904 4.864100
-26.554798 12.759051 5.573613
-0.552220 0.157254 -0.366997
-2.534041 1.122190 -1.584737
-2.631260 1.170068 -1.557347
-2.751173 1.229636 -1.537776
-2.871362 1.289438 -1.513325
-3.011880 1.358619 -1.493194
-3.127893 1.416575 -1.455028
-3.302653 1.503350 -1.436419
-3.490105 1.595732 -1.414901
-3.672894 1.686702 -1.382502
-3.859730 1.779820 -1.341793
-4.119337 1.907881 -1.315944
-4.450650 2.072188 -1.298058
-4.755799 2.222900 -1.255376
-5.016887 2.353199 -1.188056
-5.383326 2.535511 -1.129992
-5.851429 2.735259 -1.068571
-6.407673 3.007213 -1.000697
-7.167028 3.379843 -0.929575
-8.309145 3.939728 -0.860450
-8.641518 4.103605 -0.670149
-8.621123 4.097336 -0.445234
-10.839901 5.185132 -0.276594
-17.955372 8.665592 0.007875
-17.923927 8.657886 0.471146
-17.862978 8.635711 0.935393
-17.822800 8.619809 1.395677
-26.693150 12.976684 2.786999
-26.658413 12.971066 3.486135
-26.633188 12.964323 4.183399
-26.585651 12.952375 4.880374
-26.552515 12.947467 5.588846
-0.546052 0.158271 -0.363935
-2.525324 1.136097 -1.583756
-2.623850 1.185321 -1.557343
-2.745004 1.246358 -1.538669
-2.853521 1.301248 -1.508194
-3.001731 1.375243 -1.492378
-3.122349 1.436314 -1.456564
-3.286622 1.519140 -1.433510
-3.468430 1.610063 -1.410116
-3.643810 1.698665 -1.375467
-3.838517 1.797031 -1.338221
-4.121423 1.938543 -1.320341
-4.424158 2.091009 -1.294010
-4.730095 2.244301 -1.252150
-5.046372 2.403970 -1.198422
-5.422535 2.593795 -1.141433
-5.852643 2.777768 -1.071798
-6.398489 3.048563 -1.002079
-7.145006 3.420285 -0.929341
-8.294610 3.992054 -0.861368
-8.647494 4.168461 -0.672498
-8.623590 4.160333 -0.446611
-10.803844 5.244933 -0.276453
0.000221 -0.111310 -0.003125
-18.027159 8.837563 0.475240
-17.869562 8.767021 0.938416
-17.845448 8.758834 1.401447
-26.697544 13.170244 2.795415
-26.660854 13.163475 3.496411
-26.647831 13.162665 4.197657
-26.594728 13.147675 4.895997
-26.585886 13.154725 5.611879
-0.546027 0.162293 -0.364951
-2.521235 1.152306 -1.585708
-2.614750 1.199717 -1.556402
-2.753133 1.270282 -1.547629
-2.845343 1.317770 -1.508190
-2.987962 1.390678 -1.489937
-3.110095 1.452725 -1.455020
-3.293834 1.546534 -1.440770
-3.456473 1.629876 -1.409430
-3.640093 1.723139 -1.378021
-3.829166 1.820074 -1.338812
-4.102326 1.959612 -1.318136
-4.388936 2.105214 -1.287437
-4.735135 2.282085 -1.257208
-5.059310 2.448125 -1.205053
-5.413392 2.629578 -1.142907
-5.842977 2.815084 -1.073086
-6.393788 3.093685 -1.004294
-7.133445 3.465956 -0.930490
-8.263711 4.036292 -0.860626
-8.646916 4.232355 -0.674430
-8.629193 4.225293 -0.448172
-10.769231 5.305377 -0.276359
-17.987291 8.943539 0.007971
-17.948534 8.927871 0.474532
0.000227 -0.111203 -0.003122
-26.736061 13.376458 2.107467
-26.687571 13.363558 2.802711
-26.693874 13.372458 3.510888
-26.628679 13.351071 4.207165
-26.584253 13.340139 4.908692
-26.559875 13.333498 5.622656
-0.538240 0.162505 -0.360872
-2.523020 1.172092 -1.591578
-2.617952 1.220928 -1.562964
-2.736902 1.282629 -1.543145
-2.836814 1.334735 -1.508187
-2.967881 1.402166 -1.484246
-3.122126 1.482161 -1.465025
-3.282294 1.565321 -1.440039
-3.459789 1.656710 -1.414890
-3.615661 1.737921 -1.372903
-3.829530 1.848949 -1.342972
-4.083491 1.979808 -1.315932
-4.408429 2.148099 -1.297036
-4.712627 2.304997 -1.254903
-5.049694 2.479998 -1.206295
-5.395781 2.659934 -1.142533
-5.830793 2.852499 -1.074052
-6.377008 3.131481 -1.004566
-7.115620 3.510124 -0.930948
-8.242517 4.087184 -0.860990
-8.644860 4.293965 -0.676226
-8.628217 4.289237 -0.449457
-10.722668 5.362038 -0.275991
0.000231 -0.111100 -0.003119
-24.978773 12.654826 0.663632
0.000231 -0.111100 -0.003119
-26.720087 13.562152 2.112394
-26.721182 13.574361 2.814491
-26.691154 13.570616 3.521164
0.000231 -0.111100 -0.003119
0.000231 -0.111100 -0.003119
-15.758669 7.983893 3.344941
-0.533605 0.164142 -0.358830
-2.515600 1.186715 -1.591574
-2.603972 1.232860 -1.559208
-2.725665 1.296841 -1.541348
-2.841564 1.357316 -1.515020
-2.965612 1.422700 -1.487492
-3.098154 1.492593 -1.458093
-3.262936 1.578582 -1.435679
-3.439536 1.671522 -1.410789
-3.617050 1.764294 -1.377374
-3.821912 1.872170 -1.344159
-4.074796 2.005173 -1.317029
-4.375133 2.162082 -1.290968
-4.708982 2.337588 -1.257661
-5.010861 2.495640 -1.200484
-5.374981 2.687403 -1.141423
-5.820633 2.889750 -1.075342
-6.363512 3.170991 -1.005394
-7.108784 3.558457 -0.932791
-8.227044 4.139266 -0.861910
-8.649474 4.359364 -0.678576
-8.627599 4.351839 -0.450741
-10.695485 5.423791 -0.276077
-15.882085 8.114683 0.006740
-15.846345 8.103113 0.421125
-15.805207 8.085222 0.836999
-15.798505 8.088669 1.251428
-15.740510 8.061986 1.661437
-15.741134 8.069212 2.081347
-15.670068 8.039158 2.489192
-15.627130 8.020215 2.901096
-15.634770 8.031056 3.328233
-0.532065 0.167227 -0.358827
-2.500576 1.196805 -1.586678
-2.604251 1.251582 -1.563895
-2.724104 1.315473 -1.544930
-2.831443 1.372913 -1.514164
-2.953480 1.438158 -1.485865
-3.095688 1.513410 -1.461169
-3.263055 1.602655 -1.440034
-3.434211 1.694040 -1.412834
-3.609554 1.786974 -1.378649
-3.795235 1.886270 -1.338802
-4.033598 2.013470 -1.307673
-4.365394 2.189156 -1.291976
-4.698253 2.366597 -1.258577
-5.024707 2.540951 -1.207532
-5.375673 2.728544 -1.145111
-5.810779 2.925974 -1.076631
-6.340998 3.205861 -1.004836
-7.089928 3.599125 -0.933019
-8.206705 4.187102 -0.862276
-8.653619 4.424962 -0.680926
-8.632607 4.415828 -0.452304
-10.670508 5.489123 -0.276255
-15.752985 8.163345 0.006692
-15.711733 8.145112 0.418753
-15.685243 8.138107 0.833138
-15.660993 8.132266 1.244262
-15.638878 8.127525 1.655835
-15.619961 8.120970 2.071549
-15.573809 8.103525 2.481371
-15.442486 8.041080 2.875725
-15.525057 8.088065 3.314867
-0.533457 0.172113 -0.360861
-2.502018 1.216631 -1.592547
-2.602371 1.270437 -1.567643
-2.725065 1.336750 -1.550306
-2.824197 1.390651 -1.515014
-2.954215 1.460416 -1.490735
-3.089277 1.533606 -1.462704
-3.244619 1.617724 -1.436397
-3.422100 1.713012 -1.412148
-3.608265 1.813818 -1.382481
-3.801844 1.918752 -1.345341
-4.023006 2.037686 -1.308220
-4.360202 2.219687 -1.294500
-4.671892 2.387300 -1.255354
-5.011101 2.570895 -1.207942
-5.388680 2.775340 -1.151385
-5.792657 2.960512 -1.076628
-6.323524 3.243353 -1.005111
-7.064291 3.639388 -0.932553
-8.186337 4.238642 -0.862826
-8.648508 4.486086 -0.682582
-8.639097 4.484909 -0.454050
-10.637087 5.552456 -0.276252
-15.611524 8.204235 0.006639
-15.568939 8.188458 0.416238
-15.561988 8.191665 0.829183
-15.539334 8.182995 1.238360
-15.505100 8.171608 1.646681
-15.506024 8.178990 2.062918
-15.489569 8.173600 2.475507
-15.450948 8.159811 2.886139
-15.455329 8.169029 3.310415
-0.519690 0.168768 -0.352705
-2.503557 1.236087 -1.598416
-2.586585 1.281314 -1.562951
-2.713539 1.350835 -1.548510
-2.823473 1.411296 -1.519284
-2.949939 1.480110 -1.493170
-3.076486 1.549710 -1.461163
-3.201828 1.618783 -1.421865
-3.385097 1.718515 -1.401216
-3.592117 1.831969 -1.380561
-3.781706 1.936186 -1.342363
-4.027491 2.070097 -1.313717
-4.346729 2.244885 -1.294495
