# This PCD file was generated using the MATLAB® pcwrite function
# from Computer Vision Toolbox®.
# .PCD v.7 - Point Cloud Data file format
VERSION .7
FIELDS x y z
SIZE 4 4 4
TYPE F F F
COUNT 1 1 1
WIDTH 1647
HEIGHT 1
VIEWPOINT 0 0 0 1 0 0 0
POINTS 1647
DATA ascii
-7.588863 5.680688 -0.901033
-8.749146 6.567956 -0.781294
-8.731917 6.559468 -0.524094
-9.405461 7.076173 -0.287238
-15.494780 11.735528 -0.018408
-0.002106 -0.106217 -0.003412
-0.002106 -0.106217 -0.003412
-0.002106 -0.106217 -0.003412
-11.548341 8.737369 1.342191
-11.439953 8.660462 1.670629
-11.291495 8.552713 1.985019
-11.169026 8.461653 2.297941
-11.029967 8.360858 2.605074
-0.472030 0.255920 -0.355828
-0.487957 0.268447 -0.348727
-0.545836 0.313204 -0.369185
-2.484511 1.809569 -1.580732
-2.586546 1.889690 -1.552092
-2.707932 1.984117 -1.528850
-2.817702 2.070419 -1.493097
-2.945412 2.170718 -1.459759
-3.109181 2.298198 -1.436745
-3.313557 2.458125 -1.422173
-3.485899 2.593448 -1.382366
-3.757435 2.804827 -1.369795
-4.002123 2.996652 -1.332800
-4.238785 3.181324 -1.278352
-4.598234 3.462711 -1.244933
-4.987885 3.767957 -1.198022
-5.390686 4.044747 -1.126281
-6.013134 4.525774 -1.075848
-6.776945 5.117975 -1.008994
-7.567452 5.731599 -0.902307
-8.748054 6.644859 -0.784495
-8.730906 6.636319 -0.526230
-9.354458 7.123001 -0.286903
-12.447545 9.517100 -0.015452
-18.842588 14.472090 0.531427
-18.798931 14.448435 1.086994
-11.562816 8.848450 1.007895
-11.420084 8.744049 1.333218
-11.307637 8.662982 1.658684
-11.161585 8.552599 1.970678
-11.043083 8.466607 2.282181
-10.911163 8.370060 2.588532
-0.457736 0.249221 -0.346628
-0.483048 0.269212 -0.346759
-0.546211 0.318624 -0.371058
-2.472024 1.822853 -1.579818
-2.582112 1.910212 -1.556363
-2.704097 2.006994 -1.533724
-2.796417 2.079909 -1.488446
-2.943990 2.196939 -1.465573
-3.131824 2.345673 -1.453864
-3.304712 2.481961 -1.424719
-3.485299 2.625353 -1.388319
-3.752182 2.836667 -1.374196
-3.999407 3.031702 -1.337857
-4.223770 3.210114 -1.279718
-4.572364 3.486416 -1.243656
-4.932353 3.772063 -1.190188
-5.404031 4.104942 -1.134071
-5.968350 4.548072 -1.072738
-6.765534 5.171690 -1.011761
-7.541543 5.781317 -0.903205
-8.748719 6.728703 -0.788116
-8.740720 6.724736 -0.529121
-9.311082 7.175626 -0.286809
-12.401256 9.599536 -0.015399
-18.690603 14.527464 0.529587
-11.556178 8.947345 0.669914
-11.432524 8.856667 1.001191
-11.295276 8.755191 1.324799
-11.180377 8.667965 1.647433
-11.035244 8.560050 1.957448
-10.919089 8.474756 2.267070
-10.784875 8.372087 2.570145
-0.471816 0.264810 -0.358881
-0.480824 0.272180 -0.346752
-0.543667 0.321948 -0.371053
-2.456326 1.834269 -1.577106
-2.577186 1.931211 -1.560632
-2.698683 2.028790 -1.537781
-2.799293 2.109165 -1.496924
-2.920035 2.206367 -1.460454
-3.102510 2.352654 -1.446990
-3.284841 2.498098 -1.422775
-3.494438 2.666265 -1.398452
-3.722614 2.849424 -1.369753
-3.971637 3.048275 -1.334786
-4.251245 3.272777 -1.294033
-4.557092 3.518469 -1.245299
-4.936940 3.823418 -1.196852
-5.351048 4.115026 -1.128180
-5.942178 4.584738 -1.072986
-6.752808 5.226631 -1.014526
-7.520532 5.837184 -0.904851
-8.754948 6.817735 -0.792302
-8.742323 6.810053 -0.531632
-9.252024 7.218432 -0.286282
-0.002087 -0.105897 -0.003403
-11.570927 9.063991 0.328141
-11.423983 8.953780 0.665390
-11.302564 8.863672 0.994488
-11.164516 8.760223 1.315643
-11.056561 8.677401 1.636874
-10.916956 8.572466 1.945600
-10.801557 8.486641 2.253247
-10.674404 8.388291 2.555817
-0.458925 0.259041 -0.350703
-0.478616 0.275029 -0.346748
-0.534306 0.319669 -0.366345
-2.447885 1.850713 -1.578890
-2.562598 1.943876 -1.558902
-2.681003 2.039361 -1.534506
-2.789368 2.127665 -1.498452
-2.919744 2.233738 -1.466997
-3.091663 2.372405 -1.448343
-3.281598 2.526565 -1.427890
-3.473963 2.682883 -1.396639
-3.709053 2.872691 -1.370837
-3.950377 3.068772 -1.333748
-4.235332 3.299011 -1.294935
-4.550495 3.555014 -1.249030
-4.887346 3.828834 -1.190135
-5.342070 4.158197 -1.131408
-5.855542 4.569759 -1.062041
-6.731270 5.272972 -1.015892
-7.500185 5.891715 -0.906496
-8.758200 6.900285 -0.796065
-8.749115 6.897851 -0.534428
-9.200330 7.264210 -0.285946
-11.576980 9.171559 -0.014589
-11.436818 9.065539 0.325864
-11.303069 8.964517 0.661416
-11.176037 8.865535 0.987780
-11.032543 8.756433 1.305932
-10.933014 8.682519 1.626082
-10.800393 8.578771 1.933472
-10.687273 8.493713 2.239423
-10.559474 8.396709 2.540013
-0.459466 0.263921 -0.352742
-0.475060 0.276783 -0.345761
-0.526357 0.318400 -0.362578
-2.447686 1.873879 -1.586065
-2.557772 1.964401 -1.563171
-2.661519 2.049136 -1.530415
-2.785058 2.150775 -1.503068
-2.916350 2.258840 -1.472081
-3.094830 2.404476 -1.456551
-3.270801 2.549117 -1.429795
-3.469688 2.712578 -1.401397
-3.681382 2.885610 -1.366948
-3.926018 3.086691 -1.331694
-4.232241 3.336956 -1.300001
-4.523258 3.576317 -1.247336
-4.898114 3.884334 -1.198287
-5.334319 4.202654 -1.134961
-5.860853 4.629649 -1.067886
-6.701732 5.313013 -1.016089
-7.471687 5.939912 -0.907207
-8.765755 6.989624 -0.800392
-8.747433 6.979666 -0.536749
-9.167027 7.324725 -0.286187
-11.451905 9.180241 -0.014460
-11.309258 9.070861 0.323765
-11.171539 8.965326 0.656798
-0.002098 -0.105664 -0.003395
-10.919505 8.769677 1.298617
-10.815946 8.691530 1.616213
-10.681058 8.584666 1.921069
-10.568669 8.499116 2.224952
-10.443266 8.402831 2.523838
-0.461327 0.269934 -0.355800
-0.476890 0.282922 -0.348699
-0.517068 0.315930 -0.357871
-2.436238 1.888049 -1.586050
-2.555585 1.987215 -1.569155
-2.666013 2.078431 -1.540176
-2.774865 2.169220 -1.504596
-2.909866 2.281607 -1.475708
-3.081775 2.423559 -1.457218
-3.262758 2.574018 -1.432985
-3.457806 2.736247 -1.403169
-3.670029 2.911754 -1.369137
-3.940431 3.136409 -1.342846
-4.222875 3.370053 -1.303213
-4.498965 3.599936 -1.246475
-4.843224 3.886343 -1.190452
-5.289552 4.217176 -1.130698
-5.856470 4.682232 -1.072053
-6.662724 5.345339 -1.014886
-7.453688 5.996831 -0.909228
-8.763322 7.071706 -0.803871
-8.749756 7.065511 -0.539353
-9.091632 7.350883 -0.285132
-11.320913 9.182703 -0.014328
-11.178958 9.072507 0.321577
-11.052726 8.975071 0.652914
-10.933237 8.879850 0.975473
-10.800528 8.776848 1.290564
-10.697584 8.698205 1.606111
-10.563525 8.590720 1.908941
-10.458017 8.509740 2.212097
-0.002092 -0.105558 -0.003392
-0.452528 0.267201 -0.350687
-0.469274 0.281315 -0.344769
-0.513256 0.317865 -0.356926
-2.432982 1.909004 -1.591426
-2.542086 2.000847 -1.568283
-2.671257 2.109465 -1.550754
-2.770233 2.192344 -1.509212
-2.916137 2.315104 -1.485894
-3.060929 2.437106 -1.454457
-3.260376 2.603772 -1.438740
-3.448731 2.762338 -1.406133
-3.655028 2.936058 -1.370219
-3.927642 3.164112 -1.344855
-4.221606 3.411350 -1.309202
-4.494916 3.641704 -1.251457
-4.833016 3.926440 -1.193771
-5.267611 4.250190 -1.131320
-5.823395 4.713234 -1.071179
-6.611319 5.367251 -1.011816
-7.426092 6.046122 -0.910124
-8.763581 7.159347 -0.807771
-8.757505 7.156701 -0.542336
-9.039289 7.395556 -0.284797
-11.194824 9.191041 -0.014199
-11.055172 9.078070 0.319569
-10.923405 8.974800 0.648386
-10.813753 8.889786 0.969595
-10.680270 8.784802 1.282511
-10.585633 8.708907 1.596934
-10.452389 8.603889 1.898199
-0.002085 -0.105451 -0.003389
-0.002085 -0.105451 -0.003389
-0.447683 0.267779 -0.348638
-0.466990 0.284211 -0.344761
-0.512092 0.322141 -0.357860
-2.429188 1.930394 -1.596803
-2.536477 2.021823 -1.572550
-2.657055 2.123747 -1.549923
-2.757966 2.210042 -1.509966
-2.905993 2.336062 -1.488063
-3.059186 2.465691 -1.460607
-3.236997 2.617083 -1.435512
-3.455011 2.802528 -1.415667
-3.656537 2.973248 -1.377384
-3.909640 3.188711 -1.345340
-4.219110 3.450754 -1.314730
-4.500155 3.690333 -1.258942
-4.823244 3.965739 -1.197088
-5.265867 4.301739 -1.136502
-5.780359 4.734083 -1.068349
-6.598526 5.423086 -1.014813
-7.397073 6.096575 -0.911020
-8.768971 7.249554 -0.812095
-8.760158 7.247180 -0.545128
-8.985436 7.441454 -0.284460
-11.066056 9.192410 -0.014069
-10.928534 9.083108 0.317514
-10.802071 8.982961 0.644410
-10.691564 8.892922 0.963303
-10.566453 8.793673 1.275012
-10.470859 8.719165 1.587527
-0.002079 -0.105345 -0.003385
-0.002079 -0.105345 -0.003385
-10.281151 8.573908 2.521051
-0.445506 0.270440 -0.348633
-0.464726 0.286983 -0.344757
-0.510964 0.326322 -0.358794
-2.414694 1.942143 -1.594990
-2.522804 2.035331 -1.571677
-2.652528 2.146218 -1.554794
-2.761447 2.240329 -1.519216
-2.906082 2.364943 -1.495333
-3.051472 2.489455 -1.464016
-3.224141 2.638239 -1.436776
-3.429468 2.815044 -1.412065
-3.641683 2.996871 -1.378467
-3.895016 3.215044 -1.346841
-4.194116 3.471312 -1.313318
-4.482682 3.720105 -1.260168
-4.819127 4.010145 -1.201894
-5.229847 4.323166 -1.134193
-5.738782 4.755871 -1.065799
-6.560504 5.455960 -1.013844
-7.368814 6.145621 -0.911916
-8.769049 7.336192 -0.815996
-8.760292 7.333826 -0.547731
-8.940290 7.491883 -0.284365
-10.940716 9.195209 -0.013940
-10.813005 9.092888 0.315730
-10.682616 8.988144 0.640433
-10.574224 8.898806 0.957423
-10.463474 8.810549 1.268800
-0.002075 -0.105241 -0.003382
-10.327259 8.703325 1.893880
-10.295520 8.682225 2.210002
-10.287766 8.681576 2.535122
-0.447275 0.276471 -0.351691
-0.459824 0.287491 -0.342788
-0.501781 0.323620 -0.354086
-2.413722 1.965448 -1.602163
-2.517272 2.055814 -1.575947
-2.632597 2.155622 -1.550703
-2.750685 2.258704 -1.520743
-2.897432 2.386589 -1.498231
-3.043597 2.513226 -1.467424
-3.198241 2.648214 -1.432265
-3.424153 2.844822 -1.416821
-3.619387 3.014132 -1.376787
-3.899252 3.257745 -1.354945
-4.198485 3.517127 -1.321156
-4.433927 3.722950 -1.252632
-4.799810 4.041797 -1.202981
-5.213245 4.361028 -1.136117
-5.719714 4.796687 -1.067445
-6.520835 5.487298 -1.012640
-7.344779 6.198445 -0.913373
-8.772945 7.426960 -0.820320
-8.765773 7.425918 -0.550712
-8.911530 7.556380 -0.284796
-10.818732 9.199477 -0.013816
-10.690138 9.095114 0.313720
-10.563443 8.992232 0.636454
-10.470794 8.915372 0.952785
-0.002068 -0.105134 -0.003379
-10.354971 8.827696 1.585561
-10.324330 8.804164 1.902796
-10.302999 8.791790 2.222647
-10.283101 8.780630 2.546613
-0.447665 0.281393 -0.353728
-0.456234 0.289091 -0.341801
-0.503286 0.330062 -0.356902
-2.412532 1.988785 -1.609338
-2.511609 2.076315 -1.580215
-2.623656 2.174436 -1.553131
-2.743991 2.280672 -1.524586
-2.885850 2.405800 -1.499670
-3.017116 2.520935 -1.461923
-3.203760 2.685376 -1.441869
-3.399925 2.858342 -1.413814
-3.636113 3.065351 -1.390030
-3.888575 3.287896 -1.357968
-4.162899 3.528561 -1.316506
-4.419177 3.754972 -1.254691
-4.777306 4.070760 -1.203326
-5.212780 4.413059 -1.141624
-5.676421 4.816677 -1.064615
-6.517014 5.549605 -1.017038
-0.002086 -0.105009 -0.003374
-8.783636 7.524577 -0.825346
-8.772001 7.519638 -0.553787
-8.885356 7.623431 -0.285322
-10.694042 9.200020 -0.013690
-10.570600 9.098837 0.311798
-0.002086 -0.105009 -0.003374
-0.002086 -0.105009 -0.003374
-10.357056 8.928044 1.268543
-10.349751 8.927794 1.592774
-10.337001 8.919597 1.914759
-10.306564 8.899118 2.234646
-10.292405 8.892833 2.561792
-0.438962 0.278391 -0.348615
-0.460497 0.297556 -0.346701
-0.498115 0.330722 -0.355016
-0.548309 0.375122 -0.369137
-2.485431 2.078917 -1.571629
-2.611869 2.190837 -1.553928
-2.735724 2.301405 -1.527659
-2.874129 2.424940 -1.501110
-3.008987 2.544583 -1.465331
-3.194731 2.710146 -1.445057
-3.381351 2.876705 -1.413197
-3.640847 3.106697 -1.398851
-3.863166 3.305221 -1.355913
-4.131688 3.543557 -1.313244
-4.410044 3.792115 -1.258421
-4.751707 4.097014 -1.202926
-5.182230 4.439218 -1.140616
-5.670306 4.868987 -1.068780
-6.488799 5.591071 -1.017703
-7.285131 6.294663 -0.914978
-8.783014 7.613349 -0.829385
-8.783451 7.618963 -0.557238
-8.854201 7.686469 -0.285704
-10.580224 9.208694 -0.013574
-0.002079 -0.104902 -0.003371
-10.412989 9.073874 0.633817
-10.378166 9.046145 0.954004
-10.355625 9.032450 1.274868
-10.352637 9.035996 1.601372
-10.333829 9.022346 1.923953
-10.303332 9.001562 2.245356
-10.297836 9.002857 2.576236
-0.439300 0.283281 -0.350654
-0.451650 0.294508 -0.341791
-0.495614 0.333695 -0.355008
-0.549548 0.381939 -0.371826
-2.476871 2.096915 -1.574183
-2.609102 2.216111 -1.560430
-2.720450 2.316012 -1.526868
-2.862288 2.444034 -1.502549
-2.998818 2.567499 -1.468053
-3.179883 2.729870 -1.445678
-3.394050 2.922946 -1.425714
-3.577278 3.088656 -1.381696
-3.862197 3.344264 -1.362493
-4.117218 3.574603 -1.315531
-4.399964 3.830063 -1.262149
-4.744258 4.140972 -1.207357
-5.111688 4.429799 -1.130816
-5.584424 4.852682 -1.058115
-6.381643 5.562505 -1.005996
-7.255602 6.343247 -0.915872
-8.781759 7.705206 -0.833565
-0.002073 -0.104795 -0.003368
-8.801710 7.730792 -0.285415
-0.002073 -0.104795 -0.003368
-10.432530 9.192250 0.310969
-10.397228 9.167046 0.636169
-10.390660 9.167453 0.960276
-10.365088 9.150880 1.282853
-10.359079 9.148512 1.610665
-10.335594 9.133766 1.934535
-10.307946 9.115273 2.258327
-10.299395 9.110603 2.589941
-0.438277 0.287138 -0.351669
-0.450562 0.298444 -0.342766
-0.495623 0.339085 -0.356883
-0.558588 0.396038 -0.379909
-2.469131 2.116516 -1.577595
-2.601124 2.236099 -1.563672
-2.708760 2.334676 -1.528396
-2.866476 2.478545 -1.512734
-2.975004 2.577281 -1.463922
-3.167202 2.752589 -1.447584
-3.342004 2.912415 -1.411363
-3.573094 3.122203 -1.387200
-3.858873 3.382794 -1.368564
-4.107512 3.608814 -1.319205
-4.383016 3.860688 -1.263792
-4.722636 4.170972 -1.208073
-5.140476 4.510264 -1.143160
-5.579335 4.906037 -1.062559
-6.440957 5.684042 -1.020661
-7.227560 6.395605 -0.917141
-8.776658 7.791784 -0.837321
-5.291451 4.658577 -0.340417
-8.786252 7.811096 -0.286369
-10.454243 9.317247 -0.013440
-10.418751 9.291594 0.312288
-10.396876 9.278193 0.639621
-10.385934 9.271355 0.964890
-10.372197 9.265268 1.290470
-10.364406 9.264545 1.620190
-10.340971 9.246380 1.945670
-10.314674 9.228889 2.271621
-10.305709 9.227057 2.605493
-0.432191 0.286285 -0.348599
-0.443067 0.296437 -0.338837
-0.496964 0.345588 -0.359698
-0.555701 0.399353 -0.379902
-2.456276 2.130792 -1.577579
-2.584893 2.248683 -1.562025
-2.691944 2.347862 -1.526833
-2.855685 2.498891 -1.514901
-2.959524 2.594491 -1.463901
-3.163296 2.782400 -1.453337
-3.345705 2.951033 -1.420299
-3.570058 3.157108 -1.393256
-3.850139 3.415510 -1.372604
-4.088919 3.635139 -1.320105
-4.338466 3.866163 -1.257507
-4.702266 4.202183 -1.209160
-5.143008 4.566431 -1.149644
-5.575300 4.960845 -1.067282
-6.413384 5.726492 -1.021558
-7.201791 6.447961 -0.918596
-8.757588 7.866490 -0.839808
-5.144303 4.580092 -0.332724
-8.786301 7.903421 -0.287804
-10.450042 9.423221 -0.013431
-10.425003 9.406798 0.314191
-10.407593 9.397311 0.643717
-10.393626 9.387631 0.970748
-10.373902 9.375997 1.297534
-10.364494 9.373778 1.628790
-10.345371 9.359344 1.956804
-10.317503 9.340204 2.284268
-10.306865 9.336809 2.619570
-0.424881 0.284225 -0.344506
-0.452304 0.309711 -0.347659
-0.502150 0.355714 -0.365334
-0.534387 0.385700 -0.367314
-2.442033 2.143788 -1.576706
-2.564570 2.257447 -1.557935
-2.673700 2.359679 -1.524499
-2.839254 2.514130 -1.514155
-2.990868 2.654937 -1.487185
-3.141040 2.795529 -1.450751
-3.322456 2.965191 -1.417888
-3.565316 3.190768 -1.398761
-3.831220 3.439051 -1.373087
-4.063023 3.654768 -1.318693
-4.335611 3.909800 -1.263322
-4.687470 4.238653 -1.211733
-5.121842 4.601432 -1.150915
-5.566432 5.011734 -1.071166
-6.382617 5.766137 -1.021986
-7.171236 6.496168 -0.919491
-8.730612 7.934475 -0.841590
-5.127508 4.619218 -0.333356
-0.002053 -0.104476 -0.003358
-10.450849 9.534890 -0.013425
-10.430283 9.522396 0.316095
-10.412847 9.512768 0.647537
-10.398853 9.502951 0.976469
-10.376135 9.488409 1.304783
-10.373889 9.492783 1.639009
-10.348844 9.472694 1.967942
-10.322295 9.454548 2.297564
-10.309969 9.449553 2.634385
-0.432700 0.296128 -0.352672
-0.444805 0.307658 -0.343729
-0.500783 0.359902 -0.366268
-0.521103 0.379136 -0.360118
-2.440946 2.169015 -1.584401
-2.565626 2.285994 -1.566879
-2.681061 2.395297 -1.536835
-2.807806 2.515304 -1.505389
-2.979028 2.676059 -1.489222
-3.117355 2.807205 -1.447524
-3.318650 2.997410 -1.423838
-3.554701 3.219237 -1.402053
-3.816405 3.466460 -1.375094
-4.038465 3.675557 -1.317742
-4.316700 3.938827 -1.264546
-4.663823 4.267040 -1.212075
-5.054168 4.593323 -1.141767
-5.554263 5.059996 -1.074490
-6.351600 5.805608 -1.022416
-7.140385 6.544254 -0.920385
-8.700227 7.999698 -0.843089
-8.791233 8.090000 -0.572219
-5.171598 4.718570 -0.172480
-10.459499 9.655074 -0.013427
-10.433118 9.637001 0.317956
-10.418585 9.629972 0.651451
-10.401641 9.617278 0.982052
-10.381800 9.605254 1.312587
-10.370640 9.601333 1.647380
-10.352788 9.587741 1.979356
-10.321800 9.565220 2.309891
-10.316429 9.566676 2.650308
-0.426617 0.295172 -0.349603
-0.443700 0.311518 -0.344704
-0.494246 0.359247 -0.363441
-0.513095 0.377316 -0.356518
-0.512191 0.376784 -0.335839
-2.549159 2.298334 -1.565232
-2.662591 2.407004 -1.534500
-2.798073 2.536646 -1.508287
-2.953417 2.684258 -1.484404
-3.106039 2.830423 -1.450069
-3.310441 3.025770 -1.427996
-3.548061 3.251652 -1.407004
-3.805607 3.497799 -1.378625
-4.019446 3.701532 -1.318642
-4.303274 3.973145 -1.267440
-4.652812 4.307450 -1.215764
-5.061517 4.654902 -1.149552
-5.465298 5.036369 -1.062987
-6.318889 5.843551 -1.022612
-7.103423 6.586745 -0.920530
-8.666455 8.062082 -0.844308
-4.985552 4.595930 -0.327619
-5.117541 4.723658 -0.171589
-10.468543 9.777031 -0.013430
-10.439318 9.756064 0.319951
-10.426233 9.750315 0.655549
-10.403477 9.731973 0.987638
-10.386439 9.722461 1.320390
-5.196536 4.814570 0.828164
-0.002064 -0.104243 -0.003351
-10.331820 9.687054 2.324803
-10.319015 9.681476 2.665493
-0.425565 0.298918 -0.350618
-0.441275 0.314148 -0.344699
-0.492857 0.363412 -0.364374
-0.503856 0.374209 -0.352018
-0.510706 0.381064 -0.336691
-2.537492 2.316039 -1.566845
-2.658742 2.432583 -1.540660
-2.794941 2.564410 -1.514826
-2.939517 2.704425 -1.485756
-3.079514 2.839216 -1.445557
-3.307512 3.059397 -1.434543
-3.518360 3.263442 -1.403113
-3.788970 3.523770 -1.380125
-4.005217 3.733499 -1.321391
-4.288882 4.008193 -1.270332
-4.606701 4.316036 -1.210531
-4.998287 4.650081 -1.141380
-5.200923 4.846218 -1.017358
-6.290283 5.885436 -1.023507
-7.084948 6.646884 -0.923108
-8.629387 8.124487 -0.845383
-8.803230 8.292997 -0.579113
-5.049152 4.714494 -0.170219
-10.470463 9.897111 -0.013426
-10.438741 9.870014 0.321768
-10.428491 9.866906 0.659372
-10.406908 9.852950 0.993640
-10.385473 9.839109 1.327828
-0.002060 -0.104140 -0.003347
-4.789368 4.484783 0.923946
-4.859325 4.554961 1.097638
-10.313540 9.789830 2.678835
-0.419449 0.297954 -0.347548
-0.438786 0.316859 -0.344693
-0.491335 0.367648 -0.365309
-0.494561 0.371077 -0.347519
-0.504008 0.380340 -0.334113
-2.526131 2.333257 -1.568457
-2.648960 2.453559 -1.543730
-2.792911 2.593510 -1.522096
-2.927339 2.725334 -1.487792
-3.069315 2.863593 -1.448744
-3.281024 3.070546 -1.430938
-3.521004 3.305166 -1.411931
-3.766632 3.544299 -1.379592
-3.987233 3.760672 -1.322753
-4.272870 4.039001 -1.272391
-4.607327 4.366444 -1.217192
-5.015471 4.723562 -1.151768
-5.143785 4.848712 -1.011732
-5.190613 4.897166 -0.849869
-7.074852 6.717940 -0.926995
-8.600512 8.192165 -0.847164
-8.800655 8.390969 -0.582181
-5.011260 4.733881 -0.169852
-10.477383 10.019885 -0.013428
-10.448354 9.998599 0.323993
-10.435486 9.989401 0.663562
-0.002054 -0.104033 -0.003344
-10.392722 9.958011 1.336002
-5.215145 4.947567 0.840467
-4.728733 4.479296 0.917329
-0.002054 -0.104033 -0.003344
-10.312814 9.903926 2.693654
-0.425819 0.308788 -0.354692
-0.441431 0.324276 -0.348610
-0.481099 0.363086 -0.359662
-0.493179 0.375180 -0.348412
-0.498615 0.380804 -0.332394
-2.517275 2.352976 -1.571698
-2.633301 2.467124 -1.542940
-2.787984 2.620078 -1.527906
-2.912342 2.743572 -1.488457
-3.079251 2.907835 -1.461554
-3.277666 3.104175 -1.437485
-3.516397 3.340285 -1.417987
-3.742790 3.563331 -1.378552
-3.971856 3.790497 -1.325039
-4.246812 4.063020 -1.271946
-4.569501 4.382792 -1.214189
-4.989841 4.752980 -1.152063
-5.103842 4.867318 -1.009461
-5.144092 4.908147 -0.846805
-5.165033 4.931930 -0.681218
-0.002047 -0.103927 -0.003341
-0.002047 -0.103927 -0.003341
-4.951845 4.732023 -0.168769
-10.480404 10.140296 -0.013424
-10.446077 10.110019 0.325764
-0.002047 -0.103927 -0.003341
-0.002047 -0.103927 -0.003341
-10.399686 10.085118 1.344733
-5.208664 4.999871 0.844195
-4.688099 4.492669 0.914588
-0.002047 -0.103927 -0.003341
-11.370050 11.058100 2.987034
-0.417220 0.305358 -0.349580
-0.442602 0.330659 -0.351547
-0.478336 0.366047 -0.359654
-0.485238 0.373175 -0.344811
-0.489306 0.377509 -0.328102
-0.511360 0.399452 -0.322708
-2.632431 2.497084 -1.551415
-2.770430 2.635360 -1.527159
-2.903896 2.768326 -1.492550
-3.059970 2.924820 -1.460892
-3.258583 3.123683 -1.437462
-3.500606 3.364653 -1.419621
-3.725085 3.589669 -1.380050
-3.949349 3.813408 -1.325013
-4.229681 4.094407 -1.274004
-4.565882 4.431306 -1.220106
-4.959523 4.781224 -1.151705
-5.080747 4.902281 -1.010549
-5.101532 4.926136 -0.844672
-5.120879 4.948604 -0.679313
-4.604579 4.440459 -0.460066
-4.649149 4.487542 -0.312464
-0.002041 -0.103820 -0.003338
-5.255012 5.091281 -0.008391
-10.449226 10.235212 0.327855
-0.002041 -0.103820 -0.003338
-4.064503 3.920567 0.392598
-0.002041 -0.103820 -0.003338
-0.002041 -0.103820 -0.003338
-4.668580 4.526670 0.916003
-4.744479 4.605133 1.089980
-11.242258 11.064498 2.970870
-0.411205 0.304217 -0.346510
-0.440089 0.333302 -0.351541
-0.471871 0.365153 -0.356828
-0.474889 0.368483 -0.339414
-0.482688 0.376585 -0.325526
-0.511023 0.405061 -0.324332
-2.612178 2.507083 -1.548309
-2.745395 2.642158 -1.522038
-2.881999 2.779801 -1.489789
-3.046492 2.946527 -1.462795
-3.256106 3.158717 -1.444605
-3.490053 3.394378 -1.423467
-3.717389 3.624865 -1.385104
-3.912993 3.822413 -1.320363
-4.241301 4.154844 -1.284823
-4.545228 4.463207 -1.221563
-4.935500 4.813994 -1.152650
-5.047624 4.927373 -1.009677
-5.079509 4.962557 -0.845806
-5.091689 4.978113 -0.679281
-0.002058 -0.103694 -0.003333
-4.591528 4.483265 -0.310355
-4.398727 4.293514 -0.151935
-4.506726 4.402973 -0.007668
-0.002058 -0.103694 -0.003333
-4.901233 4.804225 0.315335
-3.970784 3.873389 0.385717
-4.067472 3.973015 0.529857
-4.798012 4.708807 0.786522
-4.616674 4.528326 0.911048
-4.718648 4.633857 1.090332
-11.119501 11.070615 2.955439
-0.413687 0.311559 -0.350590
-0.432653 0.330973 -0.347612
-0.465420 0.364191 -0.354002
-0.472182 0.371323 -0.339406
-0.477377 0.376895 -0.323805
-0.500299 0.400397 -0.319437
-2.604890 2.530071 -1.552922
-2.736082 2.664662 -1.525662
-2.876706 2.808987 -1.495937
-3.019540 2.954677 -1.458285
-3.233233 3.173440 -1.442792
-3.454405 3.400082 -1.417363
-3.676861 3.627038 -1.377969
-3.908731 3.865078 -1.326811
-4.209102 4.173073 -1.282708
-4.527681 4.500006 -1.224134
-4.902917 4.838240 -1.151642
-5.014906 4.954542 -1.009084
-5.053028 4.994646 -0.846241
-5.065133 5.010289 -0.679623
-4.506224 4.448817 -0.455498
-4.549577 4.494113 -0.309286
-4.367703 4.313190 -0.151715
-0.002052 -0.103588 -0.003330
-0.002052 -0.103588 -0.003330
-4.910777 4.870874 0.317846
-3.934486 3.884185 0.384499
-4.036212 3.990079 0.528961
-4.740937 4.706738 0.781703
-4.586315 4.552902 0.910524
-4.662766 4.633729 1.083905
-10.992929 11.071500 2.938903
-0.408824 0.311665 -0.348540
-0.438609 0.342356 -0.354471
-0.454006 0.358224 -0.347414
-0.463098 0.367824 -0.334907
-0.473334 0.378439 -0.322942
-0.494835 0.400761 -0.317801
-2.595660 2.552193 -1.556763
-2.723997 2.684478 -1.527829
-2.866440 2.832334 -1.499343
-3.012460 2.982975 -1.463396
-3.210315 3.188021 -1.440978
-3.435495 3.421395 -1.417893
-3.656658 3.649640 -1.378452
-3.869525 3.870900 -1.321235
-4.198774 4.210634 -1.286853
-4.497799 4.521111 -1.222989
-4.861067 4.854661 -1.148680
-5.007861 5.006083 -1.013526
-5.039369 5.041687 -0.849006
-5.045825 5.051737 -0.681087
-4.465974 4.460533 -0.454061
-0.002048 -0.103484 -0.003327
-4.325412 4.321203 -0.151113
-4.358706 4.358265 -0.007516
-4.460844 4.465921 0.140610
-5.120605 5.143729 0.333581
-3.910060 3.905445 0.384387
-4.004951 4.004102 0.527881
-4.688221 4.708458 0.777578
-10.376665 10.556709 2.077076
-4.561923 4.583410 1.066499
-0.002048 -0.103484 -0.003327
-0.412462 0.320201 -0.353642
-0.438541 0.347407 -0.356427
-0.452639 0.362116 -0.348349
-0.457974 0.367937 -0.333104
-0.465512 0.376051 -0.319509
-0.486923 0.398354 -0.314537
-2.596151 2.582668 -1.566011
-2.711761 2.704238 -1.529997
-2.846100 2.844363 -1.497266
-2.992022 2.997667 -1.462090
-3.188662 3.203819 -1.439761
-3.434430 3.460021 -1.425606
-3.655099 3.691647 -1.386044
-3.872900 3.919195 -1.329996
-4.176572 4.237676 -1.287659
-4.483335 4.559793 -1.226305
-4.826446 4.874768 -1.147020
-0.002041 -0.103377 -0.003324
-5.072717 5.134068 -0.859472
-4.980953 5.042731 -0.676190
-4.419609 4.463996 -0.451919
-5.021126 5.089396 -0.344948
-4.281814 4.327462 -0.150462
-4.319813 4.368240 -0.007476
-4.414416 4.469274 0.139962
-3.839366 3.876005 0.250779
-3.897303 3.937376 0.385381
-3.982598 4.028626 0.528092
-5.131620 5.224932 0.856602
-0.002041 -0.103377 -0.003324
-4.398031 4.467439 1.034236
-0.002041 -0.103377 -0.003324
-0.407649 0.320195 -0.351593
-0.429890 0.343716 -0.351518
-0.452378 0.367356 -0.350224
-0.450302 0.365493 -0.329504
-0.459017 0.374922 -0.316931
-0.482773 0.399939 -0.313715
-0.496358 0.414505 -0.302884
-2.681420 2.705111 -1.521960
-2.836842 2.868963 -1.501358
-2.988483 3.030039 -1.469126
-3.176141 3.229146 -1.442724
-3.417808 3.484012 -1.427240
-3.599829 3.677701 -1.373325
-3.859051 3.951411 -1.333206
-4.159577 4.270262 -1.290134
-4.446924 4.575665 -1.223674
-4.809978 4.915411 -1.149918
-5.233096 5.358823 -1.071352
-0.002035 -0.103271 -0.003320
-7.067999 7.284655 -0.963926
-4.349094 4.443322 -0.447384
-4.434951 4.536227 -0.306834
-4.231356 4.326110 -0.149575
-4.271900 4.370007 -0.007425
-4.343841 4.448425 0.138548
-4.788243 4.917670 0.315554
-3.871207 3.956966 0.385131
-3.938141 4.029965 0.525353
-4.629714 4.759436 0.777177
-5.005672 5.156171 1.012008
-4.368902 4.489920 1.033620
-4.421228 4.548069 1.201104
-0.411036 0.328950 -0.356694
-0.423651 0.342573 -0.348568
-0.442304 0.362440 -0.344576
-0.443834 0.364367 -0.326802
-0.451200 0.372479 -0.313498
-0.474750 0.397575 -0.310450
-0.488207 0.412171 -0.299789
-2.674909 2.731911 -1.527771
-2.826884 2.894055 -1.505449
-2.986698 3.065734 -1.477445
-3.152374 3.243868 -1.440911
-3.405686 3.514146 -1.431083
-3.601193 3.724482 -1.382439
-3.833595 3.972935 -1.332716
-4.129542 4.290708 -1.288853
-4.439247 4.623566 -1.229217
-4.814014 4.979789 -1.158025
-5.230526 5.421525 -1.077470
-5.980187 6.217885 -1.025023
-7.071910 7.377231 -0.970427
-4.342586 4.490908 -0.449466
-4.432024 4.588712 -0.308504
-4.207732 4.354148 -0.149642
-4.333114 4.488500 -0.007479
-3.965649 4.101746 0.127032
-3.992575 4.133149 0.264243
-3.844318 3.977067 0.384882
-3.620105 3.741545 0.485719
-4.610315 4.797065 0.778827
-5.046265 5.262355 1.026725
-4.365879 4.541746 1.039462
-4.366632 4.545653 1.193754
-0.403846 0.326393 -0.352602
-0.424626 0.348908 -0.351506
-0.435990 0.361207 -0.341751
-0.435043 0.360496 -0.322302
-0.438587 0.364601 -0.306637
-0.465528 0.393795 -0.306372
-0.480210 0.409691 -0.296693
-2.647114 2.735118 -1.521193
-2.807761 2.909503 -1.504743
-2.972276 3.087157 -1.479347
-3.139535 3.269056 -1.443874
-3.390703 3.541439 -1.433821
-3.614633 3.783513 -1.396124
-3.811973 3.998559 -1.333614
-4.111375 4.323842 -1.291327
-4.440521 4.681627 -1.237361
-4.779261 5.001771 -1.156690
-5.176010 5.429432 -1.072960
-5.965384 6.275541 -1.028716
-7.049078 7.439754 -0.973189
-8.156028 8.630430 -0.846692
-4.429453 4.640545 -0.310175
-4.514753 4.735176 -0.161259
-3.718040 3.883667 -0.006884
-3.929099 4.111452 0.126654
-0.002046 -0.103039 -0.003312
-3.533240 3.691706 0.355748
-3.590433 3.755757 0.484822
-4.576588 4.817800 0.777933
-5.025126 5.303914 1.028977
-4.295278 4.521390 1.029159
-4.334425 4.565054 1.192308
-0.408271 0.336441 -0.358725
-0.418404 0.347695 -0.348556
-0.432030 0.362589 -0.340804
-0.424993 0.355277 -0.316906
-0.433433 0.364564 -0.304917
-0.460195 0.393893 -0.304735
-0.479645 0.415334 -0.298232
-2.638294 2.758642 -1.525545
-2.794176 2.929877 -1.506779
-2.962839 3.114091 -1.483815
-3.135571 3.304050 -1.451015
-3.382673 3.575173 -1.439322
-3.581725 3.792984 -1.392036
-3.804079 4.037750 -1.339136
-4.093195 4.354043 -1.293384
-4.409756 4.702124 -1.236215
-4.747557 5.028713 -1.156330
-5.191101 5.510151 -1.082712
-5.913936 6.296338 -1.026344
-7.055526 7.537159 -0.980250
-0.002039 -0.102932 -0.003309
-4.375498 4.638953 -0.308348
-0.002039 -0.102932 -0.003309
-3.620466 3.824208 -0.006787
-3.700853 3.914150 0.119913
-3.756787 3.976202 0.251620
-3.496458 3.695935 0.354252
-3.527030 3.730398 0.479127
-0.002039 -0.102932 -0.003309
-5.020693 5.362043 1.034552
-4.253360 4.527951 1.025313
-4.302153 4.584242 1.190862
-0.408151 0.341369 -0.360761
-0.417059 0.351415 -0.349531
-0.419903 0.354676 -0.333277
-0.415203 0.349826 -0.311508
-0.427061 0.363130 -0.302342
-0.453717 0.392506 -0.302285
-0.473010 0.414011 -0.295910
-2.611726 2.762876 -1.519697
-2.775936 2.944156 -1.506073
-2.946797 3.134004 -1.485077
-3.121042 3.327821 -1.453379
-3.358183 3.589835 -1.437642
-3.563122 3.817944 -1.393534
-3.778280 4.056161 -1.338185
-4.062204 4.371862 -1.291687
-4.374062 4.718799 -1.233957
-4.722796 5.059605 -1.157277
-5.206433 5.590316 -1.092465
-5.911590 6.366033 -1.032136
-7.046294 7.613307 -0.984882
-4.339218 4.649559 -0.457402
-4.606063 4.945339 -0.326361
-3.548257 3.788098 -0.128941
-3.590388 3.835593 -0.006755
-3.656825 3.911205 0.119217
-3.686165 3.946146 0.248431
-3.734289 4.000356 0.380953
-3.512923 3.759586 0.480259
-0.002033 -0.102825 -0.003306
-0.002033 -0.102825 -0.003306
-4.231928 4.558316 1.026634
-4.272448 4.606129 1.190154
-0.403267 0.341255 -0.358713
-0.413249 0.352603 -0.348545
-0.417263 0.357184 -0.333271
-0.410189 0.349653 -0.309706
-0.426790 0.368367 -0.304049
-0.444639 0.388494 -0.298206
-0.473739 0.420947 -0.298219
-2.601422 2.784910 -1.523319
-2.765344 2.969064 -1.510163
-2.935702 3.159478 -1.488905
-3.094852 3.338745 -1.450371
-3.340065 3.614094 -1.439274
-3.548244 3.847154 -1.396554
-3.761318 4.087299 -1.340932
-4.042099 4.403271 -1.293743
-4.349324 4.749179 -1.235039
-4.731352 5.129278 -1.166684
-5.132731 5.577131 -1.084040
-5.886218 6.413350 -1.034195
-7.045759 7.702652 -0.991008
-4.435198 4.813110 -0.470465
-4.536794 4.927382 -0.323494
-3.524443 3.807084 -0.128868
-3.566969 3.856945 -0.006727
-3.625606 3.923370 0.118972
-3.644077 3.946616 0.247171
-3.683204 3.992872 0.378216
-0.002026 -0.102719 -0.003303
-0.002026 -0.102719 -0.003303
-0.002026 -0.102719 -0.003303
-4.242387 4.626042 1.036030
-4.280674 4.670266 1.200148
-0.396036 0.338602 -0.354622
-0.408214 0.352540 -0.346578
-0.414532 0.359758 -0.333264
-0.407496 0.352179 -0.309700
-0.419188 0.365603 -0.300615
-0.445449 0.395240 -0.300644
-0.466925 0.419702 -0.295897
-2.590410 2.807347 -1.526944
-2.725145 2.959784 -1.497807
-2.894896 3.152874 -1.477978
-3.088313 3.372854 -1.456915
-3.316061 3.630511 -1.438144
-3.511905 3.853776 -1.391451
-3.744869 4.117735 -1.343679
-4.014788 4.425127 -1.293297
-4.296549 4.746304 -1.227949
-4.689717 5.145604 -1.164045
-5.059057 5.560923 -1.075335
-5.843483 6.443830 -1.033454
-7.015217 7.762264 -0.993204
-0.002020 -0.102612 -0.003300
-8.861523 9.842672 -0.632953
-3.939894 4.320846 -0.144583
-3.542772 3.876026 -0.006700
-3.564458 3.903089 0.117735
-3.617337 3.965286 0.247015
-3.659558 4.014117 0.378243
-3.454303 3.785710 0.478466
-3.586985 3.937864 0.624884
-4.355083 4.805144 0.914401
-4.207223 4.641633 1.034123
-4.101088 4.524997 1.157369
-0.394623 0.342263 -0.355638
-0.402123 0.351062 -0.343629
-0.409515 0.359582 -0.331379
-0.401340 0.350608 -0.306997
-0.417681 0.369467 -0.301465
-0.441375 0.396531 -0.299822
-0.461474 0.419712 -0.294347
-2.583455 2.833525 -1.532752
-2.724813 2.995282 -1.507381
-2.892351 3.188101 -1.486295
-3.066971 3.389249 -1.456295
-3.294500 3.649654 -1.438119
-3.495428 3.881315 -1.393964
-3.724350 4.143730 -1.345039
-4.002819 4.464461 -1.297856
-4.278884 4.782891 -1.230891
-4.676387 5.191863 -1.168244
-5.039440 5.604905 -1.078097
-5.745228 6.408947 -1.022686
-7.005360 7.842989 -0.998206
-4.413887 4.904496 -0.474203
-0.002013 -0.102505 -0.003297
-3.467916 3.836224 -0.128435
-3.521112 3.897962 -0.006676
-3.543961 3.926652 0.117851
-3.674262 4.077696 0.252646
-3.364552 3.726381 0.349790
-3.581588 3.976265 0.499526
-3.520405 3.909252 0.617285
-4.345033 4.851100 0.918312
-0.002013 -0.102505 -0.003297
-4.057514 4.529398 1.152600
-0.394320 0.347225 -0.357674
-0.398374 0.352172 -0.342641
-0.398728 0.352721 -0.324792
-0.396354 0.350301 -0.305195
-0.411394 0.367876 -0.298889
-0.438485 0.399159 -0.299816
-0.451196 0.414110 -0.289708
-2.565266 2.847044 -1.532005
-2.727877 3.035147 -1.519008
-2.870864 3.201952 -1.484990
-3.048055 3.408400 -1.456870
-3.261501 3.655605 -1.433122
-3.477477 3.907320 -1.395970
-3.731677 4.201975 -1.356570
-3.964910 4.474230 -1.294074
-4.233953 4.788238 -1.226031
-4.625054 5.195026 -1.163003
-5.058554 5.693631 -1.089246
-5.740276 6.479477 -1.028475
-7.015718 7.947863 -1.006201
-4.459640 5.015673 -0.482197
-8.876204 10.093470 -0.642183
-3.449093 3.860746 -0.128553
-3.484879 3.903180 -0.006637
-3.520681 3.947088 0.117877
-3.553188 3.987255 0.245872
-3.354219 3.759360 0.351059
-3.393615 3.807380 0.476302
-3.505050 3.938565 0.618698
-4.372200 4.940500 0.930258
-10.395789 11.899404 2.594919
-4.025636 4.546852 1.151154
-0.390604 0.348289 -0.356646
-0.395752 0.354559 -0.342635
-0.393796 0.352437 -0.322906
-0.394912 0.354037 -0.306087
-0.409843 0.371696 -0.299740
-0.433198 0.399002 -0.298181
-0.442204 0.409811 -0.285841
-2.560381 2.876012 -1.539270
-2.713426 3.055188 -1.521043
-2.859191 3.227170 -1.488816
-3.036477 3.436145 -1.461025
-3.243551 3.678811 -1.434755
-3.458116 3.931809 -1.397466
-3.690373 4.204294 -1.350532
-3.955027 4.516424 -1.299466
-4.221047 4.830575 -1.230458
-4.625396 5.257543 -1.170781
-5.061312 5.764783 -1.097037
-5.726897 6.541118 -1.032866
-6.956242 7.973155 -1.004282
-4.453536 5.068608 -0.484697
-0.002027 -0.102276 -0.003289
-3.527877 3.998903 -0.132246
-3.446095 3.905070 -0.006597
-3.505126 3.976509 0.118175
-3.513962 3.989559 0.244795
-3.328014 3.774164 0.350669
-3.618631 4.115723 0.511575
-3.535999 4.022138 0.628428
-4.393341 5.024365 0.941098
-10.393216 12.037127 2.611785
-4.003890 4.576019 1.152660
-0.381312 0.342783 -0.350512
-0.390851 0.354277 -0.340668
-0.387721 0.350752 -0.320081
-0.393437 0.357766 -0.306979
-0.407119 0.374163 -0.299733
-0.432593 0.404457 -0.299803
-0.444012 0.418064 -0.288924
-2.546792 2.895070 -1.541437
-2.706805 3.085675 -1.527873
-2.843631 3.248013 -1.490719
-3.017291 3.455146 -1.461598
-3.213596 3.689295 -1.431416
-3.442312 3.960614 -1.400487
-3.679823 4.244039 -1.356053
-3.931339 4.544401 -1.300687
-4.219611 4.888666 -1.238599
-4.575234 5.261670 -1.165866
-5.032830 5.802357 -1.098398
-5.709135 6.598283 -1.036557
-6.879926 7.978314 -0.999932
-7.788735 9.052216 -0.851188
-4.374910 5.040446 -0.322296
-3.376018 3.868413 -0.127501
-3.424848 3.928605 -0.006573
-3.625198 4.165917 0.123215
-3.619571 4.162177 0.254014
-3.578471 4.116583 0.380009
-3.366973 3.869785 0.479122
-0.002020 -0.102170 -0.003286
-10.422910 12.210850 2.253557
-10.401284 12.193614 2.632208
-3.987027 4.611101 1.155642
-0.379772 0.346456 -0.351527
-0.382503 0.350004 -0.335759
-0.378223 0.345056 -0.314433
-0.390702 0.360196 -0.306973
-0.405530 0.377983 -0.300584
-0.429662 0.407038 -0.299797
-0.437365 0.416558 -0.286601
-2.537864 2.919784 -1.546517
-2.683559 3.095552 -1.525112
-2.826721 3.267348 -1.491979
-3.004092 3.481338 -1.465157
-3.201580 3.719641 -1.435810
-3.418856 3.980483 -1.400460
-3.632276 4.238417 -1.347702
-3.927890 4.593384 -1.308166
-4.196703 4.918291 -1.240055
-4.559856 5.308453 -1.170063
-4.997446 5.829823 -1.098083
-5.670566 6.633683 -1.036747
-6.771613 7.947477 -0.991092
-7.751259 9.115336 -0.852824
-0.002014 -0.102063 -0.003282
-3.335107 3.866474 -0.126807
-3.440138 3.994316 -0.006584
-3.504731 4.074096 0.119900
-3.501248 4.071300 0.247331
-3.648938 4.250397 0.390269
-3.342173 3.885567 0.478778
-0.002014 -0.102063 -0.003282
-10.431890 12.366490 2.271089
-10.409680 12.343967 2.651983
-3.963584 4.638603 1.156778
-0.376156 0.347346 -0.350500
-0.374414 0.345551 -0.330848
-0.379090 0.351321 -0.317248
-0.390381 0.365209 -0.308765
-0.403974 0.381711 -0.301436
-0.427974 0.410930 -0.300606
-0.440358 0.426193 -0.290454
-2.516196 2.928287 -1.543582
-2.669267 3.114946 -1.527146
-2.809072 3.284651 -1.492599
-2.991351 3.506999 -1.468715
-3.170358 3.725708 -1.431368
-3.398456 4.002592 -1.401451
-3.615397 4.267722 -1.350450
-3.886662 4.597279 -1.303131
-4.192388 4.970553 -1.247082
-4.532082 5.336966 -1.170681
-4.985791 5.883631 -1.102798
-5.639193 6.672977 -1.037874
-6.722727 7.980684 -0.990484
-7.709874 9.170875 -0.853895
-4.369003 5.155256 -0.326195
-3.307760 3.878969 -0.126593
-3.382741 3.972024 -0.006524
-3.430284 4.032128 0.118118
-3.621963 4.264686 0.257746
-3.650026 4.301532 0.393062
-3.373192 3.968685 0.486554
-0.002007 -0.101956 -0.003279
-10.454216 12.536055 2.291390
-10.424265 12.503921 2.673698
-3.955842 4.683506 1.162345
-0.369110 0.344358 -0.346410
-0.370630 0.346508 -0.329862
-0.371925 0.348218 -0.313481
-0.385344 0.364866 -0.306961
-0.399874 0.382884 -0.300572
-0.423761 0.412151 -0.299785
-0.431356 0.421759 -0.286588
-2.501173 2.948027 -1.545747
-2.657249 3.139541 -1.531236
-2.796726 3.312114 -1.497065
-2.965605 3.520871 -1.466900
-3.157317 3.756465 -1.435762
-3.400262 4.056350 -1.412591
-3.609113 4.313330 -1.357817
-3.860345 4.624060 -1.303935
-4.163801 4.999217 -1.247792
-4.534847 5.406549 -1.179758
-4.946399 5.908624 -1.101923
-5.612763 6.723306 -1.040397
-6.644305 7.983611 -0.985947
-7.663568 9.227359 -0.854824
-4.392226 5.247602 -0.330220
-3.288453 3.905391 -0.126756
-3.353429 3.985942 -0.006492
-3.403149 4.049414 0.118054
-3.448411 4.107519 0.247109
-0.002025 -0.101831 -0.003275
-3.291513 3.919940 0.478275
-3.378961 4.029661 0.617443
-37.801712 46.158886 8.355626
-10.423222 12.660715 2.693482
-4.239682 5.091445 1.255392
-0.366515 0.346563 -0.346405
-0.364739 0.344677 -0.326914
-0.372653 0.354559 -0.316296
-0.383776 0.368565 -0.307853
-0.395924 0.383865 -0.299710
-0.419635 0.413260 -0.298965
-0.424843 0.420032 -0.284266
-2.477697 2.955251 -1.542084
-2.639739 3.156375 -1.531899
-2.787752 3.341539 -1.502814
-2.936287 3.527606 -1.462699
-3.154374 3.798609 -1.444576
-3.382314 4.083483 -1.415104
-3.583622 4.334151 -1.357789
-3.825705 4.637200 -1.301402
-4.136823 5.026284 -1.248503
-4.514247 5.446457 -1.182653
-4.964150 6.001645 -1.113628
-5.594645 6.781831 -1.044320
-6.659119 8.097595 -0.995061
-0.002018 -0.101724 -0.003271
-4.417952 5.342715 -0.334435
-3.264050 3.922805 -0.126683
-3.357510 4.039457 -0.006494
-3.379181 4.069045 0.118081
-3.426610 4.130505 0.247319
-3.220587 3.877193 0.351488
-3.295848 3.973010 0.482363
-3.412534 4.120236 0.628101
-0.002018 -0.101724 -0.003271
-0.002018 -0.101724 -0.003271
-12.056235 14.845712 3.602653
-0.365001 0.350105 -0.347420
-0.363254 0.348228 -0.327889
-0.373327 0.360919 -0.319110
-0.381062 0.370871 -0.307847
-0.394273 0.387665 -0.300559
-0.422373 0.422892 -0.303031
-0.427598 0.429772 -0.288119
-2.478691 2.992857 -1.553720
-2.613881 3.162826 -1.527766
-2.769036 3.359109 -1.503434
-2.915352 3.544576 -1.462674
-3.130674 3.815331 -1.443997
-3.360563 4.106022 -1.416093
-3.570138 4.370028 -1.362384
-3.820273 4.686773 -1.308880
-4.118220 5.063947 -1.251816
-4.473563 5.461706 -1.180341
-4.937607 6.041056 -1.115546
-5.581030 6.846577 -1.049173
-6.558202 8.069145 -0.986971
-4.292492 5.247206 -0.486893
-8.910992 11.012563 -0.676102
-3.293328 4.007187 -0.128656
-3.361116 4.093180 -0.006493
-3.358854 4.093227 0.118243
-3.419635 4.172106 0.248633
-3.216308 3.919154 0.353589
-3.363046 4.105590 0.495863
-3.364610 4.110422 0.623736
-0.002012 -0.101618 -0.003268
-0.002012 -0.101618 -0.003268
-12.060588 15.028735 3.630054
-0.362406 0.352309 -0.347413
-0.357394 0.346310 -0.324942
-0.367377 0.359027 -0.316283
-0.377224 0.371756 -0.306943
-0.392563 0.391441 -0.301410
-0.414719 0.419765 -0.299766
-0.419958 0.426543 -0.285025
-2.465442 3.013030 -1.556614
-2.603767 3.190164 -1.533227
-2.753771 3.381065 -1.505976
-2.899034 3.567408 -1.465038
-3.112132 3.839981 -1.446182
-3.332676 4.120857 -1.414543
-3.557991 4.409576 -1.367903
-3.790591 4.707935 -1.308432
-4.075343 5.072961 -1.248068
-4.443883 5.490562 -1.180958
-4.870276 6.031569 -1.108520
-5.573025 6.919174 -1.055192
-6.496178 8.088158 -0.984679
-4.299072 5.321146 -0.491222
-8.915056 11.149935 -0.681226
-3.270844 4.027754 -0.128678
-0.002005 -0.101511 -0.003265
-3.334625 4.112595 0.118269
-3.376390 4.168326 0.247282
-3.307371 4.083871 0.366478
-3.252905 4.017718 0.483154
-3.347670 4.139179 0.625150
-0.002005 -0.101511 -0.003265
-4.080500 5.075151 1.075459
-12.074205 15.226217 3.660781
-0.353330 0.346429 -0.341281
-0.354744 0.348534 -0.324934
-0.364623 0.361285 -0.316278
-0.374387 0.374070 -0.306938
-0.389613 0.393848 -0.301405
-0.411710 0.422246 -0.299760
-0.414537 0.426218 -0.283475
-2.453780 3.036506 -1.560965
-2.581308 3.200785 -1.531148
-2.740050 3.406413 -1.509801
-2.894819 3.607227 -1.473967
-3.090547 3.859452 -1.446710
-3.321843 4.158986 -1.420607
-3.528363 4.425497 -1.366488
-3.770036 4.739060 -1.310903
-4.020129 5.063879 -1.240235
-4.406976 5.512294 -1.179946
-4.881315 6.118833 -1.119105
-5.515321 6.931896 -1.052119
-6.479373 8.167410 -0.989492
-7.490452 9.461253 -0.859807
-8.915828 11.289262 -0.686349
-3.316483 4.136965 -0.131365
-3.281027 4.092997 -0.006410
-3.320634 4.146586 0.118704
-3.349754 4.186806 0.247217
-3.321285 4.151724 0.370795
-3.234007 4.042748 0.483918
-3.320004 4.155938 0.624715
-0.002001 -0.101407 -0.003262
-0.002001 -0.101407 -0.003262
-12.397037 15.829801 3.787488
-0.351811 0.349929 -0.342295
-0.346812 0.343783 -0.320025
-0.361956 0.363482 -0.316272
-0.372732 0.377730 -0.307830
-0.386757 0.396186 -0.301399
-0.408680 0.424706 -0.299754
-0.415990 0.434527 -0.286557
-2.443644 3.061025 -1.566044
-2.571417 3.227594 -1.536609
-2.715154 3.416227 -1.507214
-2.881565 3.634530 -1.478121
-3.071203 3.881860 -1.448342
-3.301961 4.184281 -1.422611
-3.505798 4.450482 -1.367846
-3.730172 4.745298 -1.306703
-4.009475 5.111985 -1.246146
-4.389063 5.556389 -1.183817
-4.863614 6.170433 -1.123259
-5.544044 7.053151 -1.065366
-6.484062 8.272413 -0.997481
-7.454785 9.529585 -0.862001
-8.922185 11.433782 -0.691848
-3.446067 4.355440 -0.137335
-3.291056 4.156247 -0.006416
-3.353531 4.240122 0.120857
-3.292045 4.163410 0.244760
-3.306457 4.183506 0.371927
-3.417957 4.331136 0.515513
-3.335418 4.227016 0.632369
-0.001995 -0.101301 -0.003259
-27.781948 36.006565 7.454193
-12.258334 15.840240 3.773182
-0.343958 0.345207 -0.337184
-0.341065 0.341721 -0.317077
-0.358201 0.364257 -0.315326
-0.369982 0.379983 -0.307823
-0.383878 0.398503 -0.301393
-0.406754 0.428604 -0.300562
-0.415136 0.439946 -0.288094
-2.425381 3.075147 -1.566023
-2.556768 3.248441 -1.539327
-2.705188 3.445477 -1.512962
-2.864609 3.657233 -1.480485
-3.050529 3.902645 -1.449421
-3.279559 4.206409 -1.423599
-3.484237 4.476902 -1.369666
-3.715210 4.783936 -1.311260
-4.010294 5.175791 -1.255771
-4.351612 5.575424 -1.182480
-4.837050 6.211031 -1.125457
-5.520857 7.108732 -1.068819
-6.415156 8.282840 -0.994253
-7.406472 9.581986 -0.862788
-8.929596 11.581920 -0.697535
-3.215249 4.106747 -0.129265
-3.487336 4.464560 -0.006602
-3.288462 4.207016 0.119392
-3.203226 4.098185 0.239910
-3.307123 4.235902 0.374860
-3.393590 4.352440 0.515727
-3.321258 4.260479 0.634476
-35.276562 46.266514 8.150142
-27.734747 36.378159 7.498013
-12.110426 15.837100 3.755923
-0.340337 0.345904 -0.336157
-0.342702 0.349330 -0.320994
-0.353376 0.363591 -0.313440
-0.367189 0.382192 -0.307818
-0.381005 0.400813 -0.301386
-0.404794 0.432495 -0.301370
-0.410899 0.440953 -0.287316
-2.409282 3.092138 -1.567460
-2.537416 3.263205 -1.539306
-2.691546 3.470183 -1.516788
-2.848670 3.681415 -1.483444
-3.033195 3.927933 -1.452158
-3.257014 4.228425 -1.424588
-3.462485 4.503220 -1.371486
-3.685823 4.803785 -1.310813
-3.969199 5.184751 -1.252397
-4.354566 5.647689 -1.192208
-4.799412 6.237307 -1.125139
-5.501997 7.170609 -1.073206
-6.358357 8.308638 -0.992895
-7.368603 9.648457 -0.864842
-8.937974 11.733685 -0.703411
-0.002006 -0.101069 -0.003251
-3.291157 4.259531 -0.006410
-3.294873 4.267488 0.120595
-3.235494 4.191678 0.244262
-3.351695 4.347419 0.382912
-3.170300 4.109439 0.485290
-3.293698 4.276461 0.634042
-0.002006 -0.101069 -0.003251
-27.411545 36.387436 7.467521
-3.805294 4.965506 1.186586
-0.340852 0.352094 -0.339215
-0.340098 0.351397 -0.320988
-0.352797 0.368542 -0.315315
-0.362274 0.381547 -0.306014
-0.377018 0.401644 -0.300523
-0.401621 0.434988 -0.301363
-0.409970 0.446367 -0.288853
-2.398654 3.116541 -1.572537
-2.521909 3.284349 -1.542023
-2.667550 3.481184 -1.514840
-2.831386 3.703991 -1.485808
-3.009236 3.945973 -1.452131
-3.223957 4.236353 -1.421007
-3.450176 4.544101 -1.377466
-3.676461 4.852380 -1.317870
-3.920221 5.184648 -1.246791
-4.365124 5.731249 -1.204212
-4.772379 6.280054 -1.127616
-5.484997 7.235699 -1.078057
-6.325282 8.365950 -0.995276
-7.320158 9.704901 -0.865909
-8.943739 11.884362 -0.709189
-3.407971 4.467510 -0.138821
-3.218630 4.216540 -0.006337
-3.156211 4.134162 0.116323
-3.188045 4.179886 0.242541
-3.297843 4.330499 0.379757
-3.224844 4.235362 0.497688
-3.289739 4.324145 0.638230
-0.001999 -0.100962 -0.003248
-27.086340 36.403706 7.438005
-0.001999 -0.100962 -0.003248
-0.338165 0.354217 -0.339208
-0.336363 0.352096 -0.320002
-0.353162 0.374999 -0.318127
-0.361521 0.386662 -0.307805
-0.376165 0.406879 -0.302231
-0.397440 0.435922 -0.300542
-0.406726 0.448901 -0.288846
-2.381710 3.133814 -1.573974
-2.506812 3.304974 -1.544742
-2.651852 3.504686 -1.518023
-2.791800 3.697745 -1.476831
-2.993837 3.974190 -1.455972
-3.206171 4.266435 -1.424532
-3.398035 4.529477 -1.367269
-3.653660 4.881479 -1.319924
-3.924547 5.254805 -1.257901
-4.294091 5.707960 -1.194088
-4.768486 6.352138 -1.135403
-5.448449 7.277824 -1.079410
-6.289113 8.422675 -0.997468
-7.281309 9.771084 -0.867962
-8.945935 12.037045 -0.714965
-3.395028 4.507073 -0.139362
-0.001993 -0.100855 -0.003244
-3.193798 4.238265 0.118749
-3.201618 4.251938 0.245604
-3.262815 4.336661 0.378679
-3.343621 4.449800 0.520243
-3.276359 4.361315 0.640802
-0.001993 -0.100855 -0.003244
-26.770599 36.415909 7.409128
-0.001993 -0.100855 -0.003244
-0.332498 0.352092 -0.336138
-0.333747 0.354129 -0.319996
-0.346256 0.371420 -0.314361
-0.360809 0.391726 -0.309596
-0.373336 0.409084 -0.302224
-0.395425 0.439784 -0.301350
-0.403558 0.451338 -0.288839
-2.361416 3.144161 -1.572496
-2.489353 3.322497 -1.546091
-2.640566 3.531801 -1.523132
-2.781757 3.728838 -1.482775
-2.974832 3.997698 -1.458156
-3.173782 4.273418 -1.420952
-3.370163 4.547499 -1.366778
-3.614286 4.886059 -1.315725
-3.937188 5.335632 -1.271613
-4.282669 5.762984 -1.200235
-4.731250 6.379608 -1.135363
-5.416375 7.323619 -1.081465
-6.232877 8.449207 -0.996296
-7.244305 9.840383 -0.870295
-8.960523 12.204756 -0.721685
-8.940113 12.180818 -0.364493
-3.554504 4.784056 -0.006654
-3.120558 4.190376 0.116919
-3.481395 4.688483 0.269469
-3.241902 4.361943 0.379261
-3.350887 4.513613 0.525440
-3.258370 4.389280 0.642215
-0.001989 -0.100752 -0.003241
-26.461981 36.421059 7.380242
-3.691797 4.995736 1.178557
-0.330954 0.355426 -0.337155
-0.330201 0.354685 -0.319008
-0.345658 0.376297 -0.316237
-0.357001 0.392377 -0.308692
-0.371536 0.412727 -0.303074
-0.392401 0.442088 -0.301343
-0.398292 0.450668 -0.287290
-2.344343 3.158916 -1.573204
-2.468004 3.333401 -1.544699
-2.623558 3.551220 -1.525032
-2.764780 3.750630 -1.485138
-2.949668 4.011242 -1.457025
-3.139153 4.277029 -1.416357
-3.354358 4.580602 -1.370909
-3.597771 4.922186 -1.319864
-3.910202 5.362448 -1.272694
-4.247521 5.783700 -1.199551
-4.692659 6.402822 -1.134767
-5.349270 7.318406 -1.076295
-6.201331 8.506621 -0.998863
-7.195652 9.890500 -0.871083
-9.057318 12.484975 -0.735006
-0.001982 -0.100645 -0.003238
-3.088259 4.193287 -0.006203
-3.123379 4.245195 0.117988
-3.187769 4.336327 0.248420
-3.232033 4.401144 0.381086
-3.374977 4.601946 0.533409
-3.254088 4.436583 0.646405
-0.001982 -0.100645 -0.003238
-26.155319 36.425526 7.351680
-0.001982 -0.100645 -0.003238
-0.325255 0.353291 -0.334084
-0.323442 0.351053 -0.315080
