# This PCD file was generated using the MATLAB® pcwrite function
# from Computer Vision Toolbox®.
# .PCD v.7 - Point Cloud Data file format
VERSION .7
FIELDS x y z
SIZE 4 4 4
TYPE F F F
COUNT 1 1 1
WIDTH 1630
HEIGHT 1
VIEWPOINT 0 0 0 1 0 0 0
POINTS 1630
DATA ascii
0.000283 -0.039988 -0.001085
0.000283 -0.039988 -0.001085
0.000283 -0.039988 -0.001085
0.000283 -0.039988 -0.001085
0.000283 -0.039988 -0.001085
0.000283 -0.039988 -0.001085
0.000283 -0.039988 -0.001085
0.297830 -0.535259 -0.344072
0.304416 -0.546604 -0.333407
0.327276 -0.584919 -0.339331
0.348520 -0.620788 -0.341437
0.384799 -0.681804 -0.355596
0.431041 -0.759288 -0.374769
0.481548 -0.844274 -0.393010
2.517886 -4.251192 -1.919026
2.713769 -4.580657 -1.928559
2.926713 -4.940861 -1.932162
3.188952 -5.384254 -1.945466
3.503708 -5.914120 -1.964980
3.855841 -6.509655 -1.975609
4.266679 -7.201890 -1.979514
4.812800 -8.125056 -2.004578
5.468391 -9.233736 -2.020498
5.794805 -9.690290 -1.854606
7.910166 -13.218474 -2.166860
8.519996 -14.245706 -1.941315
8.116261 -13.583174 -1.479847
8.116031 -13.588121 -1.111152
11.518542 -19.283371 -1.055047
11.370475 -19.051010 -0.523360
0.000287 -0.039884 -0.001082
44.455723 -74.458054 1.980282
0.000287 -0.039884 -0.001082
0.000287 -0.039884 -0.001082
0.000287 -0.039884 -0.001082
0.000287 -0.039884 -0.001082
0.000287 -0.039884 -0.001082
0.000287 -0.039884 -0.001082
0.000287 -0.039884 -0.001082
0.287955 -0.525020 -0.335902
0.301488 -0.548237 -0.333403
0.327738 -0.592770 -0.343086
0.349713 -0.630360 -0.345923
0.382008 -0.685453 -0.356448
0.423031 -0.755418 -0.371507
0.485348 -0.861220 -0.399949
2.495467 -4.268717 -1.920473
2.684860 -4.593336 -1.927180
2.900369 -4.960802 -1.933434
3.161970 -5.408992 -1.947839
3.467812 -5.933047 -1.964416
3.820466 -6.534977 -1.976611
4.226076 -7.230333 -1.980424
4.756812 -8.139875 -2.001231
5.398800 -9.240481 -2.014915
5.786416 -9.803199 -1.869861
7.291967 -12.353409 -2.017543
8.413753 -14.253415 -1.935707
8.011757 -13.585023 -1.474974
8.004007 -13.582681 -1.106780
11.369896 -19.285627 -1.051540
11.309566 -19.198715 -0.525590
0.000294 -0.039777 -0.001080
0.000294 -0.039777 -0.001080
0.000294 -0.039777 -0.001080
0.000294 -0.039777 -0.001080
0.000294 -0.039777 -0.001080
0.000294 -0.039777 -0.001080
0.000294 -0.039777 -0.001080
0.000294 -0.039777 -0.001080
0.000294 -0.039777 -0.001080
0.291147 -0.537001 -0.343044
0.295811 -0.545380 -0.330457
0.322654 -0.591531 -0.341202
0.341716 -0.624612 -0.341430
0.376354 -0.684478 -0.354732
0.422594 -0.764056 -0.374761
0.479535 -0.862381 -0.399173
2.473140 -4.288178 -1.922648
2.664265 -4.618369 -1.931279
2.872052 -4.979450 -1.934063
3.127173 -5.422601 -1.946039
3.438630 -5.961123 -1.967163
3.783785 -6.560768 -1.977611
4.185568 -7.256133 -1.980872
4.710079 -8.167036 -2.001216
5.347696 -9.274728 -2.015640
5.785143 -9.934362 -1.888365
7.225912 -12.403642 -2.018916
8.301223 -14.254967 -1.929169
7.896095 -13.572011 -1.468422
7.901767 -13.587104 -1.103393
11.222295 -19.295694 -1.048409
0.000274 -0.039655 -0.001076
0.000274 -0.039655 -0.001076
0.000274 -0.039655 -0.001076
0.000274 -0.039655 -0.001076
0.000274 -0.039655 -0.001076
34.989326 -60.318428 6.476277
44.878456 -77.417252 10.427041
0.000274 -0.039655 -0.001076
0.000274 -0.039655 -0.001076
0.000274 -0.039655 -0.001076
0.281402 -0.526646 -0.334874
0.294639 -0.549988 -0.332414
0.315939 -0.587152 -0.337440
0.338319 -0.626444 -0.341425
0.371840 -0.684891 -0.353872
0.414779 -0.760038 -0.371501
0.473860 -0.863417 -0.398397
2.453071 -4.308268 -1.925550
2.636923 -4.631912 -1.930585
2.845351 -4.996943 -1.934693
3.094218 -5.434914 -1.944239
3.414973 -5.999066 -1.973222
3.746346 -6.580017 -1.977092
4.142958 -7.278319 -1.980396
4.668498 -8.199901 -2.002867
5.298949 -9.309459 -2.016736
5.791158 -10.076802 -1.909142
7.162504 -12.458682 -2.021127
8.191429 -14.254242 -1.922629
10.100359 -17.581043 -1.896773
10.163335 -17.697479 -1.433034
0.000278 -0.039551 -0.001073
0.000278 -0.039551 -0.001073
0.000278 -0.039551 -0.001073
0.000278 -0.039551 -0.001073
0.000278 -0.039551 -0.001073
44.713036 -78.039444 6.253661
34.727383 -60.644112 6.490437
44.940113 -78.530266 10.543190
32.795914 -57.365753 9.256881
0.000278 -0.039551 -0.001073
0.000278 -0.039551 -0.001073
0.276985 -0.525121 -0.332830
0.294378 -0.556067 -0.335352
0.313748 -0.590332 -0.338376
0.335043 -0.628221 -0.341422
0.367222 -0.685338 -0.353011
0.405206 -0.752771 -0.366612
0.471081 -0.869158 -0.399937
2.425689 -4.317363 -1.923357
2.608569 -4.643643 -1.929205
2.815833 -5.011509 -1.934043
3.063089 -5.452544 -1.944228
3.371121 -6.001791 -1.967690
3.709566 -6.603070 -1.977586
4.104055 -7.307033 -1.981766
4.620938 -8.229053 -2.003267
5.247719 -9.347492 -2.018203
5.792627 -10.210057 -1.928296
7.128071 -12.565026 -2.031709
8.103065 -14.284119 -1.920510
10.112426 -17.830965 -1.917630
10.165873 -17.939487 -1.447866
11.062305 -19.525803 -1.053978
0.000285 -0.039444 -0.001071
0.000285 -0.039444 -0.001071
0.000285 -0.039444 -0.001071
0.000285 -0.039444 -0.001071
0.000285 -0.039444 -0.001071
0.000285 -0.039444 -0.001071
0.000285 -0.039444 -0.001071
0.000285 -0.039444 -0.001071
0.000285 -0.039444 -0.001071
0.000285 -0.039444 -0.001071
0.274923 -0.528130 -0.333845
0.293006 -0.560731 -0.337309
0.313933 -0.598237 -0.342130
0.331539 -0.630089 -0.341418
0.361619 -0.684247 -0.351295
0.408229 -0.767732 -0.373120
0.464342 -0.868603 -0.398389
2.399345 -4.329944 -1.922618
2.586593 -4.666689 -1.932619
2.784431 -5.024721 -1.932751
3.032780 -5.473858 -1.945410
3.330179 -6.009261 -1.963816
3.666771 -6.618091 -1.975543
4.066877 -7.338954 -1.984062
4.575605 -8.258852 -2.004085
5.194969 -9.379173 -2.018557
5.797899 -10.361155 -1.950374
6.668952 -11.916750 -1.920347
8.088352 -14.456573 -1.937235
10.129363 -18.109428 -1.941098
10.173798 -18.196070 -1.463821
11.067474 -19.807142 -1.065584
0.000289 -0.039341 -0.001068
0.000289 -0.039341 -0.001068
0.000289 -0.039341 -0.001068
0.000289 -0.039341 -0.001068
0.000289 -0.039341 -0.001068
33.889278 -60.817955 6.466386
32.700500 -58.733875 7.832101
32.086185 -57.654678 9.243459
0.000289 -0.039341 -0.001068
0.000289 -0.039341 -0.001068
0.271277 -0.528101 -0.332822
0.284924 -0.553145 -0.331423
0.309865 -0.598390 -0.341188
0.326409 -0.628755 -0.339618
0.359636 -0.689362 -0.353003
0.400491 -0.763566 -0.369860
0.453303 -0.859836 -0.392984
2.379110 -4.351756 -1.926251
2.558973 -4.679746 -1.931923
2.761147 -5.050516 -1.936585
2.999569 -5.487773 -1.944205
3.287381 -6.013068 -1.958835
3.627883 -6.637299 -1.975023
4.029435 -7.370667 -1.986356
4.532877 -8.293524 -2.006151
5.145795 -9.417433 -2.020393
5.811050 -10.525460 -1.975050
6.615764 -11.982564 -1.924789
8.092719 -14.660974 -1.958382
10.125311 -18.348576 -1.960460
10.180044 -18.455053 -1.479915
0.000272 -0.039215 -0.001064
0.000272 -0.039215 -0.001064
0.000272 -0.039215 -0.001064
44.644684 -81.036186 2.113620
0.000272 -0.039215 -0.001064
33.846443 -61.520947 4.881748
32.358139 -58.865829 6.238831
0.000272 -0.039215 -0.001064
32.589237 -59.359066 9.486772
0.000272 -0.039215 -0.001064
0.000272 -0.039215 -0.001064
0.261760 -0.517508 -0.324651
0.285223 -0.560844 -0.335341
0.309078 -0.604752 -0.344002
0.324621 -0.633713 -0.341411
0.354912 -0.689794 -0.352143
0.394433 -0.762602 -0.368227
0.445801 -0.857555 -0.390666
2.355238 -4.368949 -1.927696
2.532281 -4.696386 -1.932597
2.729552 -5.063381 -1.935293
2.965360 -5.502013 -1.943000
3.250966 -6.030681 -1.958271
3.592344 -6.665399 -1.977038
3.984013 -7.390930 -1.985419
4.488478 -8.328780 -2.008218
5.090055 -9.447702 -2.020375
5.810207 -10.672207 -1.996150
6.536247 -12.005874 -1.922257
9.222868 -16.938799 -2.255918
10.122306 -18.602297 -1.981128
10.192795 -18.739254 -1.497829
11.125088 -20.466616 -1.093958
0.000276 -0.039111 -0.001061
0.000276 -0.039111 -0.001061
0.000276 -0.039111 -0.001061
0.000276 -0.039111 -0.001061
0.000276 -0.039111 -0.001061
31.845190 -58.755600 6.207093
0.000276 -0.039111 -0.001061
31.879124 -58.891235 9.381641
0.000276 -0.039111 -0.001061
0.000276 -0.039111 -0.001061
0.257385 -0.515880 -0.322607
0.281373 -0.560823 -0.334356
0.300777 -0.597076 -0.338360
0.319476 -0.632298 -0.339610
0.348708 -0.686880 -0.349571
0.387673 -0.759935 -0.365781
0.435825 -0.850232 -0.386032
2.334543 -4.388499 -1.930599
2.505416 -4.710793 -1.932587
2.708593 -5.091789 -1.940408
2.936609 -5.521753 -1.944182
3.215489 -6.047502 -1.957706
3.551628 -6.678432 -1.974996
3.946170 -7.422214 -1.987712
4.444865 -8.358782 -2.009451
5.042046 -9.484539 -2.022212
5.817213 -10.832200 -2.019850
6.464385 -12.037978 -1.921398
9.114064 -16.970535 -2.253095
10.135000 -18.882904 -2.004778
10.205826 -19.022461 -1.515743
29.600779 -55.145153 -2.940048
0.000283 -0.039005 -0.001059
0.000283 -0.039005 -0.001059
44.723183 -83.471581 2.163677
0.000283 -0.039005 -0.001059
0.000283 -0.039005 -0.001059
0.000283 -0.039005 -0.001059
0.000283 -0.039005 -0.001059
31.257778 -58.546165 9.297884
0.000283 -0.039005 -0.001059
0.000283 -0.039005 -0.001059
0.253910 -0.515685 -0.321583
0.275192 -0.556128 -0.330432
0.296014 -0.595531 -0.336479
0.315332 -0.632395 -0.338709
0.345814 -0.690365 -0.350423
0.383513 -0.762043 -0.365777
0.429555 -0.849280 -0.384485
2.311180 -4.405049 -1.932045
2.480233 -4.728369 -1.933947
2.678562 -5.105525 -1.939757
2.908534 -5.545213 -1.946555
3.176351 -6.057323 -1.954935
3.515143 -6.702102 -1.975998
3.910855 -7.458503 -1.991393
4.399051 -8.391825 -2.011101
4.992328 -9.526376 -2.024792
0.000287 -0.038901 -0.001056
6.384947 -12.055670 -1.918307
7.993540 -15.089530 -1.996924
8.070390 -15.247010 -1.613331
10.215941 -19.306446 -1.533657
0.000287 -0.038901 -0.001056
0.000287 -0.038901 -0.001056
0.000287 -0.038901 -0.001056
44.760357 -84.672646 2.188457
0.000287 -0.038901 -0.001056
0.000287 -0.038901 -0.001056
0.000287 -0.038901 -0.001056
30.325073 -57.546951 7.578872
30.107840 -57.183079 9.053640
0.000287 -0.038901 -0.001056
0.000287 -0.038901 -0.001056
0.242275 -0.500307 -0.310349
0.279382 -0.571526 -0.339250
0.293505 -0.598717 -0.337413
0.310975 -0.632564 -0.337807
0.342770 -0.693891 -0.351275
0.381869 -0.768978 -0.368215
0.423881 -0.850069 -0.383709
2.287824 -4.423546 -1.934220
2.456646 -4.749129 -1.936675
2.646687 -5.117857 -1.938463
2.875822 -5.562281 -1.946545
3.141628 -6.075408 -1.954922
3.474648 -6.721025 -1.975477
3.867151 -7.479066 -1.990916
4.351771 -8.418654 -2.011501
4.934861 -9.549617 -2.023660
5.784106 -11.073069 -2.052303
6.313790 -12.088633 -1.917727
7.819308 -14.974674 -1.975493
0.000270 -0.038776 -0.001052
10.218492 -19.582321 -1.550869
0.000270 -0.038776 -0.001052
0.000270 -0.038776 -0.001052
0.000270 -0.038776 -0.001052
0.000270 -0.038776 -0.001052
0.000270 -0.038776 -0.001052
0.000270 -0.038776 -0.001052
0.000270 -0.038776 -0.001052
0.000270 -0.038776 -0.001052
29.729820 -57.262260 9.039018
0.000270 -0.038776 -0.001052
0.000270 -0.038776 -0.001052
0.234876 -0.492421 -0.304221
0.270728 -0.562189 -0.332385
0.291102 -0.601870 -0.338350
0.309194 -0.637415 -0.339599
0.334859 -0.687720 -0.346990
0.374297 -0.764554 -0.364953
0.414976 -0.844182 -0.379847
2.263369 -4.438191 -1.934938
2.433766 -4.771446 -1.940088
2.620850 -5.139653 -1.941016
2.848314 -5.587139 -1.949515
3.106794 -6.093288 -1.954909
3.443146 -6.754581 -1.979520
3.830436 -7.513227 -1.994134
4.305209 -8.446952 -2.012317
4.883597 -9.584788 -2.025127
5.719561 -11.104350 -2.051959
6.237910 -12.112368 -1.915751
7.672107 -14.901097 -1.959879
0.000274 -0.038672 -0.001050
8.726236 -16.964828 -1.339270
0.000274 -0.038672 -0.001050
0.000274 -0.038672 -0.001050
0.000274 -0.038672 -0.001050
0.000274 -0.038672 -0.001050
0.000274 -0.038672 -0.001050
0.000274 -0.038672 -0.001050
0.000274 -0.038672 -0.001050
0.000274 -0.038672 -0.001050
29.131565 -56.908863 8.956645
0.000274 -0.038672 -0.001050
0.000274 -0.038672 -0.001050
0.236950 -0.502851 -0.310342
0.270869 -0.569841 -0.336302
0.285434 -0.598694 -0.335526
0.306531 -0.640654 -0.340492
0.335211 -0.697586 -0.351268
0.369179 -0.765038 -0.364137
0.408675 -0.843172 -0.378301
2.243906 -4.462690 -1.940026
2.403930 -4.782341 -1.938707
2.592284 -5.156251 -1.941646
2.816294 -5.603333 -1.949502
3.072554 -6.114950 -1.956001
3.408776 -6.782834 -1.982043
3.783386 -7.530515 -1.992734
4.262296 -8.486229 -2.015634
4.827728 -9.615238 -2.025479
5.655713 -11.136990 -2.051937
6.162558 -12.142013 -1.914613
7.571958 -14.916605 -1.956131
8.004103 -15.779274 -1.654646
10.248593 -20.210739 -1.591036
0.000278 -0.038568 -0.001047
0.000278 -0.038568 -0.001047
0.000278 -0.038568 -0.001047
32.830437 -64.826248 1.660269
0.000278 -0.038568 -0.001047
30.929001 -61.179195 4.766575
0.000278 -0.038568 -0.001047
0.000278 -0.038568 -0.001047
28.882820 -57.257416 8.984508
0.000278 -0.038568 -0.001047
0.000278 -0.038568 -0.001047
0.231879 -0.499535 -0.307277
0.265347 -0.566639 -0.333357
0.286068 -0.608166 -0.340221
0.301364 -0.639168 -0.338693
0.330600 -0.697776 -0.350407
0.364157 -0.765400 -0.363318
0.403892 -0.845474 -0.378297
2.223363 -4.485416 -1.944383
2.379932 -4.802732 -1.941436
2.559393 -5.164218 -1.939072
2.781648 -5.614237 -1.947702
3.034913 -6.127264 -1.954332
3.364708 -6.791868 -1.978987
3.734088 -7.539872 -1.989486
4.213294 -8.506283 -2.014784
4.776789 -9.647223 -2.026573
5.591533 -11.173784 -2.052566
6.085642 -12.163042 -1.912359
7.471066 -14.936311 -1.952847
0.000285 -0.038462 -0.001045
0.000285 -0.038462 -0.001045
7.845022 -15.715954 -0.824580
0.000285 -0.038462 -0.001045
0.000285 -0.038462 -0.001045
31.995230 -64.118217 1.637325
0.000285 -0.038462 -0.001045
0.000285 -0.038462 -0.001045
0.000285 -0.038462 -0.001045
28.324139 -56.913624 7.407156
28.691315 -57.701092 9.028196
0.000285 -0.038462 -0.001045
0.000285 -0.038462 -0.001045
0.226226 -0.494532 -0.303189
0.260074 -0.563320 -0.330412
0.281306 -0.606471 -0.338337
0.299577 -0.643928 -0.340485
0.326781 -0.699551 -0.350402
0.359283 -0.765674 -0.362500
0.395279 -0.839316 -0.374434
2.199364 -4.501390 -1.945830
2.358269 -4.825963 -1.945534
2.533169 -5.185567 -1.941625
2.753694 -5.638624 -1.950672
3.000857 -6.144013 -1.954319
3.323191 -6.805819 -1.977451
3.689555 -7.555260 -1.988085
4.165320 -8.532067 -2.015184
4.719647 -9.670956 -2.025814
5.529253 -11.204736 -2.052546
6.014304 -12.189631 -1.911220
7.344593 -14.890448 -1.941421
0.000265 -0.038339 -0.001040
0.000265 -0.038339 -0.001040
0.000265 -0.038339 -0.001040
0.000265 -0.038339 -0.001040
0.000265 -0.038339 -0.001040
0.000265 -0.038339 -0.001040
0.000265 -0.038339 -0.001040
30.611942 -62.295788 4.826476
30.543217 -62.210518 6.437675
0.000265 -0.038339 -0.001040
26.851711 -54.768093 8.545421
0.000265 -0.038339 -0.001040
0.000265 -0.038339 -0.001040
0.215315 -0.478730 -0.291958
0.257064 -0.564712 -0.330410
0.276485 -0.604802 -0.336455
0.300009 -0.653575 -0.344972
0.319815 -0.694819 -0.346974
0.357360 -0.772617 -0.364938
0.387432 -0.834831 -0.371344
2.179310 -4.525602 -1.950916
2.330622 -4.841444 -1.946207
2.505125 -5.203371 -1.942895
2.722218 -5.655999 -1.951256
2.969605 -6.171998 -1.957618
3.283303 -6.822989 -1.976930
3.643191 -7.573412 -1.987147
4.116548 -8.560056 -2.016001
4.664956 -9.703990 -2.026908
5.443213 -11.191957 -2.044403
5.936875 -12.214315 -1.909523
7.220630 -14.853822 -1.931158
0.000272 -0.038232 -0.001038
0.000272 -0.038232 -0.001038
7.632605 -15.733673 -0.820865
0.000272 -0.038232 -0.001038
0.000272 -0.038232 -0.001038
0.000272 -0.038232 -0.001038
0.000272 -0.038232 -0.001038
0.000272 -0.038232 -0.001038
28.793619 -59.538586 6.143272
27.606550 -57.110668 7.391133
26.716080 -55.318672 8.606600
28.470215 -59.000568 10.733462
0.000272 -0.038232 -0.001038
0.208206 -0.470577 -0.285829
0.256190 -0.570827 -0.333346
0.273131 -0.606332 -0.336452
0.290155 -0.642335 -0.337783
0.320601 -0.706375 -0.352108
0.350754 -0.769609 -0.362492
0.386687 -0.845332 -0.375198
0.468837 -1.017818 -0.425521
2.306971 -4.863160 -1.949620
2.476867 -5.223161 -1.944805
2.685533 -5.665051 -1.948858
2.935043 -6.190619 -1.958157
3.241323 -6.838762 -1.975902
3.599731 -7.594168 -1.987132
4.069069 -8.587049 -2.016817
4.611728 -9.735911 -2.028002
5.376052 -11.222162 -2.044055
5.895809 -12.308897 -1.918987
7.317410 -15.281330 -1.981146
7.156069 -14.958511 -1.550489
0.000276 -0.038129 -0.001035
7.226923 -15.126332 -0.786866
0.000276 -0.038129 -0.001035
0.000276 -0.038129 -0.001035
0.000276 -0.038129 -0.001035
0.000276 -0.038129 -0.001035
0.000276 -0.038129 -0.001035
29.146439 -61.162922 6.293681
0.000276 -0.038129 -0.001035
27.054626 -56.852013 8.821060
28.100473 -59.101067 10.722236
29.019417 -61.087162 12.710913
0.199101 -0.457682 -0.276639
0.250882 -0.567454 -0.330402
0.267589 -0.602998 -0.333629
0.285141 -0.640655 -0.335983
0.317503 -0.709723 -0.352959
0.347309 -0.773153 -0.363301
0.381249 -0.845773 -0.374422
0.459221 -1.011972 -0.421876
2.281553 -4.881368 -1.951664
2.451799 -5.247516 -1.948639
2.656328 -5.687229 -1.951232
2.896284 -6.200355 -1.955936
3.197986 -6.848453 -1.973352
3.552023 -7.605868 -1.984808
4.021415 -8.613773 -2.017632
4.559129 -9.769321 -2.029467
5.316613 -11.263537 -2.045984
5.875028 -12.448156 -1.935426
7.058784 -14.962183 -1.934362
7.036852 -14.929172 -1.543191
7.034035 -14.929869 -1.158251
7.143305 -15.174818 -0.787214
0.000280 -0.038025 -0.001033
0.000280 -0.038025 -0.001033
0.000280 -0.038025 -0.001033
30.116432 -64.058411 3.274499
0.000280 -0.038025 -0.001033
0.000280 -0.038025 -0.001033
26.666357 -56.852085 7.316970
25.728416 -54.878353 8.491549
0.000280 -0.038025 -0.001033
28.000450 -59.829128 12.415298
0.193766 -0.452474 -0.272552
0.252246 -0.578262 -0.336279
0.268803 -0.614018 -0.339262
0.280156 -0.638940 -0.334183
0.312870 -0.709794 -0.352099
0.346156 -0.781663 -0.366554
0.374244 -0.842814 -0.372103
0.448907 -1.004363 -0.417504
2.255189 -4.897728 -1.953022
2.422546 -5.263162 -1.949268
2.626155 -5.707531 -1.953009
2.865585 -6.227295 -1.959234
3.157067 -6.863130 -1.972323
3.502658 -7.613733 -1.981561
3.970311 -8.633132 -2.016783
4.510427 -9.811384 -2.032788
5.252716 -11.295668 -2.046288
5.872923 -12.630656 -1.958561
7.140492 -15.362599 -1.980858
6.973653 -15.018087 -1.548198
0.000263 -0.037900 -0.001029
0.000263 -0.037900 -0.001029
0.000263 -0.037900 -0.001029
0.000263 -0.037900 -0.001029
0.000263 -0.037900 -0.001029
0.000263 -0.037900 -0.001029
26.729332 -57.744358 4.424659
28.427021 -61.465443 6.290925
0.000263 -0.037900 -0.001029
27.110466 -58.700447 9.059226
26.404766 -57.225513 10.326048
0.000263 -0.037900 -0.001029
0.179881 -0.428472 -0.256217
0.246942 -0.574835 -0.333334
0.264730 -0.613832 -0.338318
0.283403 -0.655055 -0.342262
0.308233 -0.709822 -0.351238
0.341102 -0.781868 -0.365735
0.371915 -0.849888 -0.374414
0.440224 -1.000033 -0.414586
2.232621 -4.922485 -1.957803
2.394772 -5.282094 -1.951180
2.593461 -5.722459 -1.952997
2.830695 -6.245345 -1.959774
3.117716 -6.881104 -1.972309
3.458135 -7.631882 -1.981082
3.923169 -8.661093 -2.018015
4.452417 -9.833506 -2.032026
5.188612 -11.327419 -2.046592
5.875507 -12.827919 -1.983926
7.058739 -15.417809 -1.982691
7.066510 -15.448862 -1.588442
6.914392 -15.123954 -1.167028
26.262817 -57.393505 -2.963891
0.000269 -0.037793 -0.001026
0.000269 -0.037793 -0.001026
0.000269 -0.037793 -0.001026
28.827812 -63.197666 3.213481
0.000269 -0.037793 -0.001026
0.000269 -0.037793 -0.001026
26.372374 -57.950706 7.419086
25.913885 -56.969894 8.768867
0.000269 -0.037793 -0.001026
25.733410 -56.677574 11.698752
0.000274 -0.037689 -0.001024
0.243138 -0.574559 -0.332351
0.261402 -0.615231 -0.338314
0.279834 -0.656561 -0.342257
0.304377 -0.711495 -0.351236
0.335177 -0.780439 -0.364103
0.363446 -0.843499 -0.370552
0.427796 -0.987162 -0.408030
2.205142 -4.938975 -1.959162
2.366847 -5.300872 -1.953090
2.558322 -5.731966 -1.951195
2.793015 -6.260171 -1.959208
3.073477 -6.888237 -1.969251
3.410627 -7.646843 -1.979682
3.871918 -8.684111 -2.017997
4.400624 -9.873993 -2.034974
5.128370 -11.367790 -2.048519
5.890908 -13.064572 -2.015151
7.052663 -15.640921 -2.006157
0.000274 -0.037689 -0.001024
7.476170 -16.608555 -1.278298
26.066708 -57.842381 -2.979182
7.047797 -15.680693 -0.405060
7.064833 -15.733061 -0.006734
7.077511 -15.768466 0.393733
0.000274 -0.037689 -0.001024
0.000274 -0.037689 -0.001024
0.000274 -0.037689 -0.001024
0.000274 -0.037689 -0.001024
25.767517 -57.550926 8.834777
26.314018 -58.825344 10.558902
25.365839 -56.733223 11.679996
0.000278 -0.037586 -0.001021
0.239221 -0.574277 -0.331366
0.257248 -0.615049 -0.337370
0.271073 -0.646668 -0.335967
0.300363 -0.713169 -0.351231
0.330899 -0.782251 -0.364099
0.357897 -0.843833 -0.369776
0.417634 -0.979362 -0.403657
2.177630 -4.953202 -1.959835
2.338651 -5.321659 -1.955643
2.526021 -5.750430 -1.952375
2.756357 -6.274298 -1.958644
3.032771 -6.906250 -1.969237
3.367529 -7.668036 -1.980128
3.822055 -8.706162 -2.017980
4.342328 -9.895490 -2.034214
5.064259 -11.405129 -2.049797
0.000278 -0.037586 -0.001021
6.963167 -15.689646 -2.007058
7.360548 -16.598385 -1.697827
7.364406 -16.614769 -1.275465
0.000278 -0.037586 -0.001021
0.000278 -0.037586 -0.001021
0.000278 -0.037586 -0.001021
0.000278 -0.037586 -0.001021
0.000278 -0.037586 -0.001021
6.900313 -15.642890 1.186461
6.856164 -15.557586 1.576256
6.880529 -15.627376 1.986035
24.659651 -55.938671 8.565234
0.000278 -0.037586 -0.001021
0.000278 -0.037586 -0.001021
0.000261 -0.037460 -0.001017
0.237540 -0.578741 -0.333324
0.252507 -0.613180 -0.335488
0.273292 -0.661206 -0.343147
0.295744 -0.713125 -0.350371
0.323675 -0.777338 -0.360839
0.352523 -0.844095 -0.369001
0.412182 -0.981625 -0.403651
2.152280 -4.972446 -1.962563
2.308929 -5.336666 -1.956272
2.496136 -5.771792 -1.954750
2.721927 -6.293490 -1.959735
2.990081 -6.916408 -1.967195
3.322756 -7.685419 -1.979651
3.773614 -8.731515 -2.018796
4.287816 -9.925635 -2.035308
4.997102 -11.430382 -2.049125
5.900278 -13.495932 -2.071181
6.877682 -15.740303 -2.008425
7.248278 -16.602087 -1.693882
7.254408 -16.623898 -1.272911
0.000261 -0.037460 -0.001017
0.000261 -0.037460 -0.001017
0.000261 -0.037460 -0.001017
27.131262 -62.277390 1.553000
0.000261 -0.037460 -0.001017
6.878807 -15.839596 1.198431
6.755553 -15.571143 1.573692
0.000261 -0.037460 -0.001017
6.818218 -15.737552 2.398827
0.000261 -0.037460 -0.001017
0.000261 -0.037460 -0.001017
0.000265 -0.037356 -0.001014
0.233028 -0.576786 -0.331359
0.249899 -0.616147 -0.336424
0.269690 -0.662657 -0.343143
0.290419 -0.711388 -0.348654
0.317946 -0.775710 -0.359205
0.347864 -0.845995 -0.368997
0.402340 -0.973616 -0.399279
2.129019 -4.996748 -1.967345
2.282100 -5.358476 -1.959464
2.465321 -5.791232 -1.956526
2.686595 -6.310719 -1.960273
2.947370 -6.926296 -1.965152
3.275572 -7.697153 -1.977787
3.719647 -8.744013 -2.016697
4.233109 -9.955487 -2.036402
4.937667 -11.473370 -2.051703
5.912896 -13.738690 -2.103239
6.765099 -15.728472 -2.001883
7.139341 -16.612347 -1.690681
7.139821 -16.621317 -1.269517
0.000265 -0.037356 -0.001014
0.000265 -0.037356 -0.001014
0.000265 -0.037356 -0.001014
0.000265 -0.037356 -0.001014
27.641342 -64.519554 3.247679
0.000265 -0.037356 -0.001014
6.725523 -15.748811 1.587792
6.633320 -15.548292 1.966171
6.638935 -15.568830 2.367198
6.652804 -15.616220 2.776407
23.989948 -56.270164 11.496937
0.000269 -0.037253 -0.001012
0.228547 -0.574793 -0.329394
0.245172 -0.614212 -0.334541
0.260498 -0.650925 -0.335955
0.287929 -0.716257 -0.350362
0.316411 -0.784210 -0.362458
0.341768 -0.844479 -0.367450
0.393310 -0.967227 -0.395634
2.100270 -5.010915 -1.968018
2.252879 -5.374911 -1.960734
2.433617 -5.808743 -1.957706
2.650073 -6.328222 -1.960812
2.910642 -6.950184 -1.967166
3.228560 -7.712775 -1.976849
3.667145 -8.764018 -2.016263
4.177964 -9.989373 -2.038235
4.877893 -11.516047 -2.054281
5.874046 -13.873697 -2.118558
6.664534 -15.743309 -1.998831
7.039093 -16.642086 -1.689532
7.053723 -16.692677 -1.271728
27.271486 -64.464027 -3.286413
27.353373 -64.719978 -1.654399
0.000269 -0.037253 -0.001012
0.000269 -0.037253 -0.001012
0.000269 -0.037253 -0.001012
29.484663 -69.996284 5.282876
0.000269 -0.037253 -0.001012
0.000269 -0.037253 -0.001012
0.000269 -0.037253 -0.001012
0.000269 -0.037253 -0.001012
0.000269 -0.037253 -0.001012
0.000276 -0.037146 -0.001009
0.228047 -0.582467 -0.333312
0.241741 -0.615545 -0.334537
0.255481 -0.649052 -0.334155
0.284020 -0.717800 -0.350358
0.311397 -0.784217 -0.361639
0.334137 -0.839572 -0.364360
0.385801 -0.964204 -0.393445
2.072318 -5.024565 -1.968692
2.226471 -5.398201 -1.964568
2.401066 -5.824324 -1.958290
2.610830 -6.336156 -1.958590
2.870024 -6.964929 -1.966644
3.182053 -7.725731 -1.975447
3.616845 -8.780638 -2.015412
4.123062 -10.014265 -2.038587
4.808145 -11.541029 -2.053607
5.791188 -13.899876 -2.117416
6.558972 -15.753145 -1.995080
7.051535 -16.949961 -1.716533
7.073555 -17.010996 -1.292862
0.000276 -0.037146 -0.001009
0.000276 -0.037146 -0.001009
0.000276 -0.037146 -0.001009
0.000276 -0.037146 -0.001009
0.000276 -0.037146 -0.001009
0.000276 -0.037146 -0.001009
0.000276 -0.037146 -0.001009
6.497524 -15.728058 1.979434
0.000276 -0.037146 -0.001009
0.000276 -0.037146 -0.001009
0.000276 -0.037146 -0.001009
0.000256 -0.037024 -0.001005
0.222992 -0.578774 -0.330366
0.240515 -0.621672 -0.337351
0.252064 -0.650367 -0.334152
0.278043 -0.714303 -0.347786
0.306399 -0.784204 -0.360821
0.332441 -0.848143 -0.367441
0.375504 -0.954225 -0.388343
2.046387 -5.043262 -1.971418
2.199833 -5.421340 -1.968400
2.371289 -5.846778 -1.961259
2.575242 -6.352773 -1.959129
2.830806 -6.983034 -1.967137
3.136249 -7.740221 -1.974508
3.561960 -8.794603 -2.013729
4.066013 -10.043922 -2.039681
4.753575 -11.591320 -2.057809
5.708240 -13.925574 -2.116274
6.463534 -15.771047 -1.992725
7.086243 -17.303991 -1.748381
7.055912 -17.247038 -1.307688
26.272240 -64.150711 -3.254578
0.000256 -0.037024 -0.001005
28.852623 -70.587242 -0.025596
0.000256 -0.037024 -0.001005
0.000256 -0.037024 -0.001005
25.415873 -62.337502 4.682227
0.000256 -0.037024 -0.001005
0.000256 -0.037024 -0.001005
6.312371 -15.548068 2.347012
6.311539 -15.561416 2.746721
6.316970 -15.582478 3.154872
0.000263 -0.036917 -0.001003
0.219132 -0.578372 -0.329383
0.235066 -0.618072 -0.334530
0.254436 -0.666652 -0.342229
0.273347 -0.714158 -0.346926
0.301423 -0.784163 -0.360004
0.324160 -0.841417 -0.363578
0.370748 -0.958056 -0.389067
2.014028 -5.046149 -1.967985
2.166430 -5.430677 -1.967106
2.339620 -5.867736 -1.963632
2.541672 -6.374524 -1.961322
2.790977 -7.003198 -1.968137
3.090385 -7.754441 -1.973569
3.517261 -8.829390 -2.017043
4.009748 -10.070703 -2.040402
4.684936 -11.619226 -2.057787
5.625182 -13.950773 -2.115132
6.357392 -15.777695 -1.988740
7.052203 -17.515530 -1.765501
6.944710 -17.257666 -1.305413
0.000263 -0.036917 -0.001003
23.043201 -57.292889 -1.453761
19.675764 -48.949951 -0.017930
19.718515 -49.105358 1.209778
28.035147 -69.871086 3.484065
0.000263 -0.036917 -0.001003
0.000263 -0.036917 -0.001003
22.849854 -57.097420 7.166910
6.264153 -15.687031 2.362592
6.201493 -15.546075 2.737690
6.162658 -15.464435 3.123478
0.000267 -0.036813 -0.001000
0.213424 -0.573029 -0.325458
0.234323 -0.625870 -0.338284
0.249495 -0.664684 -0.340430
0.272101 -0.722327 -0.350346
0.299115 -0.790855 -0.362441
0.320886 -0.846601 -0.365118
0.363397 -0.954882 -0.386879
1.986518 -5.061053 -1.969342
2.140909 -5.457068 -1.972222
2.308777 -5.888093 -1.966003
2.507239 -6.394311 -1.962964
2.750092 -7.017245 -1.967615
3.046584 -7.773813 -1.974015
3.458679 -8.829370 -2.012444
3.953328 -10.097185 -2.041124
4.619611 -11.649585 -2.058415
5.543472 -13.979144 -2.114547
6.257109 -15.789959 -1.985688
7.091678 -17.909269 -1.801074
6.873362 -17.367748 -1.310707
0.000267 -0.036813 -0.001000
0.000267 -0.036813 -0.001000
0.000267 -0.036813 -0.001000
0.000267 -0.036813 -0.001000
0.000267 -0.036813 -0.001000
0.000267 -0.036813 -0.001000
24.818939 -63.000008 6.291249
22.606701 -57.446056 7.194346
0.000267 -0.036813 -0.001000
6.090408 -15.526323 2.728010
0.000267 -0.036813 -0.001000
0.000271 -0.036710 -0.000997
0.216061 -0.588765 -0.334277
0.228344 -0.620512 -0.334521
0.248469 -0.672657 -0.344018
0.267482 -0.722083 -0.349486
0.290795 -0.782250 -0.357553
0.317554 -0.851761 -0.366656
0.358102 -0.956847 -0.386875
1.956175 -5.068794 -1.967961
2.110320 -5.470953 -1.972850
2.279193 -5.911877 -1.969570
2.471980 -6.412138 -1.964055
2.709150 -7.031068 -1.967094
3.002669 -7.792934 -1.974460
3.403043 -8.836268 -2.009511
3.898144 -10.127014 -2.042588
4.557680 -11.688762 -2.060667
5.175390 -13.274791 -2.003211
5.124996 -13.159296 -1.650502
7.096456 -18.226126 -1.828817
0.000271 -0.036710 -0.000997
0.000271 -0.036710 -0.000997
0.000271 -0.036710 -0.000997
0.000271 -0.036710 -0.000997
0.000271 -0.036710 -0.000997
24.518736 -63.206703 3.137403
0.000271 -0.036710 -0.000997
0.000271 -0.036710 -0.000997
0.000271 -0.036710 -0.000997
0.000271 -0.036710 -0.000997
6.025269 -15.623603 2.739043
5.973902 -15.506650 3.117992
0.000278 -0.036603 -0.000995
0.210358 -0.583368 -0.330351
0.226875 -0.626651 -0.337335
0.242864 -0.668948 -0.341319
0.262883 -0.721816 -0.348625
0.286490 -0.783801 -0.357549
0.313506 -0.855185 -0.367423
0.352119 -0.957037 -0.386142
1.926484 -5.078115 -1.967265
2.079659 -5.484682 -1.973479
2.248038 -5.931939 -1.971942
2.437263 -6.431546 -1.965697
2.671565 -7.053674 -1.969107
2.959338 -7.813642 -1.975368
3.347443 -8.842825 -2.006579
3.843465 -10.158390 -2.044423
4.494025 -11.723918 -2.062268
5.086975 -13.272843 -1.998443
5.036492 -13.155095 -1.646289
5.156944 -13.482740 -1.349141
0.000278 -0.036603 -0.000995
0.000278 -0.036603 -0.000995
0.000278 -0.036603 -0.000995
0.000278 -0.036603 -0.000995
0.000278 -0.036603 -0.000995
0.000278 -0.036603 -0.000995
23.595024 -61.912338 4.608637
0.000278 -0.036603 -0.000995
22.067553 -58.027325 7.235089
0.000278 -0.036603 -0.000995
0.000278 -0.036603 -0.000995
5.866568 -15.492905 3.108409
0.000260 -0.036477 -0.000991
0.208447 -0.587728 -0.332308
0.223478 -0.627842 -0.337332
0.237347 -0.665226 -0.338622
0.257018 -0.718129 -0.346052
0.282049 -0.785376 -0.357544
0.304260 -0.844791 -0.362020
0.344851 -0.953710 -0.383953
1.897185 -5.091103 -1.967937
2.051569 -5.505329 -1.976670
2.216055 -5.950046 -1.973719
2.403311 -6.456589 -1.968994
2.632445 -7.072450 -1.970105
2.915184 -7.836432 -1.976738
3.293751 -8.858756 -2.005728
3.780577 -10.173541 -2.042919
4.429409 -11.756870 -2.063544
4.995032 -13.267473 -1.993115
4.953149 -13.163342 -1.643706
5.080799 -13.515819 -1.349487
8.422253 -22.404608 -1.679881
5.278266 -14.061741 -0.704554
5.279861 -14.080744 -0.354062
0.000260 -0.036477 -0.000991
0.000260 -0.036477 -0.000991
18.431486 -49.194492 2.430727
0.000260 -0.036477 -0.000991
22.804211 -60.985466 6.049581
0.000260 -0.036477 -0.000991
23.270954 -62.331345 9.323565
0.000260 -0.036477 -0.000991
5.793248 -15.568676 3.116941
0.000265 -0.036374 -0.000988
0.206370 -0.592101 -0.334264
0.219956 -0.629044 -0.337328
0.231737 -0.661473 -0.335924
0.254856 -0.724625 -0.348618
0.279007 -0.790309 -0.359169
0.300076 -0.848189 -0.362786
0.342631 -0.964371 -0.387589
1.869354 -5.105379 -1.969296
2.015805 -5.508412 -1.973454
2.184196 -5.971929 -1.976686
2.369612 -6.479243 -1.971740
2.591319 -7.089667 -1.970598
2.870881 -7.854814 -1.977183
3.244225 -8.881145 -2.006542
3.726175 -10.206109 -2.045124
4.362542 -11.790256 -2.064821
4.907728 -13.266215 -1.988627
4.864801 -13.164449 -1.640191
4.994494 -13.528814 -1.347783
5.190667 -14.066190 -1.051742
5.185232 -14.066462 -0.703213
5.181880 -14.072326 -0.353046
26.235064 -71.138794 -0.024721
5.186445 -14.107121 0.342477
0.000265 -0.036374 -0.000988
22.989754 -62.509583 4.633022
0.000265 -0.036374 -0.000988
0.000265 -0.036374 -0.000988
0.000265 -0.036374 -0.000988
21.651873 -59.094551 10.313216
0.000265 -0.036374 -0.000988
0.000269 -0.036270 -0.000986
0.197216 -0.576809 -0.324459
0.214728 -0.625214 -0.334505
0.227527 -0.661013 -0.335022
0.248532 -0.719131 -0.345188
0.275900 -0.795226 -0.360792
0.294137 -0.846327 -0.361239
0.334258 -0.957398 -0.383944
1.840110 -5.115944 -1.969284
1.987142 -5.524822 -1.975364
2.153616 -5.991117 -1.979059
2.334404 -6.498088 -1.973380
2.554507 -7.111197 -1.972611
2.828425 -7.878421 -1.979013
3.198081 -8.908212 -2.008606
3.666001 -10.217419 -2.043250
4.296123 -11.818795 -2.065448
4.825332 -13.277399 -1.986090
4.779586 -13.166010 -1.636909
4.912611 -13.546022 -1.346639
5.092737 -14.048867 -1.048212
5.086612 -14.047158 -0.700747
5.095220 -14.078382 -0.352455
5.087004 -14.070882 -0.005637
0.000269 -0.036270 -0.000986
0.000269 -0.036270 -0.000986
24.972857 -69.123650 5.113001
22.593742 -62.575405 6.181816
0.000269 -0.036270 -0.000986
0.000269 -0.036270 -0.000986
0.000269 -0.036270 -0.000986
20.763084 -57.726627 11.531198
0.000251 -0.036145 -0.000982
0.193603 -0.576144 -0.323475
0.212630 -0.629621 -0.336381
0.227045 -0.670584 -0.339508
0.245813 -0.723844 -0.346897
0.269073 -0.789810 -0.357532
0.293325 -0.858273 -0.365863
0.327689 -0.955684 -0.382483
1.812097 -5.129906 -1.970643
1.954229 -5.532504 -1.974071
2.124383 -6.017699 -1.983816
2.296524 -6.509522 -1.972816
2.517583 -7.136622 -1.975638
2.785163 -7.899986 -1.980382
3.145390 -8.926943 -2.008589
3.608113 -10.246282 -2.044711
4.234220 -11.853630 -2.067373
4.737659 -13.273184 -1.981324
0.000251 -0.036145 -0.000982
4.829720 -13.552520 -1.344563
0.000251 -0.036145 -0.000982
0.000251 -0.036145 -0.000982
4.991443 -14.043352 -0.350829
0.000251 -0.036145 -0.000982
4.987613 -14.055566 0.339875
0.000251 -0.036145 -0.000982
0.000251 -0.036145 -0.000982
0.000251 -0.036145 -0.000982
0.000251 -0.036145 -0.000982
21.070883 -59.559029 8.853136
0.000251 -0.036145 -0.000982
20.470411 -57.958160 11.553852
0.000256 -0.036041 -0.000979
0.189225 -0.573873 -0.321510
0.209109 -0.630771 -0.336377
0.224454 -0.675179 -0.341300
0.241135 -0.723480 -0.346037
0.265320 -0.792956 -0.358341
0.287829 -0.858148 -0.365087
0.320396 -0.952240 -0.380295
1.781489 -5.136605 -1.969262
1.922818 -5.547470 -1.975339
2.091997 -6.039116 -1.986785
2.265521 -6.540691 -1.978321
2.478589 -7.160473 -1.978159
2.741092 -7.919461 -1.981289
3.094128 -8.944801 -2.008570
3.557639 -10.290946 -2.049515
4.166641 -11.885893 -2.068650
0.000256 -0.036041 -0.000979
4.795808 -13.697942 -1.696165
4.748771 -13.578959 -1.344351
4.897981 -14.012235 -1.041151
0.000256 -0.036041 -0.000979
4.896358 -14.038651 -0.349956
0.000256 -0.036041 -0.000979
0.000256 -0.036041 -0.000979
22.247822 -63.840107 3.129281
22.470909 -64.515526 4.752665
21.888388 -62.914070 6.189814
20.759398 -59.737415 7.370910
20.787514 -59.851391 8.878793
20.606224 -59.396049 10.302526
20.211336 -58.323612 11.602755
0.000262 -0.035934 -0.000977
0.186692 -0.576495 -0.322486
0.203954 -0.626848 -0.333555
0.215520 -0.661131 -0.333213
0.238331 -0.728154 -0.347744
0.260223 -0.792674 -0.357523
0.283101 -0.859690 -0.365083
0.316311 -0.957472 -0.381746
1.749967 -5.143423 -1.967881
1.892270 -5.561936 -1.976609
2.053665 -6.040110 -1.983193
2.230609 -6.564829 -1.981618
2.439377 -7.180008 -1.979665
2.696160 -7.941018 -1.982658
3.043720 -8.970300 -2.010217
3.485940 -10.280124 -2.043187
4.099617 -11.913326 -2.069277
4.733568 -13.765575 -2.046546
4.773332 -13.888622 -1.716371
4.717349 -13.741551 -1.357746
4.800689 -13.999439 -1.038042
4.947653 -14.434945 -0.715673
4.796803 -14.011662 -0.348565
0.000262 -0.035934 -0.000977
0.000262 -0.035934 -0.000977
0.000262 -0.035934 -0.000977
22.129818 -64.770317 4.761809
0.000262 -0.035934 -0.000977
20.825834 -61.059113 7.519298
0.000262 -0.035934 -0.000977
0.000262 -0.035934 -0.000977
0.000262 -0.035934 -0.000977
0.000267 -0.035831 -0.000974
0.179021 -0.564278 -0.314641
0.201568 -0.631275 -0.335429
0.217528 -0.679224 -0.342189
0.234916 -0.731115 -0.348596
0.255861 -0.794049 -0.357518
0.279386 -0.864743 -0.366622
0.308632 -0.952118 -0.378830
1.722310 -5.158648 -1.969923
1.860420 -5.572643 -1.976597
2.020278 -6.055365 -1.984374
2.196002 -6.586562 -1.984362
2.401279 -7.203021 -1.982186
2.652431 -7.961843 -1.984026
2.993764 -8.987051 -2.010199
3.421212 -10.276975 -2.038717
4.033487 -11.950421 -2.071527
4.715351 -13.972607 -2.073300
4.806773 -14.259091 -1.758670
4.708514 -13.984265 -1.378966
4.707437 -13.988949 -1.035213
4.823189 -14.348446 -0.709923
0.000267 -0.035831 -0.000974
0.000267 -0.035831 -0.000974
0.000267 -0.035831 -0.000974
4.729623 -14.118995 0.687284
21.950125 -65.473518 4.804289
0.000267 -0.035831 -0.000974
20.453831 -61.117638 7.511992
20.751959 -62.079288 9.173137
0.000267 -0.035831 -0.000974
0.000267 -0.035831 -0.000974
0.000247 -0.035708 -0.000970
0.171659 -0.551916 -0.306795
0.199351 -0.635635 -0.337304
0.212806 -0.676929 -0.340389
0.229764 -0.728913 -0.346879
0.251064 -0.793635 -0.356701
0.274744 -0.866179 -0.366617
0.301588 -0.948458 -0.376641
1.693658 -5.168072 -1.969910
1.828490 -5.583157 -1.976584
1.988546 -6.075855 -1.987341
2.165986 -6.618701 -1.990418
2.364165 -7.229478 -1.985719
2.609316 -7.980109 -1.984932
2.943384 -9.007761 -2.011014
3.357253 -10.281443 -2.035728
3.968118 -11.976402 -2.072153
4.729801 -14.276772 -2.114556
4.811685 -14.540132 -1.790037
4.891724 -14.798483 -1.456665
4.614372 -13.969453 -1.031823
4.732518 -14.342813 -0.708303
0.000247 -0.035708 -0.000970
0.000247 -0.035708 -0.000970
0.000247 -0.035708 -0.000970
4.615305 -14.045324 0.682405
21.013416 -63.860950 4.677303
21.542742 -65.545044 6.411623
20.090527 -61.200336 7.507929
0.000247 -0.035708 -0.000970
0.000247 -0.035708 -0.000970
5.006211 -15.320810 3.024353
0.000253 -0.035601 -0.000967
0.166519 -0.546152 -0.302870
0.194260 -0.631632 -0.334483
0.208006 -0.674635 -0.338590
0.225233 -0.728412 -0.346020
0.245997 -0.793265 -0.355883
0.267675 -0.860611 -0.363527
0.299202 -0.958935 -0.380277
1.664910 -5.183297 -1.971952
1.797664 -5.597087 -1.977853
1.953733 -6.087108 -1.987329
2.131015 -6.644144 -1.994267
2.325657 -7.252074 -1.988239
2.563926 -8.000915 -1.986302
2.892479 -9.032411 -2.012661
3.294600 -10.295476 -2.034595
3.903541 -12.012075 -2.074403
4.669126 -14.377939 -2.125408
4.530789 -13.961137 -1.715359
4.496439 -13.871813 -1.362697
4.519910 -13.960432 -1.029134
0.000253 -0.035601 -0.000967
4.514549 -13.968490 -0.345427
0.000253 -0.035601 -0.000967
0.000253 -0.035601 -0.000967
4.522857 -14.035433 0.680675
0.000253 -0.035601 -0.000967
20.942871 -65.017685 6.347852
0.000253 -0.035601 -0.000967
0.000253 -0.035601 -0.000967
4.903578 -15.295095 2.627361
0.000253 -0.035601 -0.000967
0.000258 -0.035498 -0.000965
0.158186 -0.530415 -0.293064
0.192306 -0.637694 -0.337296
0.204204 -0.675747 -0.338585
0.222209 -0.733068 -0.347728
0.243285 -0.799778 -0.358321
0.265016 -0.869117 -0.366609
0.291451 -0.953475 -0.377360
1.635230 -5.192690 -1.971941
1.764637 -5.607559 -1.977841
1.918934 -6.102128 -1.988508
2.094648 -6.661697 -1.995908
2.288029 -7.282245 -1.992787
2.520332 -8.022859 -1.988131
2.844134 -9.060007 -2.015141
3.230141 -10.297307 -2.031237
3.837219 -12.049976 -2.076979
4.590640 -14.417679 -2.127332
4.446261 -13.981997 -1.714635
4.454133 -14.023384 -1.374972
0.000258 -0.035498 -0.000965
0.000258 -0.035498 -0.000965
0.000258 -0.035498 -0.000965
4.423354 -13.976666 -0.005355
4.413745 -13.963106 0.333853
4.418002 -13.993345 0.677370
20.315577 -64.259964 4.689060
20.288073 -64.250328 6.261487
0.000258 -0.035498 -0.000965
0.000258 -0.035498 -0.000965
0.000258 -0.035498 -0.000965
4.797628 -15.284314 3.005927
0.000264 -0.035391 -0.000962
0.155859 -0.532874 -0.294041
0.188319 -0.637006 -0.336353
0.199451 -0.673393 -0.336786
0.217651 -0.732502 -0.346868
0.236690 -0.794070 -0.355059
0.258011 -0.863468 -0.363518
0.286704 -0.956801 -0.378083
1.606607 -5.205503 -1.973297
1.731938 -5.615702 -1.977187
1.882818 -6.109319 -1.987301
2.054177 -6.666208 -1.993686
2.250834 -7.309990 -1.996829
2.481185 -8.059443 -1.993654
2.793847 -9.081745 -2.016372
3.162855 -10.289329 -2.026022
3.767956 -12.071774 -2.076955
4.508316 -14.445667 -2.127583
0.000264 -0.035391 -0.000962
4.319499 -13.875708 -1.357984
4.335433 -13.935165 -1.023475
4.326427 -13.923165 -0.683653
4.332891 -13.960919 -0.343915
4.327529 -13.952134 -0.005311
4.319814 -13.944263 0.332826
4.323341 -13.972661 0.675174
20.214138 -65.242897 4.752382
19.584524 -63.289284 6.156784
19.319305 -62.509197 7.626430
19.115423 -61.887505 9.077753
4.705354 -15.278667 2.615121
4.697564 -15.272135 2.998192
0.000268 -0.035287 -0.000960
0.149409 -0.521983 -0.287176
0.185373 -0.639662 -0.337289
0.197855 -0.681251 -0.340373
0.214682 -0.737090 -0.348576
0.234464 -0.802310 -0.358312
0.254847 -0.870120 -0.365828
0.278688 -0.949425 -0.374439
1.574612 -5.207375 -1.970547
1.700319 -5.627293 -1.977815
1.846703 -6.116313 -1.986096
2.018174 -6.685173 -1.995879
2.215630 -7.344943 -2.002899
2.439436 -8.088398 -1.997331
2.744514 -9.106932 -2.018434
3.103764 -10.307282 -2.026003
3.701455 -12.102597 -2.078555
4.430473 -14.488338 -2.130066
4.308574 -14.108052 -1.723882
4.321816 -14.168760 -1.384237
4.241892 -13.915915 -1.020225
4.231775 -13.899968 -0.681282
0.000268 -0.035287 -0.000960
0.000268 -0.035287 -0.000960
0.000268 -0.035287 -0.000960
4.226717 -13.943685 0.672610
19.918242 -65.621574 4.771669
0.000268 -0.035287 -0.000960
0.000268 -0.035287 -0.000960
0.000268 -0.035287 -0.000960
0.000268 -0.035287 -0.000960
4.590407 -15.234845 2.985651
0.000251 -0.035162 -0.000956
0.137592 -0.492675 -0.269529
0.182401 -0.642301 -0.338225
0.194654 -0.683986 -0.341267
0.209582 -0.734724 -0.346858
0.229520 -0.801784 -0.357494
0.248444 -0.866154 -0.363509
0.275007 -0.956250 -0.376618
1.545868 -5.219848 -1.971904
1.667550 -5.635080 -1.977162
1.815989 -6.141368 -1.990852
1.979845 -6.696583 -1.995865
2.177349 -7.370461 -2.006433
2.391347 -8.096605 -1.995929
2.692781 -9.124364 -2.018832
3.043980 -10.322992 -2.025610
3.637001 -12.140619 -2.081454
4.348292 -14.517303 -2.130596
4.933782 -16.488110 -2.011741
4.480263 -14.994480 -1.462484
4.151589 -13.905613 -1.017677
4.142128 -13.891464 -0.679661
0.000251 -0.035162 -0.000956
4.230983 -14.215499 -0.005324
0.000251 -0.035162 -0.000956
4.136874 -13.935147 0.671062
0.000251 -0.035162 -0.000956
19.319008 -65.073891 6.308686
18.888784 -63.706249 7.745757
0.000251 -0.035162 -0.000956
0.000251 -0.035162 -0.000956
4.595881 -15.575693 3.047424
0.000255 -0.035058 -0.000953
0.000255 -0.035058 -0.000953
0.176393 -0.634747 -0.333522
0.189893 -0.681544 -0.339466
0.205560 -0.735818 -0.346855
0.223943 -0.799522 -0.355862
0.244692 -0.871007 -0.365048
0.269190 -0.955934 -0.375886
1.515073 -5.228827 -1.971892
1.635795 -5.646301 -1.977790
1.779192 -6.146124 -1.989050
1.939734 -6.706256 -1.995297
2.140448 -7.401343 -2.011487
2.261580 -7.828341 -1.926196
2.640973 -9.147593 -2.020479
2.982881 -10.340774 -2.025590
3.568312 -12.165033 -2.082079
4.262823 -14.544638 -2.130846
4.907205 -16.748680 -2.040079
4.308321 -14.727587 -1.433942
0.000255 -0.035058 -0.000953
4.051582 -13.878548 -0.677852
0.000255 -0.035058 -0.000953
0.000255 -0.035058 -0.000953
0.000255 -0.035058 -0.000953
4.042755 -13.910666 0.668776
18.570238 -63.857410 4.627421
0.000255 -0.035058 -0.000953
0.000255 -0.035058 -0.000953
4.403350 -15.216744 2.215894
0.000255 -0.035058 -0.000953
0.000255 -0.035058 -0.000953
0.000262 -0.034952 -0.000951
0.000262 -0.034952 -0.000951
0.174308 -0.640778 -0.336338
0.185565 -0.680839 -0.338565
0.200395 -0.733435 -0.345138
0.220527 -0.804189 -0.357485
0.239217 -0.870558 -0.364272
0.262183 -0.952031 -0.373698
1.485648 -5.239167 -1.972565
1.601946 -5.653977 -1.977136
1.746028 -6.167486 -1.992614
1.901815 -6.719070 -1.995836
2.096690 -7.413804 -2.011471
2.201236 -7.786844 -1.912791
2.212210 -7.835740 -1.726902
2.929897 -10.380368 -2.030019
3.483182 -12.140383 -2.074260
4.180269 -14.572647 -2.131375
4.800801 -16.752573 -2.037023
4.190298 -14.645582 -1.423475
0.000262 -0.034952 -0.000951
0.000262 -0.034952 -0.000951
0.000262 -0.034952 -0.000951
0.000262 -0.034952 -0.000951
0.000262 -0.034952 -0.000951
3.944483 -13.878591 0.666118
0.000262 -0.034952 -0.000951
0.000262 -0.034952 -0.000951
0.000262 -0.034952 -0.000951
4.303952 -15.199830 2.209811
4.291627 -15.176350 2.579960
4.331409 -15.336885 2.990546
0.000242 -0.034829 -0.000946
0.000242 -0.034829 -0.000946
0.169385 -0.636563 -0.333515
0.182817 -0.685237 -0.340357
0.197836 -0.739694 -0.347703
0.214116 -0.798296 -0.354224
0.234405 -0.871815 -0.364268
0.257884 -0.956992 -0.375148
1.455649 -5.247535 -1.972553
1.569554 -5.663006 -1.977124
1.707095 -6.164463 -1.988426
1.862240 -6.726095 -1.994716
2.052603 -7.420066 -2.009934
2.149792 -7.774922 -1.906773
0.000242 -0.034829 -0.000946
0.000242 -0.034829 -0.000946
3.406450 -12.135444 -2.070014
4.099149 -14.605911 -2.132742
4.983281 -17.772390 -2.157676
4.088869 -14.608021 -1.417484
3.878153 -13.866117 -1.009609
3.869486 -13.853579 -0.674329
0.000242 -0.034829 -0.000946
3.864962 -13.865002 -0.005112
0.000242 -0.034829 -0.000946
0.000242 -0.034829 -0.000946
4.212004 -15.157269 1.092189
0.000242 -0.034829 -0.000946
4.209945 -15.190406 1.833855
4.206454 -15.187978 2.204564
4.245469 -15.349044 2.605236
0.000242 -0.034829 -0.000946
0.000247 -0.034725 -0.000944
0.000247 -0.034725 -0.000944
0.165908 -0.637412 -0.333511
0.177638 -0.680989 -0.337659
0.192816 -0.737227 -0.345986
0.212135 -0.808223 -0.358290
0.227146 -0.864142 -0.360406
0.252588 -0.958367 -0.375145
1.425596 -5.255724 -1.972541
1.537112 -5.671850 -1.977111
1.675273 -6.186983 -1.992587
1.825176 -6.742163 -1.996357
0.000247 -0.034725 -0.000944
2.107730 -7.796463 -1.909066
2.111976 -7.822746 -1.718542
0.000247 -0.034725 -0.000944
3.335630 -12.150941 -2.069339
4.011489 -14.615817 -2.130762
4.877350 -17.787285 -2.156014
3.993784 -14.590882 -1.413541
3.788415 -13.851566 -1.006921
3.780850 -13.842761 -0.672707
3.774965 -13.840015 -0.337357
0.000247 -0.034725 -0.000944
0.000247 -0.034725 -0.000944
0.000247 -0.034725 -0.000944
0.000247 -0.034725 -0.000944
4.109215 -15.144421 1.455361
4.115296 -15.187450 1.830640
4.108237 -15.171715 2.198759
4.126729 -15.260733 2.586169
0.000247 -0.034725 -0.000944
0.000253 -0.034619 -0.000941
0.000253 -0.034619 -0.000941
0.161501 -0.634825 -0.331627
0.174845 -0.685346 -0.339451
0.189701 -0.741703 -0.347694
0.206268 -0.804034 -0.355845
0.224281 -0.872465 -0.363488
0.246301 -0.956098 -0.373684
1.396458 -5.267366 -1.973897
1.505585 -5.684155 -1.978379
1.638821 -6.192728 -1.991380
1.786519 -6.752462 -1.996343
1.966405 -7.439274 -2.008888
2.069475 -7.832816 -1.915051
2.076081 -7.868694 -1.726019
2.084068 -7.909813 -1.538185
0.000253 -0.034619 -0.000941
3.922803 -14.621355 -2.128222
4.721421 -17.615444 -2.131797
3.904732 -14.594312 -1.411649
0.000253 -0.034619 -0.000941
3.690935 -13.825605 -0.670806
3.687663 -13.832458 -0.336626
0.000253 -0.034619 -0.000941
3.688811 -13.865454 0.327287
3.710343 -13.965567 0.667219
0.000253 -0.034619 -0.000941
3.976600 -14.996435 1.438906
4.014682 -15.160849 1.824646
3.999146 -15.112686 2.186845
4.075841 -15.423399 2.609828
0.000253 -0.034619 -0.000941
0.000257 -0.034515 -0.000939
0.000257 -0.034515 -0.000939
0.158050 -0.635641 -0.331623
0.171545 -0.687960 -0.340345
0.184719 -0.739188 -0.345979
0.202294 -0.806869 -0.356654
0.219432 -0.873620 -0.363483
0.241438 -0.959178 -0.374406
1.364890 -5.269770 -1.971833
1.473012 -5.692623 -1.978366
1.601866 -6.196401 -1.989576
1.746820 -6.758805 -1.995224
1.926156 -7.459734 -2.011408
2.037213 -7.893476 -1.927038
2.380399 -9.230677 -2.022882
0.000257 -0.034515 -0.000939
3.185308 -12.148275 -2.062470
3.826130 -14.595707 -2.121221
3.661231 -13.987733 -1.689507
3.633551 -13.901791 -1.342484
3.622933 -13.870910 -1.005185
0.000257 -0.034515 -0.000939
3.602057 -13.830135 -0.336035
3.618368 -13.902304 -0.005024
0.000257 -0.034515 -0.000939
3.687903 -14.208960 0.677894
3.635317 -14.016717 1.005160
3.916885 -15.121141 1.448751
3.920030 -15.154773 1.821199
3.921182 -15.169874 2.191873
0.000257 -0.034515 -0.000939
0.000257 -0.034515 -0.000939
0.000264 -0.034408 -0.000936
0.000264 -0.034408 -0.000936
0.153264 -0.631301 -0.328801
0.168659 -0.692288 -0.342136
0.180202 -0.738373 -0.345118
0.196348 -0.802632 -0.354208
0.214147 -0.872981 -0.362707
0.235670 -0.958652 -0.373675
1.335168 -5.283124 -1.973873
1.441332 -5.704579 -1.979635
1.568695 -6.214673 -1.992544
1.709253 -6.778269 -1.997968
1.883351 -7.470596 -2.011392
2.096435 -8.324134 -2.029510
2.332018 -9.269195 -2.028275
2.641434 -10.509901 -2.039555
3.114003 -12.160572 -2.061471
3.729815 -14.579680 -2.115613
3.573402 -13.979611 -1.685992
3.548189 -13.901164 -1.340406
3.521005 -13.814734 -0.999554
0.000264 -0.034408 -0.000936
3.511677 -13.807924 -0.334974
