# This PCD file was generated using the MATLAB® pcwrite function
# from Computer Vision Toolbox®.
# .PCD v.7 - Point Cloud Data file format
VERSION .7
FIELDS x y z
SIZE 4 4 4
TYPE F F F
COUNT 1 1 1
WIDTH 1646
HEIGHT 1
VIEWPOINT 0 0 0 1 0 0 0
POINTS 1646
DATA ascii
0.000448 -0.094267 -0.002925
0.000448 -0.094267 -0.002925
0.000448 -0.094267 -0.002925
-2.694998 7.943893 1.193066
0.000448 -0.094267 -0.002925
0.000448 -0.094267 -0.002925
-0.183546 0.457606 -0.347443
-0.189701 0.476751 -0.340598
-0.204851 0.522615 -0.348116
-0.230806 0.601435 -0.370472
-0.297565 0.803331 -0.449944
-0.563065 1.603934 -0.798387
-1.310858 3.862179 -1.741341
-1.394488 4.119514 -1.733484
-1.489205 4.408392 -1.726308
-1.596094 4.737209 -1.719324
-1.717811 5.111831 -1.710491
-1.858316 5.540976 -1.701095
-2.009836 6.007630 -1.681198
-2.195749 6.576032 -1.663017
-2.246994 6.739865 -1.528196
-2.427384 7.297226 -1.464574
-2.704173 8.025245 -1.404408
-2.976885 8.849351 -1.322700
-3.572449 10.651160 -1.319214
-4.085093 12.207507 -1.205494
-4.780023 14.308722 -1.056220
0.000452 -0.094163 -0.002922
-8.016843 24.118460 -0.581909
-9.253560 27.870451 0.012281
-9.488860 28.615767 0.714716
-10.886158 32.882740 1.634514
0.000452 -0.094163 -0.002922
0.000452 -0.094163 -0.002922
-2.623943 7.879353 0.983114
-2.677117 8.045929 1.205901
0.000452 -0.094163 -0.002922
-2.554045 7.690465 1.545099
-0.183019 0.466927 -0.352538
-0.186393 0.477931 -0.340598
-0.205125 0.535645 -0.354681
-0.226796 0.602861 -0.370471
-0.295187 0.813737 -0.454217
-0.550426 1.598554 -0.794327
-1.289768 3.875037 -1.743657
-1.369629 4.125818 -1.732763
-1.462685 4.415226 -1.725632
-1.568819 4.748226 -1.719972
-1.688995 5.125392 -1.711689
-1.822286 5.540721 -1.697804
-1.977054 6.026585 -1.683231
-2.159703 6.596094 -1.664869
0.000435 -0.094038 -0.002917
-2.387181 7.318671 -1.466067
-2.670229 8.080183 -1.411213
-2.935153 8.896576 -1.327157
-3.528980 10.728330 -1.326166
-4.032672 12.287746 -1.211064
-4.720443 14.408206 -1.061516
-5.643288 17.264116 -0.844710
-7.315244 22.433758 -0.540659
-9.323244 28.634874 0.012600
-9.475005 29.137945 0.726320
-10.785874 33.222507 1.648187
-2.685872 8.208556 0.611792
0.000435 -0.094038 -0.002917
-2.587713 7.924679 0.986829
-2.613168 8.008564 1.198062
-2.518730 7.725326 1.351113
-2.515790 7.725749 1.549168
-0.176115 0.456618 -0.345401
-0.180966 0.472458 -0.336681
-0.199340 0.530196 -0.350927
-0.221150 0.599160 -0.367779
-0.291056 0.818975 -0.455925
-0.540129 1.600075 -0.793514
-1.264085 3.873714 -1.739813
-1.343592 4.128401 -1.730592
-1.436688 4.423678 -1.725640
-1.539763 4.753678 -1.718702
-1.657753 5.131500 -1.710509
-1.788060 5.545731 -1.696164
-1.949360 6.061954 -1.689815
-2.120545 6.606668 -1.664423
-2.262493 7.063988 -1.594595
-2.344437 7.332397 -1.466083
-2.627915 8.110567 -1.413817
-2.896618 8.954947 -1.333277
0.000439 -0.093934 -0.002914
-3.975224 12.354506 -1.215341
-4.665354 14.524605 -1.068058
-5.548693 17.313580 -0.845579
-7.170814 22.429905 -0.539622
-7.200699 22.538023 0.009230
-9.443935 29.624699 0.737020
-2.655214 8.272966 0.410947
-2.645267 8.246839 0.613463
-2.625833 8.195825 0.812848
-2.564269 8.011539 0.995679
-2.582569 8.074571 1.205587
0.000439 -0.093934 -0.002914
-2.424001 7.592164 1.519818
-0.172938 0.457730 -0.345399
-0.179799 0.480262 -0.340594
-0.195216 0.529758 -0.349987
-0.214481 0.592002 -0.363295
-0.284706 0.817290 -0.454215
-0.527891 1.596383 -0.790265
-1.240126 3.877520 -1.738280
-1.319258 4.136178 -1.730599
-1.411534 4.437614 -1.727698
-1.507871 4.749901 -1.714236
-1.628196 5.142887 -1.711114
-1.755703 5.560019 -1.697276
-1.912153 6.067643 -1.688311
-2.081910 6.622969 -1.665356
0.000443 -0.093830 -0.002911
-2.302067 7.351916 -1.467207
-2.593032 8.165215 -1.420622
-2.860644 9.028771 -1.341617
-3.422507 10.827242 -1.333372
-3.921890 12.436212 -1.221098
-4.599369 14.618796 -1.072939
-5.452494 17.358694 -0.846265
-7.019524 22.402239 -0.538040
-7.049023 22.525101 0.009146
-9.472964 30.322041 0.752935
0.000443 -0.093830 -0.002911
0.000443 -0.093830 -0.002911
-2.656827 8.470007 0.838233
-2.558716 8.159091 1.011994
0.000443 -0.093830 -0.002911
-2.411949 7.705458 1.342623
-2.394200 7.653055 1.529085
-0.170188 0.460516 -0.346415
-0.176895 0.483091 -0.341571
-0.194097 0.539447 -0.354676
-0.212506 0.600207 -0.366880
-0.279471 0.819036 -0.454213
-0.515474 1.590770 -0.786203
-1.218693 3.891969 -1.741367
-1.295979 4.147390 -1.732059
-1.385416 4.445776 -1.727705
-1.483817 4.771297 -1.718720
-1.596342 5.146805 -1.709339
-1.724801 5.575671 -1.698937
-1.874937 6.073097 -1.686807
-2.047707 6.649842 -1.669052
0.000448 -0.093727 -0.002908
-2.287825 7.455063 -1.484948
-2.560240 8.233401 -1.429689
-2.820854 9.086855 -1.347739
-3.376866 10.910133 -1.341019
-3.864391 12.514578 -1.226485
-4.538498 14.723355 -1.078652
-5.357612 17.419521 -0.847688
-6.872886 22.386959 -0.536776
-6.902263 22.511873 0.009064
-9.465522 30.945848 0.766948
0.000448 -0.093727 -0.002908
0.000448 -0.093727 -0.002908
0.000448 -0.093727 -0.002908
-2.423386 7.884924 0.976514
-2.382235 7.759546 1.154712
-2.304234 7.507423 1.306182
0.000448 -0.093727 -0.002908
-0.169573 0.469801 -0.351510
-0.172176 0.479179 -0.338632
-0.186501 0.527119 -0.347169
-0.211206 0.610055 -0.371360
-0.273676 0.818995 -0.453358
-0.506804 1.597309 -0.787829
-1.195887 3.897050 -1.740603
-1.271521 4.154880 -1.732067
-1.360329 4.457393 -1.729080
-1.451978 4.767157 -1.714254
-1.567218 5.159670 -1.710539
-1.691028 5.581933 -1.697847
-1.836090 6.072784 -1.683785
-2.009954 6.665372 -1.669985
-2.207422 7.339018 -1.646909
-2.283805 7.606180 -1.511924
-2.513681 8.247667 -1.429707
-2.771926 9.116332 -1.349700
-3.330240 10.978393 -1.347047
-3.813965 12.602830 -1.232980
-4.477746 14.831538 -1.084641
-5.266587 17.472233 -0.848835
-6.727234 22.372652 -0.535558
-6.759903 22.511124 0.008988
-9.485541 31.645863 0.782907
0.000428 -0.093604 -0.002904
-2.462230 8.167790 0.604274
0.000428 -0.093604 -0.002904
-2.367186 7.864589 0.972298
-2.356702 7.839694 1.164472
-2.272557 7.566486 1.313971
-2.358995 7.863115 1.565068
-0.167185 0.474195 -0.353548
-0.168288 0.478636 -0.337651
-0.185803 0.538481 -0.352796
-0.206019 0.607975 -0.369566
-0.268264 0.820718 -0.453357
-0.499634 1.609078 -0.791893
-1.172183 3.904178 -1.740611
-1.244723 4.157095 -1.729895
-1.333565 4.463450 -1.728405
-1.427368 4.790350 -1.719377
-1.531749 5.154331 -1.705790
-1.657758 5.589828 -1.697309
-1.800551 6.087394 -1.684809
-1.970983 6.676935 -1.669999
-2.169504 7.368626 -1.650658
0.000434 -0.093498 -0.002901
-2.473633 8.294731 -1.435221
-2.717160 9.126560 -1.348887
-3.275150 11.034288 -1.351460
-3.754294 12.678849 -1.238183
-4.418697 14.949068 -1.091325
-5.171823 17.535885 -0.850443
0.000434 -0.093498 -0.002901
-6.608255 22.476866 0.008898
-9.489490 32.359940 0.799094
-12.852588 43.919243 2.158363
-2.410137 8.166631 0.603133
-2.411510 8.182336 0.805678
-2.387074 8.109373 1.000508
-2.292157 7.788592 1.154958
-2.287837 7.784220 1.349079
-2.342934 7.984669 1.586214
-0.157701 0.453769 -0.340295
-0.164992 0.479702 -0.337649
-0.179713 0.531163 -0.348104
-0.202466 0.610977 -0.370461
-0.263996 0.825834 -0.455065
-0.492337 1.620809 -0.795958
-1.147628 3.905661 -1.738306
-1.221774 4.169681 -1.732081
-1.306270 4.467552 -1.727046
-1.396097 4.787671 -1.715550
-1.502018 5.165001 -1.706396
-1.626057 5.603088 -1.698420
-1.764385 6.095902 -1.684316
-1.928234 6.675183 -1.666792
-2.126494 7.381111 -1.650673
-2.289519 7.964954 -1.576958
-2.438428 8.354462 -1.442996
-2.668943 9.159282 -1.351405
-3.226392 11.106523 -1.357952
-3.698837 12.763525 -1.244310
-4.354052 15.051094 -1.096899
-5.080121 17.600058 -0.852144
-6.442547 22.375038 -0.533896
-6.464374 22.466600 0.008819
-9.525758 33.194622 0.818267
0.000439 -0.093394 -0.002898
-2.386071 8.262968 0.609156
-2.328858 8.073656 0.793707
-2.269594 7.876666 0.970396
-2.246721 7.801781 1.154941
-2.241342 7.793582 1.348412
-2.278113 7.933859 1.573573
-0.157841 0.466377 -0.347427
-0.162165 0.482433 -0.338626
-0.178995 0.542500 -0.353730
-0.197905 0.610505 -0.369564
-0.261145 0.836148 -0.459338
-0.485931 1.636049 -0.801646
-1.124065 3.910519 -1.737544
-1.199205 4.183922 -1.734995
-1.279456 4.473279 -1.726373
-1.367955 4.795732 -1.715560
-1.472726 5.177341 -1.707596
-1.591677 5.606913 -1.696780
-1.729218 6.107923 -1.684835
-1.886084 6.675033 -1.664045
-2.082886 7.391456 -1.650274
-2.324662 8.271654 -1.634221
-2.391342 8.374169 -1.443984
-2.821687 9.904679 -1.457654
-3.173693 11.167097 -1.363058
-3.640918 12.842241 -1.249883
-4.292128 15.166285 -1.103446
0.000443 -0.093290 -0.002895
0.000443 -0.093290 -0.002895
-6.321906 22.459282 0.008742
-9.544088 33.999958 0.836678
-2.364140 8.364655 0.411028
0.000443 -0.093290 -0.002895
-2.282852 8.090886 0.794063
-2.149017 7.621832 0.937719
-2.166153 7.688791 1.136489
0.000443 -0.093290 -0.002895
-2.287050 8.145804 1.612540
-0.154523 0.467422 -0.347425
-0.160588 0.490214 -0.342540
-0.175227 0.543670 -0.353728
-0.193248 0.610055 -0.368666
-0.257700 0.844719 -0.462757
-0.477596 1.646061 -0.804897
-1.103224 3.927909 -1.742171
-1.174555 4.190867 -1.735003
-1.253826 4.486337 -1.728431
-1.340261 4.805454 -1.716209
-1.444379 5.193227 -1.709984
-1.557318 5.614510 -1.696241
-1.695018 6.123497 -1.686363
-1.842802 6.674936 -1.661299
-2.044353 7.420413 -1.654025
-2.323871 8.459519 -1.668218
-2.349987 8.420668 -1.449498
-2.768109 9.942364 -1.460727
-3.118421 11.227973 -1.368166
-3.579393 12.919392 -1.255274
-4.229547 15.293576 -1.110823
-4.892430 17.729746 -0.855640
-5.793974 21.028797 -0.500565
-6.168922 22.427059 0.008649
-9.541549 34.787037 0.854559
-5.628448 20.497620 1.003144
0.000449 -0.093184 -0.002892
-2.245090 8.138581 0.797407
-2.130644 7.730023 0.949367
-2.155267 7.831559 1.155465
-2.178291 7.921944 1.365940
-2.214851 8.067926 1.594702
-0.150921 0.466710 -0.346405
-0.155975 0.486167 -0.339601
-0.168450 0.532810 -0.347160
-0.186085 0.599167 -0.362388
-0.245269 0.820123 -0.449933
-0.466620 1.645359 -0.803274
-1.079316 3.928771 -1.739867
-1.148407 4.192259 -1.732831
-1.226472 4.489971 -1.727072
-1.312048 4.813211 -1.716217
-1.411936 5.194187 -1.707615
-1.520953 5.610486 -1.692400
-1.657694 6.127659 -1.684859
-1.805294 6.691184 -1.662694
-1.998724 7.428740 -1.653211
-2.238802 8.344084 -1.643121
-2.309595 8.460435 -1.454043
-2.718511 9.988845 -1.465188
-3.064461 11.279852 -1.372348
-3.523237 13.000842 -1.261216
-4.167250 15.416046 -1.117926
-4.807333 17.810940 -0.858261
-5.667568 21.044548 -0.500207
0.000430 -0.093061 -0.002887
-9.578632 35.707146 0.875760
-5.407116 20.145721 0.984358
-5.328769 19.881039 1.452907
-2.212099 8.211525 0.803178
-2.090668 7.761482 0.951683
-2.110091 7.845872 1.155727
-2.106383 7.843296 1.350312
-2.167794 8.080652 1.594684
-0.145855 0.461061 -0.342325
-0.151650 0.483820 -0.337641
-0.166979 0.542449 -0.351849
-0.186057 0.615920 -0.370456
-0.242132 0.830405 -0.454207
-0.457063 1.649889 -0.804088
-1.056368 3.938781 -1.741415
-1.121554 4.193706 -1.730659
-1.199106 4.493423 -1.725715
-1.282905 4.821012 -1.716227
-1.381490 5.206261 -1.708816
-1.490006 5.626690 -1.694614
-1.618309 6.128123 -1.682345
-1.764719 6.695923 -1.661328
-1.946533 7.406152 -1.645759
-2.190163 8.356939 -1.643140
-2.295529 8.613408 -1.477661
-2.669993 10.040841 -1.470480
-3.009543 11.345965 -1.378150
-3.459650 13.075557 -1.266421
-4.098629 15.519025 -1.123642
-4.709085 17.870167 -0.859782
0.000434 -0.092958 -0.002884
0.000434 -0.092958 -0.002884
-9.595938 36.643684 0.897236
-5.310122 20.266493 0.988640
0.000434 -0.092958 -0.002884
-2.171245 8.251221 0.805775
-2.025523 7.702726 0.943034
0.000434 -0.092958 -0.002884
-2.094808 7.987210 1.372734
-2.128621 8.129647 1.601720
-0.143955 0.467002 -0.345381
-0.149181 0.488160 -0.339598
-0.162873 0.541792 -0.350909
-0.179311 0.606707 -0.365074
-0.236357 0.830142 -0.453351
-0.448399 1.657925 -0.806525
-1.034053 3.948484 -1.742961
-1.099615 4.211031 -1.735026
-1.174521 4.507638 -1.728456
-1.255978 4.833925 -1.718155
-1.353299 5.223485 -1.711801
-1.462750 5.657661 -1.701228
-1.584362 6.144952 -1.684379
-1.726552 6.709857 -1.662262
-1.901381 7.409756 -1.644116
-2.134706 8.342841 -1.637988
-2.375811 9.133099 -1.563349
-2.613061 10.061906 -1.471335
-2.955477 11.409398 -1.383720
-3.398096 13.151314 -1.271812
-4.030438 15.627515 -1.129775
-4.618436 17.947424 -0.862221
-5.410586 21.072796 -0.499447
-5.740286 22.379490 0.008410
-9.670792 37.822132 0.924632
0.000438 -0.092854 -0.002881
0.000438 -0.092854 -0.002881
-2.105990 8.196159 0.799221
-1.987916 7.743260 0.946517
-1.987834 7.748944 1.138096
-2.167851 8.471772 1.453040
-2.078815 8.132365 1.599846
-0.143241 0.477935 -0.351496
-0.146259 0.490815 -0.340575
-0.158352 0.539403 -0.349032
-0.175714 0.609568 -0.365969
-0.231931 0.835113 -0.455059
-0.436220 1.653566 -0.803277
-1.011648 3.958053 -1.744509
-1.072558 4.208361 -1.731401
-1.145856 4.509171 -1.726415
-1.228039 4.843021 -1.718804
-1.319893 5.220179 -1.708243
-1.424433 5.649547 -1.696287
-1.547018 6.148448 -1.682875
-1.686170 6.720100 -1.662276
-1.855893 7.417215 -1.643303
-2.081308 8.342104 -1.635422
-2.323585 9.150554 -1.564017
-2.558063 10.098477 -1.474410
-2.900304 11.470662 -1.389059
-3.335791 13.226789 -1.277203
-3.958395 15.736444 -1.135908
-4.534304 18.053297 -0.866045
0.000442 -0.092750 -0.002878
-5.596657 22.372507 0.008333
-9.552231 38.278946 0.934347
-12.466063 50.059734 2.432177
-2.098251 8.363134 0.610591
-2.052924 8.193157 0.797708
-1.955649 7.806758 0.952799
-1.967403 7.866452 1.153440
-1.986449 7.955819 1.363267
-2.053522 8.233992 1.617277
-0.139448 0.477219 -0.350474
-4.126315 16.745377 -9.732513
-0.155856 0.545583 -0.351844
-0.170689 0.607233 -0.364175
-0.223998 0.825994 -0.449930
-0.423987 1.647277 -0.799215
-0.988031 3.965881 -1.745286
-1.049078 4.219992 -1.733590
-1.119320 4.515792 -1.726424
-1.198257 4.844600 -1.716895
-1.289287 5.227810 -1.708252
-1.390433 5.654026 -1.695198
-1.510584 6.155471 -1.682383
-1.648714 6.737361 -1.664132
-1.811168 7.416159 -1.640829
-2.029119 8.332698 -1.631377
-2.270122 9.170051 -1.565006
-2.508740 10.151617 -1.479981
-2.841539 11.528294 -1.393937
-3.268957 13.296752 -1.282041
-3.889859 15.852128 -1.142596
-4.465315 18.239170 -0.873651
0.000425 -0.092625 -0.002873
-5.458199 22.367558 0.008260
-9.706268 39.908951 0.972630
-12.160028 50.060921 2.428661
-2.064545 8.437249 0.615069
-2.043123 8.355570 0.812255
-1.887249 7.723384 0.941351
-1.906209 7.814239 1.144207
-1.968279 8.078181 1.382111
-2.000454 8.224770 1.613174
-0.132260 0.461367 -0.340278
0.000429 -0.092521 -0.002870
-0.153940 0.553432 -0.355595
-0.168440 0.615242 -0.367760
-0.219545 0.830901 -0.451638
-0.414818 1.653363 -0.800841
-0.480111 1.929583 -0.869847
-1.022520 4.218828 -1.730690
-1.093209 4.524106 -1.727115
-1.168927 4.847834 -1.715626
-1.257747 5.231534 -1.707073
-1.358199 5.665791 -1.696310
-1.476788 6.173585 -1.684924
-1.608464 6.743062 -1.663226
-1.771515 7.447843 -1.645409
-1.965148 8.285357 -1.619947
-2.224303 9.207632 -1.569231
-2.455211 10.189116 -1.483334
-2.785820 11.582740 -1.398583
-3.207518 13.371083 -1.287432
-3.818719 15.961700 -1.148871
0.000429 -0.092521 -0.002870
0.000429 -0.092521 -0.002870
-5.073729 21.322525 0.007674
-9.570685 40.334274 0.981581
-11.867272 50.114685 2.427780
0.000429 -0.092521 -0.002870
0.000429 -0.092521 -0.002870
-1.928686 8.101600 0.985651
-1.901875 8.000640 1.169605
-1.835904 7.732498 1.321609
-1.963289 8.282196 1.622066
-0.132088 0.475649 -0.348432
-3.927353 16.771563 -9.720849
-0.146908 0.540688 -0.348088
-0.163423 0.612849 -0.365966
-0.213238 0.828768 -0.449928
-0.405170 1.657614 -0.801655
-0.466859 1.927112 -0.867539
-0.997761 4.228559 -1.732151
-1.067026 4.532265 -1.727807
-1.140015 4.856633 -1.716276
-1.226982 5.242729 -1.708274
-1.323271 5.666115 -1.694121
-1.438277 6.176684 -1.683421
-1.568202 6.748531 -1.662320
-1.725868 7.448484 -1.643351
-1.912053 8.275569 -1.615902
-2.173118 9.238082 -1.572161
-2.404048 10.237926 -1.488350
-2.728168 11.649474 -1.404618
-3.141984 13.452077 -1.293378
-3.749183 16.082682 -1.155975
-4.308371 18.525137 -0.884897
0.000433 -0.092417 -0.002867
-5.056944 21.813366 0.007848
0.000433 -0.092417 -0.002867
0.000433 -0.092417 -0.002867
-5.030665 21.789061 1.577906
0.000433 -0.092417 -0.002867
-1.882692 8.124639 0.987033
-1.879540 8.117747 1.184948
-1.890628 8.179750 1.395408
-1.914863 8.299562 1.623161
-0.128444 0.474842 -0.347410
-3.830945 16.797388 -9.722848
-0.145993 0.553692 -0.354653
-0.158190 0.608672 -0.363273
-0.208328 0.831856 -0.450782
-0.395891 1.663594 -0.803281
-0.457651 1.940673 -0.872161
-0.973269 4.236159 -1.732886
-1.040374 4.538440 -1.727816
-1.111508 4.863234 -1.716284
-1.197908 5.257267 -1.710664
-1.290515 5.675631 -1.694683
-1.402995 6.188750 -1.684446
-1.525373 6.742351 -1.658653
-1.684110 7.466046 -1.645027
-1.862122 8.278878 -1.614443
-2.117603 9.242857 -1.570889
-2.348890 10.271027 -1.491148
-2.671031 11.711618 -1.410189
-3.076632 13.526380 -1.298771
-3.675271 16.189735 -1.162112
-4.226101 18.660841 -0.890199
0.000437 -0.092314 -0.002865
-4.349875 19.258720 0.006538
-4.334742 19.223629 0.466138
-4.316850 19.176054 0.927354
0.000437 -0.092314 -0.002865
-4.288901 19.099926 1.841251
-1.881183 8.340961 1.011738
-1.823609 8.089901 1.179345
-1.850654 8.225284 1.401242
-1.845607 8.216561 1.604951
-0.127394 0.485757 -0.353525
-3.733620 16.819262 -9.722888
-0.141117 0.549448 -0.351838
-0.155686 0.616659 -0.366858
-0.201457 0.826088 -0.447362
-0.385771 1.665950 -0.803282
-0.446731 1.946996 -0.873703
-0.947921 4.239976 -1.732167
-1.013687 4.544462 -1.727825
-1.083356 4.871515 -1.716933
-1.165046 5.254858 -1.707700
-1.257681 5.684949 -1.695245
-1.366395 6.194947 -1.683952
-1.490547 6.772063 -1.663729
-1.638061 7.464249 -1.642554
-1.776447 8.116666 -1.581218
-2.063799 9.255002 -1.570910
-2.297268 10.321233 -1.496443
-2.455135 11.055637 -1.330285
0.000441 -0.092210 -0.002862
-3.605836 16.321812 -1.170050
-4.161249 18.882076 -0.899560
0.000441 -0.092210 -0.002862
-4.895719 22.288486 0.007940
0.000441 -0.092210 -0.002862
0.000441 -0.092210 -0.002862
0.000441 -0.092210 -0.002862
-4.177874 19.122498 1.841018
-1.816996 8.279957 1.003090
-4.739993 21.764351 3.151035
-1.833633 8.378655 1.425287
0.000441 -0.092210 -0.002862
-0.121185 0.473143 -0.345367
-3.635077 16.835457 -9.719992
-0.137783 0.552078 -0.352775
-0.150840 0.614148 -0.365065
-0.195795 0.825583 -0.446505
-0.377543 1.677184 -0.807347
-0.436898 1.958663 -0.877556
-0.921797 4.240006 -1.729995
-0.986577 4.548491 -1.727150
-1.054737 4.877765 -1.716944
-1.133826 5.259709 -1.707117
-1.224794 5.694088 -1.695807
-1.330965 6.206608 -1.684977
-1.449378 6.773023 -1.661903
-1.592891 7.466002 -1.640912
-1.655872 7.778718 -1.514378
-1.635620 7.524333 -1.278979
-1.605518 7.390817 -1.074794
-1.587681 7.320611 -0.884438
-1.619287 7.481350 -0.721736
-1.718091 7.950537 -0.574071
-1.761708 8.169072 -0.392804
-4.748365 22.210035 -0.521555
0.000422 -0.092088 -0.002857
-10.023193 47.107765 1.140054
-10.720202 50.478733 2.432156
0.000422 -0.092088 -0.002857
-4.066308 19.142464 1.840598
0.000422 -0.092088 -0.002857
-7.605046 35.976051 5.195263
0.000422 -0.092088 -0.002857
-4.608020 21.840647 4.230582
-0.119320 0.480662 -0.349444
-3.687214 17.573248 -10.131157
-0.133727 0.551257 -0.351834
-0.148230 0.622120 -0.368649
-0.191231 0.830334 -0.448215
-0.368466 1.684806 -0.809786
-0.425077 1.961251 -0.877558
-0.898718 4.254467 -1.733637
-0.959829 4.554197 -1.727160
-1.025334 4.880154 -1.715675
-1.104139 5.271863 -1.708912
-1.190673 5.697388 -1.694718
-1.295430 6.218057 -1.686002
-1.409412 6.779444 -1.661459
-1.551312 7.484755 -1.643002
-1.608950 7.780535 -1.512917
0.000428 -0.091981 -0.002854
0.000428 -0.091981 -0.002854
0.000428 -0.091981 -0.002854
0.000428 -0.091981 -0.002854
0.000428 -0.091981 -0.002854
-1.553518 7.404507 -0.356297
-1.906167 9.122385 -0.216926
-4.621401 22.265287 0.007792
-9.956453 48.159599 1.163990
-10.808814 52.384933 2.520760
0.000428 -0.091981 -0.002854
-3.963847 19.206629 1.844470
0.000428 -0.091981 -0.002854
-7.446844 36.261894 5.230080
-1.720491 8.324031 1.412566
-4.695421 22.914446 4.432471
-0.115916 0.481469 -0.349443
-3.578183 17.574394 -10.119454
-0.128859 0.546955 -0.349018
-0.142216 0.614332 -0.364165
-0.183975 0.822707 -0.443940
-0.359349 1.694230 -0.813039
-0.413991 1.969284 -0.879869
-0.871449 4.252528 -1.730739
-0.931869 4.558070 -1.726486
-0.996929 4.891832 -1.717603
-1.071940 5.276574 -1.708327
-1.155541 5.700686 -1.693630
-1.257222 6.221953 -1.685004
-1.370146 6.795445 -1.663314
-1.506321 7.493930 -1.643020
-1.563738 7.797770 -1.514412
0.000432 -0.091877 -0.002851
0.000432 -0.091877 -0.002851
0.000432 -0.091877 -0.002851
0.000432 -0.091877 -0.002851
0.000432 -0.091877 -0.002851
-1.465670 7.198248 -0.346168
0.000432 -0.091877 -0.002851
-1.645769 8.116693 0.001032
-10.024301 49.988312 1.206616
-10.532035 52.622631 2.528994
0.000432 -0.091877 -0.002851
-4.000618 19.989611 1.917050
-4.788294 23.987938 2.879765
-7.239075 36.346371 5.235848
-6.134084 30.842510 5.193445
-4.273743 21.501921 4.155114
-0.112282 0.480552 -0.348422
-3.474366 17.584520 -10.113625
-0.126534 0.554729 -0.352769
-0.139194 0.620525 -0.366853
-0.181301 0.836257 -0.449922
-0.348717 1.694596 -0.812227
-0.403171 1.977178 -0.882181
-0.847526 4.259259 -1.731473
-0.906159 4.569010 -1.728544
-0.969090 4.897439 -1.717612
-1.041567 5.280699 -1.707744
-1.123629 5.714907 -1.695843
-1.221211 6.225189 -1.684005
-1.329715 6.799501 -1.662409
-1.463551 7.500401 -1.642622
-1.520767 7.812279 -1.515538
-1.407259 7.067894 -1.198198
-1.402522 7.050692 -1.022409
-1.400738 7.055097 -0.849832
0.000439 -0.091771 -0.002848
-1.415153 7.149381 -0.515363
0.000439 -0.091771 -0.002848
-1.436097 7.277591 -0.173697
0.000439 -0.091771 -0.002848
-1.639278 8.352088 0.200823
-3.923798 20.136253 0.967571
-3.890018 20.000420 1.437706
-3.885740 19.998077 1.915694
-5.791280 29.906393 3.584251
-4.665297 24.120853 3.474195
-4.730884 24.485497 4.121024
-4.503481 23.349377 4.505853
-0.109093 0.481286 -0.348419
-3.372337 17.586597 -10.103878
-0.123242 0.557257 -0.353706
-0.135867 0.624901 -0.368645
-0.174595 0.830280 -0.446503
-0.337750 1.693094 -0.810602
-0.393322 1.988570 -0.886034
-0.823822 4.271487 -1.734389
-0.878959 4.572413 -1.727870
-0.939990 4.901180 -1.716983
-1.010603 5.286711 -1.707755
-1.090528 5.723280 -1.696406
-1.184084 6.228407 -1.683009
-1.291076 6.812891 -1.663804
-1.419558 7.514837 -1.643883
0.000419 -0.091648 -0.002843
-1.364667 7.062184 -1.195949
-1.358391 7.043187 -1.020206
0.000419 -0.091648 -0.002843
-1.360420 7.074909 -0.680024
0.000419 -0.091648 -0.002843
-1.377667 7.187147 -0.344908
0.000419 -0.091648 -0.002843
0.000419 -0.091648 -0.002843
-1.431806 7.510435 0.180307
-3.795406 20.095804 0.964510
-3.771628 20.008863 1.436672
-3.763882 20.007193 1.914336
-3.775779 20.091089 2.407859
-4.525378 24.145493 3.473854
0.000419 -0.091648 -0.002843
-3.792167 20.279919 3.911127
-0.104437 0.475265 -0.344340
-3.265476 17.596088 -10.098051
-0.119086 0.556366 -0.352765
-0.130004 0.617019 -0.364160
-0.168806 0.829640 -0.445646
-0.325471 1.684324 -0.805729
-0.383631 2.005498 -0.892196
-0.796254 4.267245 -1.730764
-0.851056 4.571947 -1.725830
-0.911025 4.910501 -1.718272
-0.978346 5.290854 -1.707171
-1.056309 5.725768 -1.695319
-1.146227 6.233534 -1.682516
-1.250936 6.818397 -1.663360
-1.377463 7.532619 -1.645975
-1.524863 8.365546 -1.617902
0.000423 -0.091545 -0.002840
-1.320160 7.066593 -1.022441
-1.318319 7.070972 -0.849863
-1.318582 7.086881 -0.680410
-1.327688 7.143838 -0.513870
-1.331557 7.179571 -0.344188
0.000423 -0.091545 -0.002840
0.000423 -0.091545 -0.002840
0.000423 -0.091545 -0.002840
-10.774755 59.147751 2.832545
-3.653296 20.016642 1.435639
-3.645211 20.012981 1.912792
-3.656642 20.117163 2.408273
-3.656454 20.137224 2.895751
-3.518216 19.412403 3.262532
-3.623143 20.035261 3.859848
-0.102080 0.481045 -0.347396
-3.162022 17.606092 -10.093202
-0.114731 0.553670 -0.350888
-0.126560 0.621395 -0.365951
-0.162538 0.825355 -0.443082
-0.313328 1.677329 -0.801668
-0.372840 2.015053 -0.895279
-0.770820 4.270037 -1.730045
-0.823702 4.578876 -1.726522
-0.882530 4.917637 -1.718921
-0.947641 5.298369 -1.707778
-1.021448 5.730155 -1.694780
-1.110430 6.243934 -1.683542
-1.210255 6.827729 -1.663835
-1.331520 7.536905 -1.645163
-1.474663 8.374559 -1.617921
-1.285782 7.105068 -1.200508
-1.277301 7.072450 -1.022180
-1.277386 7.080504 -0.850111
-1.277220 7.094470 -0.680426
0.000428 -0.091441 -0.002837
0.000428 -0.091441 -0.002837
0.000428 -0.091441 -0.002837
0.000428 -0.091441 -0.002837
0.000428 -0.091441 -0.002837
-10.473520 59.437180 2.843302
-3.531491 20.024330 1.434605
-3.523415 20.020639 1.911432
-3.620650 20.597816 2.463024
0.000428 -0.091441 -0.002837
-3.347521 19.118116 3.209810
-3.570860 20.421858 3.929953
-0.098681 0.481748 -0.347395
-3.055490 17.616045 -10.088350
-0.110596 0.552703 -0.349948
-0.123235 0.627528 -0.368640
-0.158802 0.835310 -0.447354
-0.304697 1.688234 -0.805731
-0.361577 2.024614 -0.898361
-0.745675 4.274500 -1.730055
-0.797430 4.587358 -1.727898
-0.852712 4.917140 -1.717014
-0.916904 5.305727 -1.708384
-0.987262 5.732255 -1.693692
-1.073291 6.246526 -1.682544
-1.171024 6.838523 -1.664772
-1.288249 7.540473 -1.644350
-1.428010 8.386645 -1.618678
-1.241048 7.101016 -1.198584
-1.236703 7.083709 -1.022750
-1.235139 7.090023 -0.850358
-1.234220 7.100070 -0.680257
0.000432 -0.091337 -0.002834
0.000432 -0.091337 -0.002834
-1.256232 7.260108 -0.172626
-1.255927 7.274276 0.000531
-1.235503 7.170169 0.171500
-5.452937 31.984343 1.529131
-3.412893 20.028709 1.433430
-3.406371 20.012634 1.908769
-3.487512 20.536186 2.453178
-3.283560 19.372326 2.780322
-3.271309 19.321487 3.240649
0.000432 -0.091337 -0.002834
-0.095477 0.482402 -0.347393
-2.955399 17.626022 -10.084480
-0.108150 0.560386 -0.353700
-0.118618 0.624776 -0.366846
-0.154039 0.839870 -0.449064
-0.293249 1.682852 -0.802482
-0.350962 2.033996 -0.901443
-0.721429 4.284340 -1.732243
-0.769855 4.588264 -1.726541
-0.823850 4.922070 -1.717024
-0.885804 5.311023 -1.708395
-0.954330 5.741748 -1.694805
-1.037701 6.258436 -1.684075
-1.131417 6.847187 -1.665247
-1.243259 7.550028 -1.644782
-1.378300 8.398952 -1.619438
-1.200843 7.107928 -1.198601
-1.195678 7.092770 -1.023044
-1.195353 7.098891 -0.850604
-1.194034 7.106958 -0.680273
-1.207412 7.203641 -0.516552
0.000436 -0.091234 -0.002831
-1.384118 8.299099 -0.196453
-1.572202 9.460163 0.001503
-1.192649 7.163255 0.171152
-3.814291 23.155775 1.106338
-3.295329 20.038301 1.432677
-3.285722 20.024757 1.907971
-3.249317 19.824800 2.366145
-3.198114 19.555225 2.803728
-3.807853 23.353291 3.910352
-3.290862 20.194164 3.878626
-0.091810 0.481377 -0.346371
-0.094223 0.497785 -0.337612
-0.104005 0.559382 -0.352760
-0.114365 0.625573 -0.366845
-0.144243 0.814108 -0.436239
-0.281584 1.675598 -0.798421
-0.340387 2.048914 -0.906835
-0.695463 4.288661 -1.732251
-0.743182 4.594579 -1.727234
-0.794677 4.930717 -1.718313
-0.852861 5.310649 -1.706621
-0.919814 5.741552 -1.693166
-0.999095 6.258844 -1.682573
-1.090532 6.847929 -1.663881
-1.199519 7.559087 -1.645216
-1.329079 8.404917 -1.619088
-1.156220 7.103341 -1.196677
-1.154909 7.103553 -1.023615
-1.152348 7.104001 -0.850389
-1.151294 7.114022 -0.680290
-1.160952 7.182985 -0.514629
-1.157096 7.175427 -0.342684
-1.332111 8.293456 -0.196154
-1.519058 9.481040 0.001487
-1.149285 7.168353 0.171090
0.000419 -0.091108 -0.002827
0.000419 -0.091108 -0.002827
0.000419 -0.091108 -0.002827
0.000419 -0.091108 -0.002827
-3.090726 19.610607 2.808983
-3.049269 19.391811 3.246077
-3.167396 20.194048 3.874861
-0.089045 0.485410 -0.348408
-0.091902 0.505324 -0.341526
-0.101075 0.565322 -0.355572
-0.111328 0.633397 -0.370430
-0.139033 0.815033 -0.436238
-0.273352 1.689944 -0.804111
-0.329446 2.060061 -0.910689
-0.670227 4.292697 -1.732260
-0.715911 4.597037 -1.726559
-0.764601 4.927824 -1.715766
-0.823730 5.328779 -1.710798
-0.886213 5.746861 -1.693179
-0.962804 6.266520 -1.683092
-1.050833 6.856116 -1.664357
-1.154851 7.562105 -1.644403
-1.280131 8.412541 -1.619107
-1.115370 7.113890 -1.197340
-1.113747 7.112146 -1.023909
-1.110588 7.108669 -0.850174
-1.110085 7.122617 -0.680490
-1.117236 7.177845 -0.513812
-1.117642 7.197877 -0.343439
-1.285298 8.310973 -0.196402
0.000423 -0.091004 -0.002824
-1.107145 7.172984 0.171026
0.000423 -0.091004 -0.002824
-3.455186 22.655109 1.616212
-2.992320 19.655945 1.869417
-3.031337 19.961842 2.377935
-3.647243 24.065527 3.441649
0.000423 -0.091004 -0.002824
0.000423 -0.091004 -0.002824
-0.086222 0.489417 -0.350446
-0.088213 0.504233 -0.340545
-0.097299 0.566009 -0.355570
-0.105333 0.621769 -0.364151
-0.109721 0.653168 -0.358444
-0.262511 1.689835 -0.803300
-0.316802 2.060218 -0.909920
-0.644440 4.292911 -1.730814
-0.688624 4.605029 -1.727936
-0.735700 4.932261 -1.715775
-0.791675 5.327872 -1.709024
-0.852933 5.761630 -1.695944
-0.927004 6.277807 -1.684623
-1.008746 6.856555 -1.662993
-1.110546 7.576678 -1.646081
-1.229925 8.422040 -1.619497
-1.073571 7.118353 -1.197032
-1.070415 7.114830 -1.023370
-1.069680 7.118979 -0.850653
-1.066774 7.117184 -0.679397
-1.079908 7.223927 -0.516602
-1.073005 7.186506 -0.342625
-1.096020 7.360916 -0.174378
0.000427 -0.090901 -0.002821
-1.064701 7.175392 0.170914
-5.789382 39.505726 1.880992
-3.128360 21.360523 1.522652
-2.851281 19.509914 1.853872
-2.948615 20.205141 2.404698
-2.915784 20.029787 2.863607
-2.935282 20.215427 3.377319
-2.864685 19.752882 3.783822
-0.082286 0.486619 -0.348405
-0.085668 0.511760 -0.344459
-0.094644 0.575423 -0.360260
0.000431 -0.090797 -0.002818
-0.100323 0.618077 -0.341347
-0.252495 1.693220 -0.804115
-0.304291 2.063996 -0.910693
-0.618901 4.294798 -1.730098
-0.661559 4.609016 -1.727946
-0.707022 4.938397 -1.716425
-0.760449 5.332441 -1.709036
-0.818954 5.764653 -1.695406
-0.891122 6.288902 -1.686154
-0.968452 6.860432 -1.662548
-1.066912 7.577067 -1.644852
-1.182370 8.428888 -1.619516
-1.031619 7.130575 -1.198019
-1.029166 7.122941 -1.023664
-1.027443 7.129246 -0.851132
-1.024825 7.129413 -0.679968
-1.027671 7.159019 -0.511628
-1.030365 7.196814 -0.342827
-1.053369 7.369202 -0.174440
0.000431 -0.090797 -0.002818
-1.021017 7.177743 0.170804
0.000431 -0.090797 -0.002818
-3.035460 21.597620 1.538180
-2.777585 19.782015 1.878087
-2.845668 20.322250 2.416538
0.000431 -0.090797 -0.002818
0.000431 -0.090797 -0.002818
-2.855770 20.530333 3.928895
-0.079069 0.487190 -0.348403
-0.082548 0.514074 -0.345435
-0.089487 0.565556 -0.354629
-0.094684 0.605430 -0.355183
-0.094662 0.606202 -0.335361
0.000435 -0.090693 -0.002815
-0.291239 2.058441 -0.907616
-0.594404 4.298295 -1.730106
-0.635061 4.610889 -1.727271
-0.678648 4.940480 -1.715797
-0.729896 5.334821 -1.708452
-0.784956 5.759707 -1.692667
-0.853675 6.280459 -1.682628
-0.930121 6.869691 -1.663484
-1.023013 7.575238 -1.643211
-1.133971 8.429602 -1.618428
-0.992059 7.142183 -1.199006
-0.989134 7.130646 -1.023957
-0.987631 7.138909 -0.851610
-0.983942 7.131183 -0.679614
-0.987982 7.170691 -0.512059
-0.988033 7.190686 -0.342289
-1.012491 7.381023 -0.174593
0.000435 -0.090693 -0.002815
-0.979325 7.175509 0.170598
-2.976929 22.021063 1.047360
-3.004272 22.284655 1.585713
-2.700422 20.049957 1.901929
-3.239762 24.137779 2.866491
-2.627106 19.610315 2.799288
-2.630614 19.664261 3.280339
0.000435 -0.090693 -0.002815
-0.074751 0.480940 -0.344323
-0.079412 0.518125 -0.347392
-0.085123 0.562673 -0.352752
-0.089161 0.595458 -0.349802
-0.087378 0.583581 -0.324245
-0.091008 0.612549 -0.318132
-0.279672 2.069395 -0.911469
-0.567360 4.300117 -1.729387
-0.606896 4.612802 -1.726599
-0.647927 4.944656 -1.715807
-0.696756 5.339298 -1.708463
-0.751457 5.773915 -1.695431
-0.815483 6.291422 -1.684159
-0.889294 6.879054 -1.664421
-0.977177 7.589234 -1.644888
-1.082153 8.438429 -1.618819
-0.949634 7.151965 -1.199670
-0.947039 7.142395 -1.024807
-0.944973 7.146728 -0.851858
-0.941832 7.142925 -0.680187
0.000418 -0.090568 -0.002810
-0.942509 7.178712 -0.341474
-0.966575 7.385200 -0.174566
0.000418 -0.090568 -0.002810
-0.936962 7.187261 0.170723
-2.825260 21.910164 1.041188
0.000418 -0.090568 -0.002810
-2.549553 19.848930 1.881344
0.000418 -0.090568 -0.002810
-2.525162 19.743559 2.815989
-2.521806 19.774048 3.295889
-2.526281 19.866512 3.796286
-0.072939 0.493406 -0.351458
-0.075040 0.511760 -0.343474
-0.080258 0.554494 -0.348060
-0.082329 0.573004 -0.338145
-0.082148 0.573408 -0.319115
-0.086518 0.609552 -0.316505
-0.265643 2.058255 -0.906081
-0.542737 4.308954 -1.731577
-0.580265 4.620063 -1.727974
-0.619376 4.952170 -1.717097
-0.665007 5.339537 -1.707285
-0.716957 5.772516 -1.693793
-0.778707 6.296114 -1.684174
-0.849621 6.888040 -1.665357
-0.932692 7.592897 -1.644490
-1.033247 8.446578 -1.619209
-0.908156 7.159385 -1.200009
-0.905609 7.149798 -1.025101
-0.903510 7.154120 -0.852107
-0.904101 7.179967 -0.683161
0.000422 -0.090464 -0.002807
-0.902342 7.198012 -0.342137
-0.925452 7.406622 -0.174948
0.000422 -0.090464 -0.002807
-0.893308 7.178746 0.170374
0.000422 -0.090464 -0.002807
-2.596965 21.130308 1.501374
-2.735687 22.330202 2.114215
-2.467576 20.193657 2.395627
-2.451708 20.094070 2.863680
-2.384565 19.600292 3.264629
-2.415523 19.915976 3.802915
-0.069799 0.495651 -0.352475
-0.072179 0.517477 -0.346410
-0.075724 0.548054 -0.344304
-0.076615 0.557602 -0.330073
-0.077052 0.563214 -0.313984
-0.083638 0.621044 -0.321380
-0.253062 2.058036 -0.905313
-0.516961 4.308413 -1.730132
-0.551866 4.619793 -1.726618
-0.590325 4.955760 -1.717107
-0.633728 5.343385 -1.707296
-0.682608 5.780598 -1.694907
-0.741468 6.296762 -1.683177
-0.808409 6.894988 -1.665834
-0.887759 7.604233 -1.645754
-0.982583 8.452677 -1.619228
-0.866629 7.166570 -1.200349
-0.863572 7.163028 -1.026227
-0.862022 7.161298 -0.852353
-0.862668 7.189109 -0.683548
-0.863554 7.218995 -0.514330
-0.861046 7.209143 -0.342431
0.000426 -0.090361 -0.002804
0.000426 -0.090361 -0.002804
-0.851899 7.187864 0.170453
-5.077197 43.403797 2.057968
-2.583541 22.112532 1.569815
-2.342120 20.101124 1.902328
-2.290607 19.688713 2.334258
0.000426 -0.090361 -0.002804
-2.269261 19.627954 3.266854
0.000426 -0.090361 -0.002804
-0.066319 0.496159 -0.352473
-0.067795 0.511078 -0.342492
-0.070738 0.538069 -0.338674
-0.070373 0.536850 -0.319311
-0.072352 0.556571 -0.310564
-0.077093 0.599832 -0.311627
-0.238456 2.043096 -0.898385
-0.489818 4.302251 -1.726508
-0.524745 4.623012 -1.726626
-0.559737 4.953625 -1.715200
-0.602735 5.358541 -1.710878
-0.649001 5.786457 -1.695470
-0.703562 6.301158 -1.683191
-0.766477 6.884170 -1.662167
-0.843424 7.609322 -1.645772
-0.932718 8.452435 -1.618141
-0.824205 7.177564 -1.201337
-0.822229 7.171925 -1.026799
-0.819399 7.170327 -0.852834
-0.820581 7.204111 -0.684489
-0.821454 7.223968 -0.514346
-0.818149 7.218198 -0.342634
-0.839259 7.431052 -0.175303
0.000433 -0.090254 -0.002801
-0.809352 7.198862 0.170577
-4.920144 44.346687 2.101094
0.000433 -0.090254 -0.002801
-2.441921 22.075888 2.087223
-2.577807 23.386486 2.769247
-2.230608 20.259411 2.883117
-2.156053 19.644728 3.267452
-2.162252 19.767265 3.769408
-0.062375 0.491503 -0.349414
-0.063779 0.506375 -0.339553
-0.067110 0.538568 -0.338673
-0.065621 0.526690 -0.313930
-0.067395 0.544494 -0.304578
-0.073888 0.607640 -0.314876
-0.448454 4.138829 -1.777038
-0.466057 4.312431 -1.729423
-0.497981 4.629799 -1.728003
-0.531962 4.960551 -1.716489
-0.571890 5.358128 -1.709700
-0.614947 5.788292 -1.694932
-0.667438 6.301233 -1.682195
-0.727501 6.900186 -1.664945
-0.800206 7.612071 -1.645374
-0.885594 8.463474 -1.619269
-0.782772 7.186239 -1.201999
-0.781020 7.182551 -1.027648
-0.777998 7.178993 -0.853312
-0.779179 7.214760 -0.685062
-0.779948 7.234637 -0.514779
-0.776058 7.222912 -0.342649
-0.796408 7.427786 -0.175137
0.000413 -0.090131 -0.002796
-0.767971 7.209469 0.170702
-4.226123 40.131657 1.900273
-3.357791 31.978807 2.265560
-2.304596 21.960548 2.075035
-2.435941 23.297905 2.757064
-2.116221 20.299618 2.886972
0.000413 -0.090131 -0.002796
-2.111447 20.361702 3.879954
-0.058606 0.486820 -0.346354
-0.060251 0.505081 -0.338574
-0.062607 0.530277 -0.333980
-0.060536 0.511133 -0.305860
-0.062826 0.535980 -0.300302
-0.068974 0.599088 -0.310810
-0.069774 0.609701 -0.296193
-0.441437 4.322564 -1.732339
-0.470048 4.625215 -1.725279
-0.501801 4.961840 -1.715860
-0.539352 5.359620 -1.709118
-0.581266 5.793752 -1.695496
-0.630089 6.310980 -1.683725
-0.685826 6.902555 -1.664501
-0.752939 7.614966 -1.644979
-0.834838 8.468703 -1.619289
-0.742721 7.196496 -1.202986
-0.739719 7.192949 -1.028498
-0.737995 7.189264 -0.854021
-0.737378 7.209208 -0.684153
-0.738153 7.243094 -0.515072
-0.734703 7.235309 -0.343037
-0.754480 7.446278 -0.175474
0.000417 -0.090028 -0.002794
-0.726920 7.223842 0.170922
-4.347445 43.790318 2.071996
-3.180879 32.077156 2.271089
-2.167660 21.912535 2.069191
-3.244398 32.961128 3.894908
-1.989782 20.256746 2.879101
-1.996447 20.363773 3.382421
-1.971212 20.180361 3.843159
-0.055089 0.487279 -0.346352
-0.055636 0.495145 -0.332697
-0.056573 0.506135 -0.320843
-0.055178 0.493816 -0.296891
-0.057419 0.518468 -0.291750
-0.063662 0.586847 -0.305121
-0.064579 0.599186 -0.291571
-0.414202 4.314085 -1.727988
-0.442220 4.629883 -1.725974
-0.472513 4.962861 -1.715232
-0.507087 5.353248 -1.706154
-0.545801 5.791454 -1.693858
-0.593031 6.312679 -1.683234
-0.644990 6.900671 -1.663137
-0.709897 7.619157 -1.644997
-0.784993 8.467599 -1.618201
-0.698750 7.206885 -1.203975
-0.697244 7.205204 -1.029625
-0.693892 7.197701 -0.854501
-0.693346 7.219635 -0.684725
-0.691224 7.211689 -0.512595
-0.691980 7.247612 -0.343423
-0.709746 7.450737 -0.175492
0.000422 -0.089924 -0.002791
-0.683695 7.230134 0.170952
0.000422 -0.089924 -0.002791
-2.982364 32.014141 2.265247
-2.998761 32.255005 3.041369
-2.158958 23.289410 2.752741
-2.129443 23.060457 3.274346
-1.941033 21.055004 3.494839
-1.853870 20.185616 3.841991
-0.051852 0.487678 -0.346351
-0.052040 0.492072 -0.330738
-0.051977 0.492476 -0.313336
-0.051587 0.490653 -0.295097
-0.054398 0.524302 -0.294313
-0.059233 0.580024 -0.301868
-0.061552 0.608846 -0.295419
-0.389649 4.325777 -1.731631
-0.415690 4.630516 -1.725300
-0.443579 4.967496 -1.715882
-0.476211 5.361876 -1.707952
-0.513285 5.798349 -1.694972
-0.556139 6.316088 -1.683249
-0.606622 6.912034 -1.664993
-0.665502 7.623237 -1.645014
-0.736190 8.477953 -1.619331
-0.658180 7.212761 -1.204314
-0.656853 7.213045 -1.030196
-0.653712 7.207506 -0.855211
-0.653033 7.229448 -0.685297
0.000426 -0.089821 -0.002788
-0.656116 7.309191 -0.346117
-0.666477 7.456800 -0.175555
0.000426 -0.089821 -0.002788
-0.643842 7.245895 0.171219
-3.912505 44.647717 2.110012
-3.447267 39.412045 2.786366
-2.784126 31.946518 3.010679
-2.029409 23.360956 2.759674
-1.820492 20.992495 2.980051
-1.763558 20.419085 3.387840
-1.765064 20.523088 3.903914
-0.047365 0.474363 -0.338193
-0.047383 0.476840 -0.321925
-0.047283 0.477030 -0.304890
-0.048998 0.499964 -0.299578
-0.051002 0.526510 -0.295167
-0.053914 0.564093 -0.294551
-0.056766 0.600102 -0.291567
-0.363765 4.322496 -1.729458
-0.387670 4.632999 -1.725311
-0.413825 4.962520 -1.713335
-0.444981 5.366555 -1.708557
-0.478186 5.799486 -1.694435
-0.518767 6.313504 -1.681747
-0.564589 6.909793 -1.663629
-0.618933 7.617404 -1.642958
-0.684709 8.474447 -1.617874
-0.616603 7.222436 -1.205301
-0.613830 7.220863 -1.030769
-0.612176 7.217203 -0.855921
-0.611364 7.239152 -0.685869
0.000432 -0.089714 -0.002785
-0.612003 7.295035 -0.345304
-0.623492 7.466602 -0.175710
-0.800556 9.653430 0.001219
-0.601751 7.251591 0.171249
-5.539352 67.747208 3.199169
-3.320443 40.756268 2.879714
-2.737245 33.733013 3.177035
-2.668653 32.961140 3.888580
0.000432 -0.089714 -0.002785
-1.661181 20.671263 3.427766
-1.632546 20.360647 3.871203
-0.043493 0.467893 -0.334112
-0.043322 0.468513 -0.317030
-0.044187 0.480923 -0.306766
-0.044946 0.493225 -0.295989
-0.047029 0.521491 -0.292601
-0.049433 0.555386 -0.290487
-0.052397 0.596861 -0.290025
-0.339050 4.333900 -1.733102
-0.360770 4.639022 -1.726686
-0.385300 4.972485 -1.715903
-0.413099 5.363407 -1.706786
-0.444259 5.802248 -1.694448
-0.482036 6.318431 -1.682266
-0.524277 6.913043 -1.663645
-0.576449 7.628636 -1.644637
-0.637001 8.480192 -1.618264
-0.573806 7.233932 -1.206614
-0.572184 7.230317 -1.031619
-0.569408 7.228727 -0.856865
-0.568483 7.250703 -0.686626
-0.569724 7.284536 -0.516946
-0.565408 7.262790 -0.343659
-0.749096 9.673132 -0.226124
-0.744560 9.659968 0.001195
-0.558614 7.261117 0.171372
0.000413 -0.089591 -0.002780
-2.980878 39.394188 2.782219
-2.806888 37.181095 3.499565
-2.793911 37.187286 4.384079
-1.573531 21.008631 2.979380
-1.615786 21.628904 3.584383
-1.522983 20.481533 3.892301
-0.039986 0.463077 -0.331053
-0.039829 0.463640 -0.314091
-0.040508 0.474240 -0.303010
-0.042345 0.502501 -0.300470
-0.043382 0.520063 -0.291744
-0.045055 0.546649 -0.286422
-0.047232 0.578825 -0.282324
-0.313175 4.330311 -1.730931
-0.333392 4.639248 -1.726013
-0.356001 4.972831 -1.715275
-0.382222 5.373425 -1.709177
-0.410326 5.804820 -1.694460
-0.444848 6.317339 -1.681270
-0.484064 6.917986 -1.664122
-0.530644 7.632035 -1.644655
-0.586407 8.487848 -1.619025
-0.533335 7.243046 -1.207600
-0.530431 7.239512 -1.032470
-0.529111 7.239835 -0.857805
-0.527745 7.257832 -0.687014
-0.527820 7.295770 -0.517517
-0.525047 7.275909 -0.344138
-0.607349 8.472738 -0.198597
-0.689669 9.682168 0.001178
-0.518673 7.280187 0.171733
0.000417 -0.089488 -0.002777
-2.904651 41.580193 2.935059
-2.605480 37.483269 3.526329
-2.579423 37.206848 4.384443
-1.579086 22.864788 3.240324
-1.552355 22.595058 3.742290
-2.513959 36.742405 6.968263
-0.036833 0.465140 -0.332070
-0.035747 0.451807 -0.307235
-0.037395 0.478106 -0.304885
-0.037871 0.488570 -0.293296
-0.039993 0.524017 -0.293453
-0.042136 0.559792 -0.292109
-0.043028 0.575524 -0.280782
-0.286703 4.328481 -1.729487
-0.305325 4.641248 -1.726023
-0.325820 4.973059 -1.714648
-0.349675 5.373792 -1.708595
-0.375092 5.803414 -1.693373
-0.407070 6.323835 -1.682296
-0.442101 6.915014 -1.662758
-0.484453 7.629300 -1.643429
-0.535015 8.483440 -1.617568
-0.490334 7.254060 -1.208912
-0.487713 7.254493 -1.034153
-0.486261 7.252865 -0.858979
-0.484418 7.264933 -0.687401
-0.484636 7.308836 -0.518229
-0.482227 7.292948 -0.344803
-0.556261 8.472314 -0.198527
0.000421 -0.089384 -0.002774
-0.475458 7.291237 0.171905
-4.452430 69.361092 3.270582
-4.392433 68.812187 4.852868
-2.402878 37.820129 3.556450
-2.458405 38.809528 4.571049
0.000421 -0.089384 -0.002774
-1.451303 23.141695 3.830962
-2.416547 38.702560 7.336280
-0.033108 0.456861 -0.326971
-0.032929 0.457320 -0.310172
-0.034432 0.483693 -0.307699
-0.034870 0.494244 -0.295984
-0.036460 0.524347 -0.293452
-0.038619 0.561953 -0.292920
-0.039320 0.577724 -0.281550
-0.261365 4.332024 -1.730222
-0.278689 4.639240 -1.724666
-0.296995 4.980633 -1.716577
-0.318098 5.373918 -1.708012
-0.342721 5.815110 -1.696140
-0.369687 6.318458 -1.680288
-0.402986 6.917489 -1.662773
-0.441561 7.635893 -1.644277
-0.487026 8.484443 -1.617218
-0.448277 7.260813 -1.209576
-0.447053 7.263142 -1.035002
-0.444320 7.261595 -0.859690
-0.442629 7.277634 -0.688344
-0.443200 7.309551 -0.518106
-0.440185 7.303699 -0.345189
-0.454075 7.583268 -0.178155
0.000425 -0.089280 -0.002771
-0.433510 7.303934 0.172123
0.000425 -0.089280 -0.002771
0.000425 -0.089280 -0.002771
-2.251987 38.886703 3.655235
-2.223488 38.634773 4.548799
-1.262505 21.972206 3.111801
-2.101694 36.864319 6.093401
-2.185745 38.586475 7.311682
-0.030155 0.460590 -0.329008
-0.029219 0.447176 -0.304295
-0.030565 0.473425 -0.302067
-0.031804 0.499901 -0.298673
-0.032742 0.521056 -0.291739
-0.034549 0.558621 -0.291294
-0.035081 0.570676 -0.278468
-0.235812 4.331712 -1.729504
-0.250613 4.640906 -1.724677
-0.267699 4.980481 -1.715948
-0.286735 5.377680 -1.708618
-0.307487 5.813311 -1.695052
-0.332762 6.320577 -1.680304
-0.361195 6.915969 -1.661870
-0.396018 7.644351 -1.645540
-0.436345 8.491223 -1.617978
-0.406591 7.275203 -1.211534
-0.403736 7.271704 -1.035853
-0.402413 7.272079 -0.860632
-0.400626 7.288124 -0.689102
-0.399932 7.324117 -0.518957
-0.397921 7.312208 -0.345484
-0.409463 7.577891 -0.177989
0.000432 -0.089174 -0.002768
-0.391978 7.326390 0.172577
0.000432 -0.089174 -0.002768
-3.657170 69.984146 4.931755
-2.026103 39.004890 3.665013
-2.052356 39.652809 4.666868
-2.073101 40.335632 5.702324
-1.885884 36.945255 6.104674
-1.948798 38.319855 7.258884
-0.026896 0.460869 -0.329006
-0.026364 0.454405 -0.308210
-0.027492 0.479004 -0.304879
-0.027958 0.493048 -0.295084
-0.029121 0.521350 -0.291738
-0.030905 0.560745 -0.292105
-0.030984 0.567289 -0.276927
-0.209399 4.329413 -1.728060
-0.223382 4.642390 -1.724686
-0.237609 4.982083 -1.715959
-0.254391 5.381303 -1.709225
-0.273315 5.811251 -1.693964
-0.294714 6.322539 -1.680319
-0.320935 6.919985 -1.662347
-0.351381 7.644657 -1.645144
-0.386811 8.491715 -1.617631
-0.363175 7.283508 -1.212522
-0.361635 7.279959 -1.036703
-0.359097 7.282373 -0.861575
-0.356933 7.292466 -0.689305
-0.357785 7.338348 -0.519808
-0.354562 7.326518 -0.346056
-0.364241 7.586286 -0.178145
-0.465027 9.745936 0.001100
-0.348439 7.338685 0.172796
0.000412 -0.089051 -0.002763
-3.673619 79.054054 5.568641
-1.836269 39.783863 3.736920
-1.923848 42.013828 4.942722
0.000412 -0.089051 -0.002763
-1.735470 38.349422 6.334358
-1.722559 38.370121 7.266196
-0.023732 0.461127 -0.329004
-0.023087 0.451174 -0.306250
-0.024292 0.481021 -0.305816
-0.024754 0.496875 -0.296876
-0.025830 0.527034 -0.294301
-0.027084 0.559195 -0.291291
-0.027425 0.573092 -0.279237
-0.184411 4.341822 -1.732430
-0.196130 4.643703 -1.724696
-0.208320 4.981577 -1.715331
-0.222942 5.384680 -1.709834
-0.239393 5.814747 -1.694529
-0.257872 6.326178 -1.680839
-0.280630 6.923761 -1.662824
-0.306594 7.640785 -1.643918
-0.337392 8.493921 -1.617651
-0.320950 7.291489 -1.213511
-0.319612 7.291915 -1.038109
-0.316900 7.290391 -0.862286
-0.314257 7.290539 -0.688952
-0.315275 7.346391 -0.520241
-0.312171 7.336526 -0.346444
-0.320118 7.590371 -0.178209
0.000416 -0.088948 -0.002760
-0.306228 7.354665 0.173108
0.000416 -0.088948 -0.002760
0.000416 -0.088948 -0.002760
-1.613051 39.955051 3.751921
-1.932074 48.304214 5.680052
-1.942979 48.802872 6.893370
-1.503935 38.102554 6.292000
-1.505601 38.497372 7.288354
-0.020700 0.464808 -0.331041
-0.019978 0.451412 -0.306248
-0.020945 0.479501 -0.304876
-0.021518 0.500692 -0.298668
-0.022164 0.523677 -0.292589
-0.023428 0.561285 -0.292101
-0.023679 0.575193 -0.280005
-0.158675 4.337317 -1.730260
-0.168934 4.646735 -1.725390
-0.179046 4.980903 -1.714703
-0.191357 5.384077 -1.709250
-0.205335 5.814221 -1.693991
-0.221045 6.331520 -1.681866
-0.240105 6.921477 -1.661920
-0.262139 7.644486 -1.644351
-0.288156 8.501717 -1.618781
-0.278959 7.307132 -1.215793
-0.277400 7.301666 -1.039236
-0.274681 7.300136 -0.863229
-0.272123 7.302296 -0.689894
0.000420 -0.088844 -0.002757
-0.270357 7.364276 -0.347662
-0.275938 7.594183 -0.178274
0.000420 -0.088844 -0.002757
-0.264204 7.380398 0.173657
0.000420 -0.088844 -0.002757
0.000420 -0.088844 -0.002757
-1.756423 50.797886 4.767406
-1.710060 49.976292 5.874996
0.000420 -0.088844 -0.002757
0.000420 -0.088844 -0.002757
-1.544209 46.348557 8.769901
-0.017497 0.465015 -0.331041
-0.017106 0.458612 -0.310161
-0.017617 0.477956 -0.303936
-0.018249 0.504502 -0.300459
-0.018635 0.523903 -0.292587
-0.019609 0.563334 -0.292914
-0.019982 0.579127 -0.281543
-0.133034 4.332692 -1.728087
-0.140773 4.645880 -1.724717
-0.149917 4.983862 -1.715352
-0.159879 5.387096 -1.709858
-0.170364 5.817369 -1.694555
-0.184078 6.332804 -1.681880
-0.198734 6.930676 -1.663778
-0.216347 7.649918 -1.645201
-0.236790 8.489630 -1.616216
-0.236621 7.316618 -1.217104
-0.233851 7.313186 -1.040642
-0.232553 7.315598 -0.864865
-0.229916 7.315790 -0.691022
-0.228059 7.341808 -0.519722
-0.227906 7.381793 -0.348420
0.000424 -0.088740 -0.002754
0.000424 -0.088740 -0.002754
-0.221818 7.403881 0.174157
0.000424 -0.088740 -0.002754
0.000424 -0.088740 -0.002754
-1.432322 50.035233 4.694880
-1.407804 49.496998 5.817524
0.000424 -0.088740 -0.002754
0.000424 -0.088740 -0.002754
-1.277436 46.384315 8.774966
-0.013858 0.451466 -0.322882
-0.013678 0.451841 -0.306243
-0.014300 0.479925 -0.304873
-0.014496 0.495773 -0.295974
-0.015092 0.524099 -0.292587
-0.015826 0.561736 -0.292098
-0.015962 0.577488 -0.280773
-0.107644 4.337205 -1.729551
