# This PCD file was generated using the MATLAB® pcwrite function
# from Computer Vision Toolbox®.
# .PCD v.7 - Point Cloud Data file format
VERSION .7
FIELDS x y z
SIZE 4 4 4
TYPE F F F
COUNT 1 1 1
WIDTH 1628
HEIGHT 1
VIEWPOINT 0 0 0 1 0 0 0
POINTS 1628
DATA ascii
2.907453 -4.495640 -1.939184
3.153014 -4.873811 -1.952937
3.455782 -5.342040 -1.977837
3.766555 -5.823260 -1.982153
4.149543 -6.413768 -1.994321
4.624705 -7.149070 -2.013039
5.195483 -8.032583 -2.030064
5.745782 -8.885919 -1.991441
6.334230 -9.699311 -1.902069
8.613185 -13.184711 -2.214044
10.267361 -15.715144 -2.194180
11.197612 -17.148317 -1.914223
10.982575 -16.832434 -1.409576
12.712004 -19.484123 -1.090659
11.833277 -18.153671 -0.509228
44.194210 -67.742622 -0.022260
44.270390 -67.884735 1.858519
0.000442 -0.040072 -0.001286
44.445080 -68.255531 5.670709
0.000442 -0.040072 -0.001286
44.612961 -68.590683 9.541826
0.000442 -0.040072 -0.001286
0.000442 -0.040072 -0.001286
0.000442 -0.040072 -0.001286
0.315466 -0.526530 -0.345235
0.326204 -0.543503 -0.338447
0.349459 -0.579646 -0.343224
0.374855 -0.619356 -0.347853
0.411284 -0.676203 -0.360001
0.478986 -0.781328 -0.394418
2.490928 -3.901214 -1.921874
2.669664 -4.181468 -1.926733
2.882772 -4.513793 -1.939858
3.124279 -4.892328 -1.952924
3.422184 -5.359131 -1.976631
3.732126 -5.843118 -1.981586
4.117918 -6.447935 -1.997348
4.582641 -7.173849 -2.012562
5.149357 -8.062262 -2.030045
5.754174 -9.011415 -2.012188
6.270361 -9.726677 -1.900099
8.541636 -13.240641 -2.215132
9.615476 -14.911575 -2.073728
10.231432 -15.876267 -1.765150
10.989573 -17.056179 -1.422984
12.616982 -19.590996 -1.092399
11.662735 -18.125988 -0.506468
0.000446 -0.039968 -0.001283
44.309853 -68.833633 1.877424
0.000446 -0.039968 -0.001283
44.459538 -69.144508 5.723378
0.000446 -0.039968 -0.001283
0.000446 -0.039968 -0.001283
0.000446 -0.039968 -0.001283
0.000446 -0.039968 -0.001283
0.000446 -0.039968 -0.001283
0.311723 -0.526777 -0.344210
0.320486 -0.540856 -0.335502
0.346333 -0.581532 -0.343219
0.367669 -0.615374 -0.344258
0.406642 -0.676931 -0.359141
0.463774 -0.767099 -0.385460
2.470640 -3.918511 -1.923407
2.649777 -4.202962 -1.929634
2.858186 -4.533884 -1.941215
3.095244 -4.908524 -1.952270
3.391492 -5.378645 -1.976618
3.701743 -5.871551 -1.983778
4.078866 -6.468164 -1.996318
4.538138 -7.197516 -2.011621
5.102715 -8.094231 -2.030444
5.749172 -9.121667 -2.029224
6.203836 -9.745890 -1.896830
8.467426 -13.297670 -2.216220
0.000450 -0.039865 -0.001280
9.528552 -14.976227 -1.658743
9.848192 -15.489087 -1.287125
12.462297 -19.597517 -1.088706
11.521884 -18.135418 -0.504837
0.000450 -0.039865 -0.001280
0.000450 -0.039865 -0.001280
0.000450 -0.039865 -0.001280
0.000450 -0.039865 -0.001280
0.000450 -0.039865 -0.001280
0.000450 -0.039865 -0.001280
0.000450 -0.039865 -0.001280
0.000450 -0.039865 -0.001280
0.000450 -0.039865 -0.001280
0.307917 -0.527055 -0.343185
0.316575 -0.541164 -0.334518
0.341249 -0.580499 -0.341337
0.367094 -0.621965 -0.346946
0.401870 -0.677676 -0.358279
0.451795 -0.757277 -0.378944
2.447583 -3.932997 -1.923397
2.623035 -4.215344 -1.928167
2.829260 -4.545390 -1.939150
3.065290 -4.925092 -1.951617
3.357736 -5.395344 -1.975413
3.671171 -5.897563 -1.985421
4.046810 -6.501989 -1.999345
4.494778 -7.220132 -2.010682
5.057270 -8.125031 -2.030841
0.000454 -0.039761 -0.001277
6.135602 -9.765736 -1.893561
8.388821 -13.342767 -2.215635
8.982404 -14.295056 -1.973011
0.000454 -0.039761 -0.001277
11.015138 -17.541269 -1.452598
12.299251 -19.596619 -1.084545
11.372808 -18.137335 -0.502969
0.000454 -0.039761 -0.001277
44.349609 -70.696556 1.914278
0.000454 -0.039761 -0.001277
0.000454 -0.039761 -0.001277
0.000454 -0.039761 -0.001277
0.000454 -0.039761 -0.001277
0.000454 -0.039761 -0.001277
0.000454 -0.039761 -0.001277
0.000454 -0.039761 -0.001277
0.303294 -0.525799 -0.341140
0.312764 -0.541395 -0.333534
0.339051 -0.583834 -0.342271
0.359974 -0.617899 -0.343352
0.396393 -0.676732 -0.356562
0.441860 -0.750436 -0.374055
2.423163 -3.943781 -1.921843
2.601630 -4.232979 -1.929611
2.805248 -4.564703 -1.940508
3.037959 -4.942029 -1.951604
3.327762 -5.413900 -1.975399
3.634320 -5.913587 -1.983750
4.007607 -6.519450 -1.997809
4.453345 -7.245794 -2.010665
5.013064 -8.154705 -2.031240
5.722179 -9.309858 -2.056625
6.071140 -9.787405 -1.890942
8.311003 -13.389059 -2.215327
8.894925 -14.338027 -1.971820
8.949555 -14.436964 -1.587145
8.641923 -13.947345 -1.150404
12.152669 -19.612694 -1.081507
11.242027 -18.152880 -0.501618
0.000435 -0.039639 -0.001272
44.396919 -71.684921 1.934246
0.000435 -0.039639 -0.001272
0.000435 -0.039639 -0.001272
0.000435 -0.039639 -0.001272
44.731445 -72.391762 9.924354
0.000435 -0.039639 -0.001272
0.000435 -0.039639 -0.001272
0.000435 -0.039639 -0.001272
0.302359 -0.530292 -0.343176
0.314522 -0.550448 -0.338430
0.337857 -0.588622 -0.344146
0.357677 -0.621315 -0.344245
0.395555 -0.683519 -0.359126
0.441593 -0.759099 -0.377307
2.411934 -3.974457 -1.930317
2.581335 -4.254151 -1.932513
2.781083 -4.583867 -1.941864
3.008694 -4.957727 -1.950952
3.291771 -5.424719 -1.972404
3.602445 -5.937602 -1.984840
3.971241 -6.543976 -1.998302
4.413781 -7.274527 -2.011570
4.963822 -8.182548 -2.030806
5.668074 -9.345212 -2.056973
6.008342 -9.807609 -1.888324
8.235028 -13.438292 -2.215579
8.841954 -14.431372 -1.977834
8.546062 -13.960527 -1.529367
0.000439 -0.039535 -0.001269
11.070954 -18.094540 -0.994263
11.138566 -18.218924 -0.501629
0.000439 -0.039535 -0.001269
0.000439 -0.039535 -0.001269
0.000439 -0.039535 -0.001269
0.000439 -0.039535 -0.001269
0.000439 -0.039535 -0.001269
0.000439 -0.039535 -0.001269
0.000439 -0.039535 -0.001269
0.000439 -0.039535 -0.001269
0.000439 -0.039535 -0.001269
0.296761 -0.527555 -0.340110
0.305143 -0.541756 -0.331564
0.333665 -0.588985 -0.343201
0.356051 -0.626361 -0.346035
0.389858 -0.682654 -0.357409
0.436493 -0.759960 -0.376488
0.484555 -0.840002 -0.392319
2.555306 -4.267684 -1.931773
2.755832 -4.601312 -1.942536
2.979461 -4.975394 -1.950940
3.258778 -5.442420 -1.971795
3.568411 -5.958141 -1.984826
3.936549 -6.573934 -2.000313
4.377061 -7.308061 -2.013862
4.919864 -8.215923 -2.032037
5.613374 -9.375914 -2.056583
5.945143 -9.834540 -1.886678
8.162852 -13.493855 -2.216944
9.957097 -16.464174 -2.248844
8.434427 -13.963202 -1.524123
0.000443 -0.039431 -0.001266
11.822996 -19.580229 -1.072062
0.000443 -0.039431 -0.001266
0.000443 -0.039431 -0.001266
0.000443 -0.039431 -0.001266
0.000443 -0.039431 -0.001266
0.000443 -0.039431 -0.001266
0.000443 -0.039431 -0.001266
0.000443 -0.039431 -0.001266
44.935387 -74.687134 12.221696
0.000443 -0.039431 -0.001266
0.000443 -0.039431 -0.001266
0.293073 -0.527684 -0.339086
0.304032 -0.546382 -0.333520
0.328689 -0.587766 -0.341319
0.351748 -0.626763 -0.345133
0.384290 -0.681676 -0.355693
0.430462 -0.759214 -0.374856
0.482769 -0.847421 -0.394628
2.535699 -4.290236 -1.935402
2.730490 -4.618627 -1.943210
2.951944 -4.993986 -1.951568
3.224670 -5.456069 -1.969993
3.539175 -5.986746 -1.987570
3.898852 -6.596397 -2.000298
4.340100 -7.341407 -2.016154
4.874688 -8.247378 -2.032851
5.555499 -9.401223 -2.055079
5.886615 -9.865134 -1.886008
8.087272 -13.543943 -2.217475
10.011245 -16.770008 -2.282748
8.319349 -13.953328 -1.517760
8.315380 -13.952101 -1.138695
11.698997 -19.629026 -1.070993
0.000447 -0.039328 -0.001263
0.000447 -0.039328 -0.001263
0.000447 -0.039328 -0.001263
0.000447 -0.039328 -0.001263
44.664230 -75.065567 6.082554
0.000447 -0.039328 -0.001263
0.000447 -0.039328 -0.001263
0.000447 -0.039328 -0.001263
0.000447 -0.039328 -0.001263
0.000447 -0.039328 -0.001263
0.290243 -0.529244 -0.339081
0.300220 -0.546515 -0.332535
0.321024 -0.581931 -0.336617
0.344732 -0.622516 -0.341538
0.379676 -0.682221 -0.354833
0.422463 -0.755343 -0.371595
0.481849 -0.856433 -0.397708
2.507386 -4.298235 -1.932479
2.702304 -4.633013 -1.942513
2.923352 -5.010793 -1.951555
3.191487 -5.471155 -1.968787
3.503814 -6.007535 -1.987555
3.861022 -6.618634 -2.000282
4.288818 -7.353500 -2.012444
4.822928 -8.270990 -2.031584
5.499856 -9.433922 -2.055059
5.824909 -9.890275 -1.884363
8.002942 -13.584750 -2.216329
8.602569 -14.605401 -1.980766
8.207703 -13.947737 -1.511956
8.200261 -13.946100 -1.134187
11.552505 -19.639177 -1.067863
0.000428 -0.039205 -0.001258
0.000428 -0.039205 -0.001258
0.000428 -0.039205 -0.001258
0.000428 -0.039205 -0.001258
0.000428 -0.039205 -0.001258
0.000428 -0.039205 -0.001258
0.000428 -0.039205 -0.001258
0.000428 -0.039205 -0.001258
0.000428 -0.039205 -0.001258
0.000428 -0.039205 -0.001258
0.287336 -0.530852 -0.339077
0.296342 -0.546684 -0.331552
0.323138 -0.592880 -0.342249
0.343056 -0.627527 -0.343328
0.374015 -0.681213 -0.353115
0.416374 -0.754572 -0.369962
0.477931 -0.860776 -0.398475
2.485798 -4.319367 -1.935378
2.677827 -4.653739 -1.944555
2.893816 -5.027958 -1.951543
3.160171 -5.491552 -1.969371
3.468344 -6.028116 -1.987541
3.824826 -6.646352 -2.001788
4.248251 -7.383755 -2.013811
4.778875 -8.307811 -2.033645
5.439104 -9.457779 -2.053184
5.792183 -9.968866 -1.892783
7.918454 -13.625067 -2.215187
8.485985 -14.604592 -1.973762
8.091976 -13.939306 -1.505781
8.088499 -13.944390 -1.130097
11.399838 -19.645090 -1.064451
11.351208 -19.576992 -0.531410
0.000432 -0.039102 -0.001255
44.511684 -76.746765 2.036020
0.000432 -0.039102 -0.001255
0.000432 -0.039102 -0.001255
0.000432 -0.039102 -0.001255
44.939140 -77.699387 10.469110
45.054157 -77.960266 12.626131
0.000432 -0.039102 -0.001255
0.000432 -0.039102 -0.001255
0.286304 -0.535321 -0.341114
0.293494 -0.548216 -0.331547
0.315627 -0.586900 -0.337547
0.339767 -0.629324 -0.343324
0.370431 -0.683185 -0.353110
0.417048 -0.764630 -0.374028
0.475157 -0.866510 -0.400012
2.462795 -4.334703 -1.936096
2.651886 -4.666418 -1.943858
2.867787 -5.047220 -1.952812
3.123965 -5.499051 -1.965779
3.434930 -6.045012 -1.986975
3.786890 -6.665812 -2.001265
4.206536 -7.403154 -2.012872
4.736008 -8.336837 -2.034460
5.376383 -9.466472 -2.048715
5.782917 -10.081330 -1.908023
7.303433 -12.726986 -2.062361
8.389645 -14.625813 -1.970245
7.983458 -13.930645 -1.499978
7.982331 -13.934197 -1.125728
11.252379 -19.642508 -1.060854
0.000436 -0.038998 -0.001252
0.000436 -0.038998 -0.001252
44.550682 -77.811203 2.057799
0.000436 -0.038998 -0.001252
44.784111 -78.312462 6.282622
35.564018 -62.247349 6.666355
45.000343 -78.816666 10.585858
0.000436 -0.038998 -0.001252
0.000436 -0.038998 -0.001252
0.000436 -0.038998 -0.001252
0.277489 -0.526386 -0.333966
0.291415 -0.551299 -0.332523
0.319444 -0.600892 -0.345058
0.334594 -0.628051 -0.341524
0.368490 -0.688342 -0.354818
0.406416 -0.755838 -0.368324
0.472196 -0.872333 -0.401549
2.439834 -4.351941 -1.937540
2.626234 -4.685243 -1.945216
2.837964 -5.061897 -1.952159
3.092479 -5.516858 -1.965767
3.403012 -6.071887 -1.989168
3.750567 -6.690780 -2.002264
4.164661 -7.431262 -2.013778
4.692448 -8.374918 -2.036939
5.322259 -9.501518 -2.049434
5.784457 -10.219036 -1.927810
7.240710 -12.792368 -2.065957
0.000440 -0.038894 -0.001249
7.868932 -13.915651 -1.493429
7.871219 -13.930877 -1.121639
11.108771 -19.652987 -1.057912
24.715137 -43.713093 -1.178492
0.000440 -0.038894 -0.001249
44.599861 -78.947166 2.081188
0.000440 -0.038894 -0.001249
0.000440 -0.038894 -0.001249
36.188957 -64.221306 6.854925
0.000440 -0.038894 -0.001249
32.503834 -57.755207 9.291739
0.000440 -0.038894 -0.001249
0.000440 -0.038894 -0.001249
0.270390 -0.520414 -0.328859
0.287517 -0.551394 -0.331539
0.308347 -0.588804 -0.336600
0.332827 -0.633029 -0.343314
0.363759 -0.688838 -0.353958
0.400513 -0.754883 -0.366693
0.460955 -0.863741 -0.396146
2.416030 -4.369503 -1.938986
2.602169 -4.705103 -1.947257
2.811795 -5.085161 -1.954709
3.060843 -5.536672 -1.966349
3.361660 -6.079515 -1.985291
3.711961 -6.714494 -2.002754
4.121080 -7.453325 -2.013300
4.640549 -8.394851 -2.035254
5.272429 -9.540493 -2.051267
5.783748 -10.359807 -1.947919
7.196187 -12.885601 -2.074296
0.000444 -0.038791 -0.001246
10.106407 -18.110624 -1.938010
10.181921 -18.252962 -1.465434
11.098369 -19.908567 -1.068079
24.566628 -44.057915 -1.183755
0.000444 -0.038791 -0.001246
44.614670 -80.078316 2.104170
0.000444 -0.038791 -0.001246
0.000444 -0.038791 -0.001246
34.097500 -61.334362 6.525573
32.617592 -58.721684 7.833710
32.315182 -58.201023 9.333529
0.000444 -0.038791 -0.001246
0.000444 -0.038791 -0.001246
0.265104 -0.517331 -0.325792
0.281177 -0.546816 -0.327613
0.308581 -0.596638 -0.340353
0.329411 -0.634837 -0.343311
0.358251 -0.687635 -0.352240
0.399023 -0.761865 -0.369130
0.453528 -0.861425 -0.393828
2.393718 -4.388119 -1.941157
2.575243 -4.719902 -1.947245
2.780840 -5.097831 -1.953414
3.026360 -5.549072 -1.964546
3.326813 -6.098668 -1.985276
3.674381 -6.737351 -2.003246
4.079235 -7.478529 -2.013744
4.588587 -8.414467 -2.033571
5.223280 -9.580939 -2.053471
5.794865 -10.520649 -1.971926
7.179545 -13.030730 -2.090999
8.068508 -14.651434 -1.954349
10.116632 -18.375914 -1.960139
10.201125 -18.536560 -1.483456
11.066663 -20.122528 -1.076093
0.000425 -0.038668 -0.001242
0.000425 -0.038668 -0.001242
44.657791 -81.251907 2.128393
0.000425 -0.038668 -0.001242
0.000425 -0.038668 -0.001242
0.000425 -0.038668 -0.001242
32.621944 -59.533768 7.917047
33.023930 -60.291348 9.638466
0.000425 -0.038668 -0.001242
0.000425 -0.038668 -0.001242
0.260689 -0.515714 -0.323746
0.282421 -0.555977 -0.332510
0.303668 -0.595192 -0.338469
0.325110 -0.635040 -0.342408
0.351067 -0.683241 -0.348813
0.393964 -0.762427 -0.368310
0.443499 -0.854185 -0.389195
2.366870 -4.398467 -1.939691
2.549140 -4.736207 -1.947918
2.753480 -5.117003 -1.954684
2.996398 -5.569670 -1.965726
3.290956 -6.115944 -1.984712
3.635739 -6.758299 -2.003230
4.036336 -7.501806 -2.013728
4.545868 -8.450991 -2.036051
5.170117 -9.614227 -2.054193
0.000431 -0.038561 -0.001239
6.677118 -12.287506 -1.965225
8.119145 -14.945282 -1.987325
10.128868 -18.650650 -1.983197
10.205957 -18.799944 -1.499797
0.000431 -0.038561 -0.001239
0.000431 -0.038561 -0.001239
0.000431 -0.038561 -0.001239
0.000431 -0.038561 -0.001239
0.000431 -0.038561 -0.001239
0.000431 -0.038561 -0.001239
0.000431 -0.038561 -0.001239
32.515022 -60.157379 7.975115
31.719385 -58.710247 9.356256
0.000431 -0.038561 -0.001239
0.000431 -0.038561 -0.001239
0.257951 -0.517109 -0.323743
0.276128 -0.551339 -0.328585
0.302123 -0.599931 -0.340343
0.320827 -0.635219 -0.341506
0.350754 -0.691503 -0.352231
0.390528 -0.766256 -0.369120
0.434425 -0.848477 -0.385333
2.344357 -4.416845 -1.941863
2.523873 -4.756109 -1.949959
2.725058 -5.134324 -1.955310
2.963601 -5.585051 -1.965117
3.252104 -6.130162 -1.983041
3.596992 -6.779033 -2.003216
3.993789 -7.528941 -2.014633
4.495855 -8.477699 -2.036031
5.115959 -9.649825 -2.055283
5.811166 -10.841981 -2.019614
6.617441 -12.351227 -1.969103
8.064175 -15.049435 -1.994964
10.140169 -18.929642 -2.006629
10.200067 -19.056995 -1.515438
11.132862 -20.804848 -1.105602
0.000435 -0.038458 -0.001235
0.000435 -0.038458 -0.001235
44.757805 -83.701790 2.179288
0.000435 -0.038458 -0.001235
32.816002 -61.481464 4.853168
31.515018 -59.094631 6.227936
0.000435 -0.038458 -0.001235
30.356226 -56.993912 9.053757
0.000435 -0.038458 -0.001235
0.000435 -0.038458 -0.001235
0.248655 -0.506363 -0.315574
0.279611 -0.565183 -0.336421
0.296321 -0.596936 -0.337522
0.314781 -0.632274 -0.338809
0.346017 -0.691859 -0.351370
0.382053 -0.760302 -0.365045
0.427020 -0.846034 -0.383014
2.319188 -4.432211 -1.942579
2.498421 -4.773794 -1.951317
2.695667 -5.151984 -1.955939
2.928834 -5.599035 -1.963909
3.213393 -6.141886 -1.980820
3.556929 -6.800151 -2.003200
3.950585 -7.551715 -2.014616
4.451723 -8.512007 -2.038094
5.065101 -9.687736 -2.057117
5.807975 -10.991244 -2.041021
6.539927 -12.376780 -1.967126
9.361987 -17.716097 -2.341704
10.135937 -19.193558 -2.028197
10.213490 -19.348116 -1.533878
0.000440 -0.038354 -0.001232
0.000440 -0.038354 -0.001232
0.000440 -0.038354 -0.001232
0.000440 -0.038354 -0.001232
0.000440 -0.038354 -0.001232
32.765629 -62.246574 4.898748
0.000440 -0.038354 -0.001232
30.165085 -57.405258 7.562904
30.093115 -57.292141 9.073590
0.000440 -0.038354 -0.001232
0.000440 -0.038354 -0.001232
0.241973 -0.500060 -0.310467
0.274162 -0.562049 -0.333477
0.293917 -0.600088 -0.338457
0.310522 -0.632375 -0.337906
0.341420 -0.692135 -0.350510
0.379592 -0.765631 -0.366669
0.419801 -0.843455 -0.380695
2.299014 -4.455312 -1.946936
2.471107 -4.787999 -1.951305
2.666173 -5.167320 -1.955927
2.898519 -5.619095 -1.965089
3.172868 -6.149944 -1.977496
3.520600 -6.825572 -2.004706
3.907237 -7.574230 -2.014599
4.408243 -8.547817 -2.040573
5.008531 -9.714888 -2.056726
5.815190 -11.159053 -2.066000
6.462329 -12.401848 -1.965149
8.104179 -15.556278 -2.049522
10.170984 -19.530443 -2.057587
10.223887 -19.640005 -1.552318
0.000418 -0.038235 -0.001228
0.000418 -0.038235 -0.001228
0.000418 -0.038235 -0.001228
0.000418 -0.038235 -0.001228
32.529343 -62.643890 3.272460
32.107021 -61.856915 4.853529
30.263081 -58.355812 6.113066
0.000418 -0.038235 -0.001228
31.701344 -61.204628 9.664756
0.000418 -0.038235 -0.001228
0.000418 -0.038235 -0.001228
0.241672 -0.505925 -0.313524
0.271917 -0.565045 -0.334452
0.290657 -0.601650 -0.338451
0.308735 -0.637230 -0.339698
0.338474 -0.695588 -0.351362
0.372883 -0.762813 -0.364222
0.413480 -0.842476 -0.379149
2.279472 -4.479962 -1.952019
2.444571 -4.803718 -1.951978
2.637435 -5.184154 -1.956554
2.864603 -5.632201 -1.963884
3.142002 -6.176570 -1.980241
3.478800 -6.840452 -2.003169
3.867313 -7.603431 -2.016429
4.360049 -8.574699 -2.040971
4.956297 -9.750481 -2.058189
0.000422 -0.038131 -0.001225
6.380132 -12.417632 -1.961779
0.000422 -0.038131 -0.001225
7.991545 -15.570843 -1.634961
10.225791 -19.922018 -1.569917
0.000422 -0.038131 -0.001225
0.000422 -0.038131 -0.001225
0.000422 -0.038131 -0.001225
0.000422 -0.038131 -0.001225
0.000422 -0.038131 -0.001225
0.000422 -0.038131 -0.001225
0.000422 -0.038131 -0.001225
28.315979 -55.428001 7.258931
29.463184 -57.696442 9.083522
0.000422 -0.038131 -0.001225
0.000422 -0.038131 -0.001225
0.233510 -0.496459 -0.306375
0.264153 -0.557177 -0.328568
0.288222 -0.604792 -0.339387
0.302838 -0.634097 -0.336999
0.330588 -0.689351 -0.347076
0.365406 -0.758330 -0.360962
0.409674 -0.846382 -0.379915
2.255550 -4.496246 -1.953465
2.422153 -4.827662 -1.956072
2.609480 -5.202549 -1.957825
2.833193 -5.650201 -1.964467
3.098794 -6.179008 -1.975260
3.441315 -6.863734 -2.004169
3.826308 -7.630691 -2.017798
4.316105 -8.610060 -2.043452
4.901147 -9.780500 -2.058539
5.756461 -11.362311 -2.091281
6.306036 -12.448765 -1.960917
7.751366 -15.306535 -2.004606
0.000426 -0.038027 -0.001221
10.239221 -20.233164 -1.589756
0.000426 -0.038027 -0.001221
0.000426 -0.038027 -0.001221
0.000426 -0.038027 -0.001221
0.000426 -0.038027 -0.001221
31.641233 -62.687836 3.255718
30.927984 -61.301586 4.781860
29.160673 -57.850403 6.024689
28.007223 -55.611324 7.261814
29.125269 -57.854424 9.081960
0.000426 -0.038027 -0.001221
0.000426 -0.038027 -0.001221
0.233934 -0.503826 -0.310452
0.262728 -0.561706 -0.330524
0.282579 -0.601596 -0.336565
0.300193 -0.637311 -0.337892
0.326836 -0.691141 -0.347072
0.366011 -0.770175 -0.365840
0.400065 -0.838711 -0.375283
2.232319 -4.514052 -1.955637
2.393689 -4.841843 -1.956060
2.578845 -5.215691 -1.957172
2.801680 -5.668036 -1.965051
3.064018 -6.200629 -1.976350
3.397640 -6.874671 -2.001618
3.782053 -7.654900 -2.018243
4.265147 -8.635401 -2.043432
4.843247 -9.809301 -2.058518
5.694697 -11.402241 -2.092558
6.225172 -12.471681 -1.958660
7.633076 -15.290419 -1.996675
8.516500 -17.070492 -1.782215
8.591884 -17.236109 -1.349951
0.000430 -0.037924 -0.001218
0.000430 -0.037924 -0.001218
0.000430 -0.037924 -0.001218
32.542393 -65.348351 1.676258
32.826469 -65.975510 3.416870
31.271194 -62.905865 4.892662
28.964230 -58.318325 6.055558
30.038443 -60.505756 7.878863
28.751762 -57.965805 9.072616
0.000430 -0.037924 -0.001218
0.000430 -0.037924 -0.001218
0.220499 -0.483506 -0.296160
0.260372 -0.564696 -0.331499
0.277675 -0.599991 -0.334682
0.303747 -0.653409 -0.345968
0.323746 -0.694577 -0.347923
0.358437 -0.765668 -0.362580
0.396109 -0.842610 -0.376048
2.210638 -4.537138 -1.959993
2.367631 -4.860921 -1.958102
2.549725 -5.234181 -1.958439
2.769899 -5.687881 -1.966230
3.029064 -6.222031 -1.977438
3.350203 -6.880700 -1.997547
3.741068 -7.685845 -2.020534
4.218347 -8.669238 -2.045495
4.787771 -9.843066 -2.059610
5.622792 -11.426878 -2.090911
6.147781 -12.501191 -1.957520
7.520465 -15.290785 -1.990834
7.929544 -16.134550 -1.679379
0.000411 -0.037801 -0.001214
0.000411 -0.037801 -0.001214
0.000411 -0.037801 -0.001214
0.000411 -0.037801 -0.001214
31.645912 -64.504555 1.649850
31.868065 -65.013855 3.357282
0.000411 -0.037801 -0.001214
29.915628 -61.139671 6.330328
0.000411 -0.037801 -0.001214
28.332687 -57.982239 9.048822
28.529057 -58.434929 10.661673
0.000411 -0.037801 -0.001214
0.225541 -0.500086 -0.306362
0.259710 -0.570733 -0.334435
0.279160 -0.610948 -0.340314
0.294062 -0.642127 -0.338781
0.319282 -0.694637 -0.347062
0.354373 -0.767557 -0.362576
0.390804 -0.843036 -0.375272
0.473806 -1.015127 -0.425575
2.342285 -4.877338 -1.959458
2.522315 -5.251642 -1.959708
2.739132 -5.704871 -1.966812
2.993653 -6.237019 -1.976873
3.312757 -6.900925 -1.998038
3.700839 -7.711778 -2.021902
4.169236 -8.690802 -2.045061
4.734651 -9.873096 -2.060332
5.561675 -11.463307 -2.091861
6.072015 -12.522758 -1.955544
7.449931 -15.362817 -1.994755
7.860413 -16.221474 -1.683818
0.000417 -0.037695 -0.001211
0.000417 -0.037695 -0.001211
0.000417 -0.037695 -0.001211
0.000417 -0.037695 -0.001211
0.000417 -0.037695 -0.001211
0.000417 -0.037695 -0.001211
0.000417 -0.037695 -0.001211
28.895224 -59.899616 6.185133
28.563902 -59.239033 7.670643
26.715143 -55.456131 8.630960
28.366056 -58.932846 10.723621
0.000417 -0.037695 -0.001211
0.206436 -0.467194 -0.283905
0.255800 -0.570595 -0.333451
0.275735 -0.612472 -0.340308
0.288918 -0.640522 -0.336981
0.314598 -0.694777 -0.346202
0.347793 -0.764525 -0.360129
0.387609 -0.848563 -0.376810
0.468813 -1.019505 -0.426298
2.316805 -4.895735 -1.961501
2.493780 -5.271549 -1.961618
2.706270 -5.722637 -1.967395
2.958720 -6.255783 -1.977410
3.269480 -6.915108 -1.996501
3.662421 -7.745155 -2.025116
4.121838 -8.719853 -2.046291
4.680439 -9.905409 -2.061423
5.477572 -11.462193 -2.085669
5.992301 -12.541336 -1.953009
7.239610 -15.157587 -1.962420
7.265845 -15.225835 -1.575773
7.308030 -15.320743 -1.189597
7.678690 -16.110180 -0.835863
0.000421 -0.037591 -0.001207
0.000421 -0.037591 -0.001207
0.000421 -0.037591 -0.001207
0.000421 -0.037591 -0.001207
0.000421 -0.037591 -0.001207
28.260880 -59.457081 6.122596
27.130157 -57.130463 7.376523
26.544222 -55.922016 8.679694
27.027937 -56.991135 10.341641
0.000421 -0.037591 -0.001207
0.206160 -0.472927 -0.286963
0.254204 -0.575095 -0.335406
0.270921 -0.610753 -0.338426
0.290766 -0.653375 -0.343260
0.317740 -0.711186 -0.353902
0.349829 -0.779633 -0.366636
0.378996 -0.842320 -0.372948
0.459181 -1.013644 -0.422653
2.289588 -4.910591 -1.962173
2.466809 -5.292574 -1.964167
2.673470 -5.738015 -1.967381
2.924503 -6.276105 -1.978500
3.227360 -6.928470 -1.994966
3.616307 -7.762480 -2.024176
4.071759 -8.743341 -2.046272
4.623539 -9.932106 -2.061403
5.401561 -11.472023 -2.081749
5.910898 -12.555841 -1.949919
7.364278 -15.648077 -2.020489
7.158711 -15.225882 -1.571460
7.173130 -15.263209 -1.181870
7.324793 -15.599088 -0.807093
0.000426 -0.037487 -0.001204
0.000426 -0.037487 -0.001204
0.000426 -0.037487 -0.001204
0.000426 -0.037487 -0.001204
0.000426 -0.037487 -0.001204
0.000426 -0.037487 -0.001204
0.000426 -0.037487 -0.001204
0.000426 -0.037487 -0.001204
26.464586 -56.643318 10.250754
0.000426 -0.037487 -0.001204
0.185513 -0.435024 -0.261445
0.247435 -0.568539 -0.330502
0.266869 -0.610594 -0.337482
0.281967 -0.643601 -0.336973
0.307021 -0.698154 -0.346194
0.344766 -0.779856 -0.365816
0.374363 -0.844387 -0.372944
0.450405 -1.009392 -0.419736
2.263858 -4.928712 -1.964215
2.442073 -5.318629 -1.968640
2.642196 -5.756676 -1.968560
2.887700 -6.290980 -1.977933
3.184380 -6.939810 -1.992923
3.564433 -7.767180 -2.020006
4.022379 -8.768323 -2.046670
4.568120 -9.962036 -2.062124
5.341437 -11.515359 -2.083998
5.881305 -12.681158 -1.964112
7.115196 -15.347854 -1.976305
7.063569 -15.250496 -1.569754
7.071048 -15.273399 -1.179462
0.000430 -0.037384 -0.001201
0.000430 -0.037384 -0.001201
0.000430 -0.037384 -0.001201
0.000430 -0.037384 -0.001201
0.000430 -0.037384 -0.001201
28.936005 -62.671131 4.808112
0.000430 -0.037384 -0.001201
0.000430 -0.037384 -0.001201
0.000430 -0.037384 -0.001201
27.018993 -58.707432 10.596358
27.717533 -60.279007 12.477547
0.183924 -0.437532 -0.262461
0.245084 -0.571422 -0.331477
0.262836 -0.610412 -0.336539
0.283650 -0.656465 -0.343251
0.300937 -0.694853 -0.343620
0.339744 -0.780074 -0.364999
0.368167 -0.843054 -0.371396
0.439389 -0.999995 -0.414635
2.239534 -4.950104 -1.967625
2.412403 -5.334225 -1.969268
2.611585 -5.776906 -1.970335
2.854812 -6.314399 -1.980125
3.144578 -6.957936 -1.992908
3.515013 -7.776830 -2.017219
3.971225 -8.789463 -2.046237
4.513306 -9.993436 -2.063215
5.276065 -11.547619 -2.084300
5.876849 -12.864156 -1.987225
7.036821 -15.410145 -1.979064
6.983288 -15.307119 -1.571401
6.995605 -15.340968 -1.181530
0.000410 -0.037261 -0.001196
29.715406 -65.165016 -1.678884
0.000410 -0.037261 -0.001196
0.000410 -0.037261 -0.001196
0.000410 -0.037261 -0.001196
0.000410 -0.037261 -0.001196
0.000410 -0.037261 -0.001196
0.000410 -0.037261 -0.001196
0.000410 -0.037261 -0.001196
0.000410 -0.037261 -0.001196
25.672989 -56.692245 11.703875
0.000414 -0.037157 -0.001193
0.242729 -0.574312 -0.332453
0.259520 -0.611798 -0.336533
0.275686 -0.648211 -0.337861
0.302337 -0.708004 -0.349607
0.333809 -0.778617 -0.363365
0.361268 -0.840019 -0.369079
0.426983 -0.987118 -0.408080
2.211107 -4.964913 -1.968297
2.382630 -5.349658 -1.969897
2.576939 -5.788273 -1.969131
2.817519 -6.331124 -1.980111
3.103081 -6.972286 -1.991879
3.459513 -7.776142 -2.011665
3.920820 -8.816344 -2.047050
4.456551 -10.025319 -2.064306
5.209696 -11.577720 -2.084277
5.874720 -13.062984 -2.012568
7.093473 -15.772662 -2.020399
7.106193 -15.815422 -1.619415
6.939061 -15.458522 -1.187378
0.000414 -0.037157 -0.001193
26.498722 -59.011818 -1.516320
0.000414 -0.037157 -0.001193
29.173824 -65.055237 1.637851
0.000414 -0.037157 -0.001193
7.128811 -15.953458 1.214506
7.141582 -15.996757 1.626197
0.000414 -0.037157 -0.001193
0.000414 -0.037157 -0.001193
25.698761 -57.602581 10.342052
26.888062 -60.294266 12.415990
0.000418 -0.037054 -0.001190
0.240238 -0.577225 -0.333429
0.255382 -0.611601 -0.335589
0.272781 -0.651361 -0.338754
0.301294 -0.716301 -0.353028
0.327323 -0.775416 -0.360919
0.356485 -0.842030 -0.369073
0.416813 -0.979294 -0.403707
2.185734 -4.984343 -1.971024
2.355642 -5.373986 -1.973727
2.544295 -5.806843 -1.970309
2.785114 -6.355951 -1.982857
3.064217 -6.995787 -1.993384
3.408594 -7.781563 -2.007954
3.870961 -8.840452 -2.047447
4.402902 -10.059711 -2.066140
5.144314 -11.615524 -2.085551
5.885590 -13.290158 -2.042370
7.054746 -15.937840 -2.036170
7.495793 -16.947697 -1.730927
7.499064 -16.962879 -1.299723
26.483618 -59.870304 -3.066698
0.000418 -0.037054 -0.001190
0.000418 -0.037054 -0.001190
0.000418 -0.037054 -0.001190
7.091983 -16.111334 0.814335
0.000418 -0.037054 -0.001190
7.051160 -16.041161 1.626598
25.232079 -57.362686 7.309558
25.970247 -59.067135 9.048162
25.647930 -58.389118 10.456783
0.000418 -0.037054 -0.001190
0.000423 -0.036950 -0.001187
0.237132 -0.578494 -0.333425
0.254200 -0.617814 -0.338403
0.272815 -0.661006 -0.343239
0.295331 -0.712896 -0.350456
0.323803 -0.778858 -0.361729
0.353308 -0.847337 -0.370610
0.409308 -0.976373 -0.401518
2.163960 -5.012261 -1.977173
2.328077 -5.392174 -1.975637
2.518106 -5.834857 -1.975064
2.745594 -6.364706 -1.980634
3.023753 -7.009125 -1.992354
3.361629 -7.795619 -2.006554
3.822508 -8.863620 -2.047845
4.349204 -10.089449 -2.067232
5.078343 -11.646669 -2.085853
5.884524 -13.496115 -2.068827
0.000423 -0.036950 -0.001187
7.381536 -16.952139 -1.726983
0.000423 -0.036950 -0.001187
6.947547 -15.980012 -0.815926
6.974497 -16.049313 -0.410417
6.976451 -16.068939 -0.004927
27.156862 -62.505463 1.565688
0.000423 -0.036950 -0.001187
0.000423 -0.036950 -0.001187
6.889534 -15.913935 1.609761
6.973862 -16.123466 2.045357
26.285528 -60.729568 9.279775
25.334965 -58.562099 10.462390
24.503862 -56.695805 11.615774
0.000403 -0.036828 -0.001182
0.232018 -0.574886 -0.330479
0.249558 -0.615876 -0.336521
0.270734 -0.665692 -0.345030
0.287843 -0.706157 -0.346169
0.320947 -0.783948 -0.363351
0.347341 -0.845812 -0.369065
0.402439 -0.975194 -0.400059
2.136744 -5.027988 -1.978529
2.300176 -5.412354 -1.978187
2.483922 -5.847407 -1.974455
2.709879 -6.382094 -1.981173
2.983554 -7.026324 -1.992339
3.313825 -7.807576 -2.004691
3.771608 -8.889647 -2.048659
4.291784 -10.120399 -2.068323
5.017325 -11.683801 -2.087453
0.000403 -0.036828 -0.001182
0.000403 -0.036828 -0.001182
7.270453 -16.954584 -1.723042
0.000403 -0.036828 -0.001182
0.000403 -0.036828 -0.001182
0.000403 -0.036828 -0.001182
27.918280 -65.219818 -0.016243
0.000403 -0.036828 -0.001182
27.600100 -64.568916 3.256962
6.847270 -16.061069 1.213624
6.774102 -15.904980 1.604787
6.842897 -16.073719 2.034026
25.285486 -59.354824 9.047259
0.000403 -0.036828 -0.001182
25.392626 -59.691441 12.199927
0.000407 -0.036724 -0.001179
0.228151 -0.574547 -0.329495
0.246790 -0.618848 -0.337454
0.259345 -0.649077 -0.335150
0.287400 -0.716081 -0.350446
0.315227 -0.782316 -0.361719
0.339652 -0.840941 -0.365974
0.393224 -0.968855 -0.396413
2.109415 -5.043563 -1.979886
2.269710 -5.429295 -1.979456
2.450874 -5.865453 -1.975634
2.674029 -6.399259 -1.981710
2.939769 -7.038439 -1.990802
3.267511 -7.822835 -2.003751
3.722078 -8.914730 -2.049474
4.238192 -10.155720 -2.070527
4.950432 -11.718715 -2.088404
5.908294 -13.985883 -2.133447
6.880395 -16.296705 -2.066520
7.153648 -16.958799 -1.719098
0.000407 -0.036724 -0.001179
27.342352 -64.811417 -3.294829
27.431778 -65.085960 -1.655117
0.000407 -0.036724 -0.001179
0.000407 -0.036724 -0.001179
0.000407 -0.036724 -0.001179
0.000407 -0.036724 -0.001179
6.728874 -16.053778 1.615939
0.000407 -0.036724 -0.001179
0.000407 -0.036724 -0.001179
24.565006 -58.653873 10.426978
24.933466 -59.590755 12.148989
0.000411 -0.036620 -0.001176
0.224380 -0.574135 -0.328511
0.242754 -0.618522 -0.336511
0.255116 -0.648793 -0.334247
0.284179 -0.719288 -0.351298
0.311636 -0.785701 -0.362529
0.335715 -0.844471 -0.366740
0.382872 -0.958962 -0.391314
2.085572 -5.067669 -1.984664
2.241504 -5.449170 -1.982005
2.420182 -5.886421 -1.978005
2.638068 -6.416219 -1.982247
2.898670 -7.053371 -1.990281
3.219645 -7.834229 -2.001889
3.669383 -8.932289 -2.048622
4.179845 -10.179859 -2.070506
4.889915 -11.763325 -2.091303
5.904812 -14.204209 -2.161575
6.752274 -16.253431 -2.056032
7.049196 -16.983067 -1.717391
7.056627 -17.009113 -1.290358
0.000411 -0.036620 -0.001176
0.000411 -0.036620 -0.001176
0.000411 -0.036620 -0.001176
0.000411 -0.036620 -0.001176
0.000411 -0.036620 -0.001176
0.000411 -0.036620 -0.001176
0.000411 -0.036620 -0.001176
0.000411 -0.036620 -0.001176
0.000411 -0.036620 -0.001176
0.000411 -0.036620 -0.001176
23.327190 -56.667351 11.525083
0.000416 -0.036517 -0.001173
0.222595 -0.578529 -0.330466
0.238069 -0.616541 -0.334628
0.256323 -0.661718 -0.340527
0.277500 -0.714107 -0.347869
0.305911 -0.783978 -0.360895
0.330355 -0.844572 -0.365964
0.376149 -0.957597 -0.389853
2.059391 -5.086445 -1.987390
2.215303 -5.474169 -1.986477
2.390046 -5.908997 -1.980972
2.598393 -6.424084 -1.980027
2.859654 -7.073416 -1.991279
3.172473 -7.847118 -2.000486
3.614419 -8.944108 -2.046523
4.122818 -10.207289 -2.071226
4.823035 -11.793007 -2.091604
5.823870 -14.239710 -2.161827
6.641425 -16.249651 -2.050655
7.056284 -17.279442 -1.743238
7.076566 -17.337427 -1.312153
26.328434 -64.470871 -3.261660
0.000416 -0.036517 -0.001173
0.000416 -0.036517 -0.001173
0.000416 -0.036517 -0.001173
0.000416 -0.036517 -0.001173
0.000416 -0.036517 -0.001173
24.510839 -60.318790 6.056371
6.467029 -15.956614 2.004670
0.000416 -0.036517 -0.001173
6.485125 -16.024788 2.829765
23.075195 -56.984612 11.562542
0.000396 -0.036394 -0.001168
0.219461 -0.579685 -0.330461
0.235372 -0.619422 -0.335562
0.254055 -0.666393 -0.342318
0.274253 -0.717249 -0.348719
0.301611 -0.785622 -0.360891
0.322941 -0.839501 -0.362874
0.369438 -0.956168 -0.388392
2.028189 -5.092892 -1.985325
2.183245 -5.484971 -1.985824
2.357618 -5.926109 -1.982152
2.562267 -6.440612 -1.980564
2.820521 -7.093262 -1.992278
3.123839 -7.856125 -1.998163
3.563783 -8.966488 -2.046921
4.066360 -10.236232 -2.072317
4.757453 -11.825967 -2.092553
5.741220 -14.271065 -2.161519
6.536812 -16.259893 -2.047139
7.074338 -17.611553 -1.772624
0.000396 -0.036394 -0.001168
19.711588 -49.081726 -2.477077
0.000396 -0.036394 -0.001168
0.000396 -0.036394 -0.001168
0.000396 -0.036394 -0.001168
0.000396 -0.036394 -0.001168
0.000396 -0.036394 -0.001168
0.000396 -0.036394 -0.001168
6.426080 -16.120766 2.020702
6.338096 -15.908392 2.397164
0.000396 -0.036394 -0.001168
0.000396 -0.036394 -0.001168
0.000400 -0.036290 -0.001165
0.217632 -0.584085 -0.332418
0.231359 -0.619018 -0.334619
0.249097 -0.664405 -0.340517
0.269660 -0.717028 -0.347858
0.296479 -0.785587 -0.360072
0.317640 -0.839527 -0.362098
0.366191 -0.963376 -0.390571
2.000205 -5.109971 -1.987366
2.155286 -5.506150 -1.989013
2.326453 -5.946591 -1.984523
2.525624 -6.459173 -1.981652
2.778412 -7.105674 -1.991248
3.076656 -7.872590 -1.997683
3.515725 -9.000115 -2.049815
4.007204 -10.263743 -2.073038
4.693846 -11.864076 -2.094478
5.648636 -14.284534 -2.158426
6.434492 -16.275009 -2.044321
7.071221 -17.900024 -1.797542
6.948616 -17.608019 -1.326359
19.416302 -49.162746 -2.475399
0.000400 -0.036290 -0.001165
0.000400 -0.036290 -0.001165
0.000400 -0.036290 -0.001165
0.000400 -0.036290 -0.001165
0.000400 -0.036290 -0.001165
26.487112 -67.427025 6.739330
0.000400 -0.036290 -0.001165
6.243814 -15.945617 2.397194
6.219917 -15.900839 2.794853
0.000400 -0.036290 -0.001165
0.000404 -0.036187 -0.001162
0.215002 -0.586878 -0.333394
0.229811 -0.625200 -0.337432
0.244727 -0.664102 -0.339616
0.266277 -0.720194 -0.348710
0.292836 -0.788888 -0.360882
0.314199 -0.844724 -0.363636
0.357301 -0.956725 -0.386925
1.970280 -5.119555 -1.986670
2.125536 -5.525811 -1.991564
2.297522 -5.976196 -1.989873
2.493453 -6.486066 -1.985500
2.737105 -7.123734 -1.991739
3.030082 -7.886453 -1.996745
3.459117 -9.007338 -2.046883
3.952470 -10.297550 -2.075242
4.629330 -11.906333 -2.097053
5.571516 -14.329638 -2.160350
6.324324 -16.277626 -2.039874
7.093581 -18.271896 -1.830649
6.877674 -17.725746 -1.332204
8.472830 -21.851055 -1.097270
25.439075 -65.602982 -1.648268
0.000404 -0.036187 -0.001162
24.614607 -63.575127 1.567016
0.000404 -0.036187 -0.001162
0.000404 -0.036187 -0.001162
0.000404 -0.036187 -0.001162
22.443878 -58.179699 7.274432
6.199115 -16.103146 2.415569
6.109276 -15.886556 2.786140
6.081542 -15.830834 3.184100
0.000408 -0.036083 -0.001159
0.210570 -0.584732 -0.331428
0.226432 -0.626420 -0.337429
0.239821 -0.662048 -0.337815
0.261687 -0.719921 -0.347850
0.287834 -0.788738 -0.360063
0.308895 -0.844704 -0.362861
0.352663 -0.960406 -0.387649
1.941640 -5.132465 -1.987342
2.095212 -5.541387 -1.992831
2.263953 -5.991012 -1.990456
2.459666 -6.509189 -1.988244
2.698298 -7.144698 -1.993244
2.987573 -7.910939 -1.998573
3.399073 -9.005052 -2.041870
3.889821 -10.310841 -2.073367
4.561595 -11.934533 -2.097354
5.464309 -14.296661 -2.150567
5.159865 -13.516013 -1.689451
7.105076 -18.617382 -1.861149
8.640246 -22.643982 -1.698467
0.000408 -0.036083 -0.001159
0.000408 -0.036083 -0.001159
0.000408 -0.036083 -0.001159
0.000408 -0.036083 -0.001159
24.690323 -64.944038 3.223347
23.607279 -62.128681 4.630560
0.000408 -0.036083 -0.001159
0.000408 -0.036083 -0.001159
0.000408 -0.036083 -0.001159
6.001815 -15.878922 2.778722
5.986310 -15.854460 3.181911
0.000413 -0.035980 -0.001156
0.211085 -0.595612 -0.337304
0.224269 -0.630905 -0.339302
0.238725 -0.670002 -0.341402
0.257746 -0.721309 -0.347845
0.282203 -0.786845 -0.358430
0.308747 -0.858440 -0.368253
0.347977 -0.964050 -0.388371
1.909618 -5.136415 -1.984592
2.067466 -5.563915 -1.996663
2.232286 -6.010996 -1.992827
2.425026 -6.530339 -1.990435
2.655298 -7.154588 -1.991709
2.941500 -7.926097 -1.998096
3.343946 -9.015204 -2.039770
3.834689 -10.344017 -2.075570
4.497156 -11.971576 -2.099277
5.113380 -13.614214 -2.043223
5.073056 -13.521234 -1.686405
8.477987 -22.596628 -2.254516
0.000413 -0.035980 -0.001156
0.000413 -0.035980 -0.001156
0.000413 -0.035980 -0.001156
0.000413 -0.035980 -0.001156
0.000413 -0.035980 -0.001156
0.000413 -0.035980 -0.001156
0.000413 -0.035980 -0.001156
22.998047 -61.655891 6.121789
0.000413 -0.035980 -0.001156
22.377701 -60.088230 8.992510
5.953147 -16.027781 2.798831
5.880030 -15.848027 3.173803
0.000393 -0.035857 -0.001151
0.203634 -0.585270 -0.330440
0.222066 -0.635392 -0.341177
0.235685 -0.672929 -0.342295
0.255660 -0.727752 -0.350408
0.277889 -0.788361 -0.358426
0.302091 -0.854901 -0.365935
0.341336 -0.962434 -0.386910
1.883454 -5.156042 -1.988003
2.033629 -5.570282 -1.994728
2.199823 -6.029034 -1.994603
2.389572 -6.549513 -1.992076
2.614920 -7.171472 -1.992200
2.898006 -7.948273 -1.999463
3.288813 -9.025018 -2.037670
3.777275 -10.371359 -2.076661
4.431753 -12.006417 -2.100876
5.023414 -13.611757 -2.038458
4.983603 -13.518449 -1.682429
5.131821 -13.934228 -1.386323
8.393766 -22.781094 -1.701322
5.298223 -14.407723 -0.718500
5.310035 -14.455125 -0.360947
0.000393 -0.035857 -0.001151
0.000393 -0.035857 -0.001151
0.000393 -0.035857 -0.001151
23.034201 -62.787704 4.659852
0.000393 -0.035857 -0.001151
0.000393 -0.035857 -0.001151
0.000393 -0.035857 -0.001151
0.000393 -0.035857 -0.001151
5.771336 -15.833517 3.164215
0.000397 -0.035753 -0.001148
0.199266 -0.583043 -0.328475
0.216194 -0.629911 -0.337415
0.230192 -0.669137 -0.339598
0.247984 -0.718914 -0.345268
0.272919 -0.788119 -0.357607
0.299257 -0.861724 -0.368244
0.334103 -0.959022 -0.384722
1.853298 -5.164933 -1.987306
2.001084 -5.580022 -1.994075
2.171086 -6.057654 -1.999954
2.353327 -6.566682 -1.993166
2.575082 -7.189943 -1.993198
2.853712 -7.968397 -2.000370
3.231697 -9.028979 -2.034322
3.719681 -10.398388 -2.077753
4.364769 -12.037206 -2.101827
4.937702 -13.619883 -2.035366
4.896372 -13.520674 -1.679150
5.046264 -13.948470 -1.384807
5.211207 -14.410926 -1.073384
5.209230 -14.420978 -0.717629
0.000397 -0.035753 -0.001148
25.908817 -71.702400 -0.016131
0.000397 -0.035753 -0.001148
22.792364 -63.218159 3.117924
0.000397 -0.035753 -0.001148
22.575537 -62.718346 6.201353
21.894091 -60.892075 7.549191
20.883671 -58.114540 8.660561
21.375137 -59.545845 10.374801
5.719409 -15.975521 3.186071
0.000401 -0.035650 -0.001145
0.192602 -0.574226 -0.322591
0.210396 -0.624385 -0.333654
0.227141 -0.672026 -0.340491
0.245260 -0.723631 -0.346976
0.270892 -0.796495 -0.360858
0.292653 -0.858119 -0.365926
0.328158 -0.959070 -0.383990
1.824069 -5.179263 -1.988662
1.965960 -5.582420 -1.990860
2.135748 -6.068163 -1.999345
2.319658 -6.594925 -1.997564
2.533822 -7.204539 -1.993182
2.807222 -7.986907 -2.000813
3.175653 -9.040499 -2.032637
3.658781 -10.422028 -2.078102
4.298884 -12.071326 -2.103426
4.847015 -13.620850 -2.031157
4.809952 -13.524219 -1.676103
4.959362 -13.958432 -1.382918
0.000401 -0.035650 -0.001145
5.110891 -14.407331 -0.715449
5.111480 -14.424685 -0.358646
5.108565 -14.432261 -0.004123
22.982079 -64.841103 1.581842
22.422100 -63.331322 3.117198
22.897173 -64.743401 4.785145
0.000401 -0.035650 -0.001145
0.000401 -0.035650 -0.001145
20.476713 -58.061741 8.634535
0.000401 -0.035650 -0.001145
0.000401 -0.035650 -0.001145
0.000406 -0.035546 -0.001142
0.193441 -0.586774 -0.329447
0.209223 -0.632176 -0.337406
0.222775 -0.671571 -0.339589
0.240564 -0.723246 -0.346114
0.264706 -0.792768 -0.358412
0.287759 -0.859727 -0.365921
0.320220 -0.953856 -0.381073
1.793798 -5.187806 -1.987965
1.934871 -5.599249 -1.992768
2.107420 -6.102261 -2.006484
2.284359 -6.615331 -1.999756
2.495041 -7.230308 -1.996208
2.761396 -8.002844 -2.000797
3.123735 -9.058526 -2.032619
3.598259 -10.440967 -2.077711
4.230015 -12.103978 -2.104702
4.759532 -13.622272 -2.027230
4.724583 -13.537419 -1.674218
4.869429 -13.966825 -1.380843
5.011829 -14.382130 -1.066753
0.000406 -0.035546 -0.001142
5.010206 -14.409331 -0.357494
5.019655 -14.444345 -0.004093
5.008749 -14.429032 0.349737
0.000406 -0.035546 -0.001142
0.000406 -0.035546 -0.001142
0.000406 -0.035546 -0.001142
20.980633 -60.565575 7.477973
20.647226 -59.636478 8.851170
20.495193 -59.263649 10.283357
20.169062 -58.386295 11.618567
0.000386 -0.035424 -0.001137
0.184020 -0.569627 -0.318662
0.206919 -0.636594 -0.339279
0.220263 -0.676111 -0.341380
0.237180 -0.726216 -0.346965
0.261526 -0.797626 -0.360035
0.281819 -0.857775 -0.364374
0.314315 -0.953804 -0.380340
1.765915 -5.203279 -1.990006
1.902780 -5.610180 -1.992754
2.072439 -6.114186 -2.006470
2.248277 -6.633722 -2.001396
2.456062 -7.251788 -1.998220
2.715444 -8.018497 -2.000779
3.074244 -9.083679 -2.034266
3.550260 -10.496763 -2.084732
4.164275 -12.139215 -2.106625
0.000386 -0.035424 -0.001137
4.803535 -14.020833 -1.730650
4.781364 -13.971935 -1.378583
4.912949 -14.363475 -1.063229
0.000386 -0.035424 -0.001137
4.911819 -14.392443 -0.356344
0.000386 -0.035424 -0.001137
4.919947 -14.440497 0.349351
0.000386 -0.035424 -0.001137
0.000386 -0.035424 -0.001137
0.000386 -0.035424 -0.001137
0.000386 -0.035424 -0.001137
0.000386 -0.035424 -0.001137
20.996532 -61.862328 10.713551
0.000386 -0.035424 -0.001137
0.000390 -0.035320 -0.001134
0.176488 -0.557358 -0.310818
0.201781 -0.632660 -0.336458
0.215980 -0.675551 -0.340476
0.233195 -0.727463 -0.346961
0.256532 -0.797268 -0.359215
0.278234 -0.862760 -0.365910
0.307847 -0.951970 -0.378880
1.734346 -5.207922 -1.987942
1.870058 -5.619159 -1.992103
2.037386 -6.125907 -2.006456
2.213897 -6.657397 -2.004692
2.418754 -7.278555 -2.001753
2.671895 -8.041290 -2.002609
3.027016 -9.115969 -2.037576
3.475050 -10.472176 -2.075815
4.095767 -12.166638 -2.107251
4.735665 -14.070047 -2.085709
4.774296 -14.200641 -1.749442
4.728959 -14.082160 -1.386746
4.819517 -14.359267 -1.060822
0.000390 -0.035320 -0.001134
4.815685 -14.380578 -0.355333
0.000390 -0.035320 -0.001134
0.000390 -0.035320 -0.001134
0.000390 -0.035320 -0.001134
0.000390 -0.035320 -0.001134
21.765915 -65.174149 6.393126
20.470066 -61.366383 7.547527
20.134193 -60.394287 8.928929
19.837196 -59.572304 10.296840
0.000390 -0.035320 -0.001134
0.000394 -0.035216 -0.001131
0.170192 -0.548322 -0.304934
0.196655 -0.628662 -0.333635
0.212288 -0.676674 -0.340472
0.229220 -0.728697 -0.346957
0.250998 -0.795155 -0.357583
0.271729 -0.858981 -0.363592
0.301390 -0.950071 -0.377419
1.705690 -5.221281 -1.989298
1.838458 -5.631528 -1.992730
2.001103 -6.133823 -2.005252
2.178112 -6.677235 -2.006883
2.380600 -7.303284 -2.004778
2.627548 -8.061981 -2.003976
2.977097 -9.140579 -2.039222
3.405751 -10.463904 -2.070236
4.028306 -12.197409 -2.108525
4.716380 -14.283131 -2.113276
0.000394 -0.035216 -0.001131
4.715420 -14.313274 -1.406825
4.720072 -14.335533 -1.057019
4.836627 -14.705696 -0.724413
0.000394 -0.035216 -0.001131
4.724948 -14.391808 -0.003983
0.000394 -0.035216 -0.001131
0.000394 -0.035216 -0.001131
0.000394 -0.035216 -0.001131
0.000394 -0.035216 -0.001131
0.000394 -0.035216 -0.001131
0.000394 -0.035216 -0.001131
0.000394 -0.035216 -0.001131
0.000394 -0.035216 -0.001131
0.000398 -0.035113 -0.001128
0.165605 -0.544196 -0.301988
0.196511 -0.639756 -0.339266
0.207495 -0.674378 -0.338672
0.226330 -0.733328 -0.348664
0.247046 -0.798256 -0.358392
0.268678 -0.865682 -0.365900
0.300110 -0.964084 -0.382508
1.674894 -5.231213 -1.989287
1.806769 -5.643715 -1.993358
1.964774 -6.141502 -2.004046
2.142201 -6.700924 -2.010179
2.341069 -7.324132 -2.006790
2.584046 -8.090305 -2.007190
2.926595 -9.169153 -2.041700
3.340795 -10.474444 -2.068359
3.958802 -12.222178 -2.108826
4.725242 -14.598969 -2.155891
4.814830 -14.883715 -1.826752
4.720220 -14.609090 -1.433231
4.624679 -14.330899 -1.054612
4.736680 -14.685669 -0.722046
4.618797 -14.337837 -0.352892
0.000398 -0.035113 -0.001128
0.000398 -0.035113 -0.001128
6.794673 -21.138441 1.028600
20.666851 -64.301994 4.706815
21.261557 -66.229736 6.472155
0.000398 -0.035113 -0.001128
0.000398 -0.035113 -0.001128
0.000398 -0.035113 -0.001128
5.007909 -15.680866 3.090808
0.000403 -0.035009 -0.001125
0.161531 -0.541744 -0.300025
0.190770 -0.634061 -0.335504
0.203157 -0.673790 -0.337770
0.220554 -0.729390 -0.346092
0.242106 -0.797829 -0.357575
0.261528 -0.860129 -0.362812
0.292354 -0.958640 -0.379592
1.644358 -5.238861 -1.988589
1.774591 -5.657841 -1.994625
1.927923 -6.151117 -2.003435
2.106642 -6.722199 -2.012922
2.301269 -7.348873 -2.009816
2.539943 -8.112370 -2.009020
2.876881 -9.195092 -2.043763
3.278864 -10.487792 -2.067228
3.888824 -12.252880 -2.110101
4.670092 -14.716424 -2.169241
4.538384 -14.319340 -1.754007
4.501772 -14.221070 -1.392436
4.527810 -14.311558 -1.051229
4.520586 -14.305850 -0.702002
4.521177 -14.324846 -0.351881
0.000403 -0.035009 -0.001125
0.000403 -0.035009 -0.001125
6.680754 -21.214487 1.030402
20.393555 -64.728104 4.729465
0.000403 -0.035009 -0.001125
0.000403 -0.035009 -0.001125
19.435841 -61.875443 9.096866
0.000403 -0.035009 -0.001125
4.902043 -15.668931 3.082699
0.000383 -0.034886 -0.001120
0.152897 -0.524242 -0.289240
0.187334 -0.635056 -0.335501
0.200012 -0.676551 -0.338664
0.217202 -0.732221 -0.346943
0.237712 -0.799101 -0.357570
0.256232 -0.859755 -0.362036
0.282777 -0.945912 -0.373765
1.614354 -5.248135 -1.988577
1.743730 -5.669374 -1.995254
1.894290 -6.163499 -2.004017
2.071511 -6.745149 -2.016218
2.267798 -7.385538 -2.016390
2.499094 -8.145344 -2.013616
2.824537 -9.207177 -2.042913
3.211188 -10.475776 -2.061276
3.821313 -12.284374 -2.111700
4.587839 -14.750547 -2.170330
4.451902 -14.331856 -1.752353
4.424734 -14.261873 -1.393899
4.432479 -14.295373 -1.048124
0.000383 -0.034886 -0.001120
4.433579 -14.324924 -0.351245
4.429276 -14.328462 -0.003872
4.422596 -14.324298 0.343409
0.000383 -0.034886 -0.001120
0.000383 -0.034886 -0.001120
0.000383 -0.034886 -0.001120
19.165995 -62.191330 7.593178
0.000383 -0.034886 -0.001120
4.808015 -15.655183 2.680919
4.800210 -15.648976 3.073480
0.000387 -0.034783 -0.001117
0.149650 -0.523315 -0.288256
0.186024 -0.642725 -0.339252
0.197452 -0.680956 -0.340454
0.213164 -0.733338 -0.346937
0.232760 -0.798591 -0.356751
0.253759 -0.868119 -0.365116
0.279149 -0.952765 -0.375943
1.584846 -5.259037 -1.989249
1.709038 -5.671953 -1.992678
1.858979 -6.174215 -2.004005
2.034483 -6.762371 -2.017857
2.227659 -7.405775 -2.018402
2.456845 -8.174406 -2.017292
2.772309 -9.231159 -2.044559
3.146348 -10.485133 -2.059403
3.754586 -12.311091 -2.112651
4.505891 -14.786085 -2.171695
0.000387 -0.034783 -0.001117
4.326605 -14.225287 -1.387915
4.340403 -14.288118 -1.045720
0.000387 -0.034783 -0.001117
4.337249 -14.304200 -0.350095
4.333525 -14.309612 -0.003837
4.329351 -14.304643 0.342377
0.000387 -0.034783 -0.001117
0.000387 -0.034783 -0.001117
19.464865 -64.436615 6.263338
0.000387 -0.034783 -0.001117
0.000387 -0.034783 -0.001117
0.000387 -0.034783 -0.001117
4.682435 -15.584027 3.055382
0.000391 -0.034679 -0.001114
0.000391 -0.034679 -0.001114
0.179382 -0.633561 -0.333613
0.194639 -0.685433 -0.342245
0.207990 -0.731024 -0.345221
0.228874 -0.801560 -0.357560
0.249340 -0.871273 -0.365882
0.271566 -0.947152 -0.373027
1.554750 -5.267985 -1.989238
1.677720 -5.689160 -1.995228
1.823581 -6.188678 -2.005182
1.994612 -6.770183 -2.016740
2.189915 -7.439166 -2.023961
2.416005 -8.208852 -2.022352
2.722062 -9.256245 -2.046620
3.083314 -10.493536 -2.057528
3.682232 -12.334931 -2.112951
4.423131 -14.819273 -2.172782
4.303404 -14.437161 -1.759035
4.325458 -14.529202 -1.415064
4.246823 -14.274522 -1.042894
4.235697 -14.255117 -0.695747
0.000391 -0.034679 -0.001114
0.000391 -0.034679 -0.001114
0.000391 -0.034679 -0.001114
0.000391 -0.034679 -0.001114
19.442270 -65.642395 4.771404
0.000391 -0.034679 -0.001114
19.080950 -64.586487 7.858272
0.000391 -0.034679 -0.001114
0.000391 -0.034679 -0.001114
4.690082 -15.950788 3.122002
0.000396 -0.034576 -0.001111
0.000396 -0.034576 -0.001111
0.177428 -0.639568 -0.336427
0.187882 -0.676145 -0.336854
