# This PCD file was generated using the MATLAB® pcwrite function
# from Computer Vision Toolbox®.
# .PCD v.7 - Point Cloud Data file format
VERSION .7
FIELDS x y z
SIZE 4 4 4
TYPE F F F
COUNT 1 1 1
WIDTH 1636
HEIGHT 1
VIEWPOINT 0 0 0 1 0 0 0
POINTS 1636
DATA ascii
-0.000992 -0.112148 -0.004201
-3.092173 0.431287 0.362868
-10.135796 1.673122 1.442201
-0.000992 -0.112148 -0.004201
-0.000992 -0.112148 -0.004201
-2.727572 0.374187 -1.646662
-2.767898 0.382326 -1.583404
-2.844787 0.397042 -1.540273
-2.963746 0.418836 -1.515365
-3.052440 0.435776 -1.471619
-3.102957 0.445927 -1.407397
-3.083134 0.443429 -1.312281
-3.086623 0.444562 -1.228502
-3.087674 0.445822 -1.145819
-3.082910 0.446038 -1.062461
-3.081803 0.446904 -0.981184
-3.071051 0.445472 -0.898872
-3.084752 0.449032 -0.824688
-3.073881 0.448122 -0.744248
-3.078209 0.449979 -0.669054
-3.098268 0.454166 -0.597379
-3.088252 0.438377 -0.519379
-3.071709 0.436495 -0.442555
-3.080873 0.438649 -0.369488
-3.068611 0.437530 -0.294910
-3.080123 0.440660 -0.222914
-3.074277 0.440685 -0.149777
-3.090480 0.444126 -0.077038
-3.136388 0.453479 -0.004155
-0.000988 -0.112045 -0.004197
-3.101142 0.449278 0.142769
-3.096875 0.449037 0.215858
-10.152176 1.731220 0.958493
-0.000988 -0.112045 -0.004197
-0.000988 -0.112045 -0.004197
-0.000988 -0.112045 -0.004197
-0.000988 -0.112045 -0.004197
-0.000981 -0.111938 -0.004194
-2.754555 0.397434 -1.577513
-2.838252 0.413381 -1.538382
-2.951658 0.435396 -1.510865
-3.045585 0.453323 -1.469895
-3.106780 0.465768 -1.410638
-3.079768 0.461803 -1.312269
-3.086930 0.463652 -1.229943
-3.091719 0.465630 -1.148541
-3.090829 0.465983 -1.066289
-3.087907 0.466498 -0.984150
-3.086583 0.467334 -0.904372
-3.090977 0.468678 -0.827207
-3.080166 0.467721 -0.746540
-3.101923 0.472324 -0.674863
-3.108474 0.474652 -0.599958
-3.094546 0.459131 -0.520985
-3.089840 0.458787 -0.445602
-3.095046 0.460825 -0.371560
-3.082812 0.459632 -0.296568
-3.108183 0.464865 -0.225132
-0.000981 -0.111938 -0.004194
-10.210796 1.788643 -0.245138
-10.220763 1.794067 -0.004022
-10.187882 1.791494 0.236582
-10.179245 1.791592 0.478863
-10.172693 1.793923 0.719636
-10.151175 1.791605 0.959458
-0.000981 -0.111938 -0.004194
-10.141466 1.796866 1.446169
-10.134429 1.797248 1.690146
-10.115241 1.797155 1.935270
-2.720013 0.405926 -1.645618
-2.756795 0.413880 -1.580441
-2.837009 0.429655 -1.539309
-2.948573 0.451986 -1.510852
-3.045853 0.471650 -1.471591
-3.110676 0.484582 -1.413879
-3.091022 0.481889 -1.318422
-3.092730 0.483298 -1.233566
-3.103191 0.485819 -1.154001
-3.100464 0.486380 -1.070758
-3.105151 0.488364 -0.990689
-3.100289 0.487955 -0.909320
-3.114159 0.491714 -0.834285
-3.105517 0.490563 -0.753445
-5.495128 0.956168 -1.193746
-5.952533 1.047169 -1.146453
-3.108747 0.479823 -0.523891
-0.000977 -0.111834 -0.004191
-8.176815 1.448938 -0.975923
-0.000977 -0.111834 -0.004191
-0.000977 -0.111834 -0.004191
-0.000977 -0.111834 -0.004191
-0.000977 -0.111834 -0.004191
-0.000977 -0.111834 -0.004191
-10.194763 1.851874 0.237035
-10.183816 1.853330 0.479645
-10.175597 1.853462 0.720647
-10.157624 1.853544 0.961165
-10.155431 1.856677 1.205613
-10.142305 1.855845 1.447874
-10.138742 1.858696 1.692775
-10.123367 1.859251 1.939009
-0.000973 -0.111731 -0.004187
-2.767422 0.432550 -1.588265
-2.849440 0.449158 -1.547747
-2.948786 0.469750 -1.512634
-3.045970 0.489969 -1.473291
-3.117848 0.505270 -1.418745
-3.098414 0.501931 -1.323034
-3.116655 0.506639 -1.244465
-3.123576 0.509108 -1.162878
-3.124835 0.509872 -1.080348
-3.127863 0.511569 -0.999015
-0.000973 -0.111731 -0.004187
-4.895987 0.866553 -1.310849
-0.000973 -0.111731 -0.004187
-0.000973 -0.111731 -0.004187
-5.941692 1.081795 -1.145690
-0.000973 -0.111731 -0.004187
-0.000973 -0.111731 -0.004187
-0.000973 -0.111731 -0.004187
-8.466458 1.557902 -0.808997
-0.000973 -0.111731 -0.004187
-0.000973 -0.111731 -0.004187
-10.211762 1.911012 -0.245623
-0.000973 -0.111731 -0.004187
-10.195052 1.913005 0.237349
-10.182115 1.914002 0.480146
-10.167656 1.914693 0.720961
-10.159451 1.916626 0.962502
-10.163381 1.919124 1.207971
-10.145981 1.919216 1.450137
-10.138474 1.921260 1.694756
-10.125343 1.920350 1.941637
-0.447767 -0.021118 -0.274522
-2.743653 0.444912 -1.576496
-2.846069 0.466159 -1.547734
-2.929508 0.484122 -1.504546
-3.037146 0.506526 -1.470711
-3.132146 0.526966 -1.426867
-3.181529 0.538155 -1.360017
-3.562055 0.616485 -1.423400
-0.000968 -0.111627 -0.004184
-0.000968 -0.111627 -0.004184
-0.000968 -0.111627 -0.004184
-0.000968 -0.111627 -0.004184
-4.886481 0.894056 -1.309817
-5.187277 0.957801 -1.258747
-0.000968 -0.111627 -0.004184
-5.944550 1.117047 -1.147521
-0.000968 -0.111627 -0.004184
-7.146051 1.336667 -1.028595
-8.134635 1.539903 -0.973083
-8.483724 1.613776 -0.811567
-8.904202 1.700803 -0.639296
-9.929642 1.913044 -0.476468
-10.211698 1.972297 -0.245866
-10.209823 1.975507 -0.003915
-10.198511 1.976772 0.237756
-10.180061 1.974726 0.480647
-10.169485 1.976129 0.721973
-10.161608 1.976240 0.963836
-10.167096 1.980952 1.209866
-10.147684 1.980523 1.452121
-10.140496 1.980758 1.697061
-10.130786 1.982322 1.945006
-0.443885 -0.019216 -0.272476
-2.723435 0.456765 -1.566688
-2.837628 0.481076 -1.544904
-2.931392 0.501681 -1.507225
-3.033653 0.523582 -1.470698
-3.162500 0.551671 -1.442309
-0.000985 -0.111501 -0.004179
-3.587109 0.642603 -1.435024
-3.794935 0.687640 -1.415244
-4.011232 0.733875 -1.388888
-0.000985 -0.111501 -0.004179
-0.000985 -0.111501 -0.004179
-4.878906 0.921040 -1.309292
-5.171719 0.984848 -1.256422
-5.476066 1.050309 -1.193685
-5.933746 1.149511 -1.146759
-6.459859 1.234188 -1.087935
-7.135916 1.376254 -1.028291
-8.111666 1.582566 -0.971432
-8.501230 1.666934 -0.814139
-8.905667 1.753073 -0.640101
-9.906456 1.966121 -0.475875
-10.225330 2.034735 -0.246435
-10.207772 2.034646 -0.003882
-10.194510 2.035452 0.237976
-10.187783 2.035768 0.481613
-10.169386 2.035482 0.722845
-10.167330 2.036784 0.965544
-10.170784 2.041093 1.211758
-10.149397 2.040145 1.454104
-10.140228 2.039927 1.699041
-10.128526 2.041012 1.946891
-0.438289 -0.017558 -0.269410
-2.723420 0.473750 -1.568636
-2.832323 0.497625 -1.543953
-2.934700 0.520678 -1.510801
-3.031486 0.542589 -1.471540
-3.154945 0.569765 -1.440668
-3.393895 0.622565 -1.454027
-3.593357 0.666968 -1.439374
-3.786446 0.709446 -1.413861
-4.020813 0.761685 -1.393992
-4.258260 0.814761 -1.363536
-4.539508 0.876711 -1.335906
-4.866846 0.949701 -1.307753
-5.159413 1.014372 -1.255019
-5.491796 1.088852 -1.198653
-5.933636 1.187538 -1.148216
-6.444047 1.270952 -1.086614
-7.115343 1.416186 -1.026595
-8.093707 1.629112 -0.970475
-8.453551 1.709496 -0.810579
-8.904199 1.808097 -0.640767
-9.862709 2.018233 -0.474350
-10.227654 2.100643 -0.246770
-10.214400 2.099518 -0.003845
-10.197230 2.099412 0.238385
-10.182283 2.099766 0.482023
-10.172059 2.099286 0.723998
-10.171514 2.102764 0.967253
-10.169074 2.105824 1.213189
-10.153847 2.104234 1.456645
-10.144232 2.105723 1.701995
-10.130538 2.106314 1.949890
-0.442776 -0.013830 -0.272466
-0.465782 -0.008587 -0.271608
-2.839134 0.516329 -1.549573
-2.941480 0.539989 -1.516172
-3.026036 0.559229 -1.470671
-3.147411 0.587242 -1.439028
-3.393218 0.643003 -1.455555
-3.576240 0.684305 -1.434267
-3.792679 0.733807 -1.417948
-4.021416 0.785465 -1.395898
-4.249284 0.837789 -1.362329
-4.543122 0.905039 -1.338645
-4.870277 0.979075 -1.310267
-5.147155 1.042902 -1.253616
-5.502199 1.123470 -1.202374
-5.916688 1.218595 -1.146344
-6.435983 1.308148 -1.086590
-7.119972 1.460235 -1.028517
-8.093266 1.677960 -0.971604
-8.460412 1.762124 -0.812222
-8.904662 1.862026 -0.641574
-9.809304 2.066002 -0.472363
-10.242467 2.163910 -0.247384
-10.222980 2.163206 -0.003809
-10.199923 2.161685 0.238791
-10.193190 2.161940 0.483177
-10.174728 2.161421 0.725149
-10.170658 2.162260 0.968403
-10.168171 2.165304 1.214618
-10.156370 2.166253 1.458907
-10.143249 2.165056 1.703976
-10.137151 2.167268 1.953627
-0.442219 -0.011257 -0.272462
-0.463488 -0.006277 -0.270624
-2.835469 0.532767 -1.549561
-2.929082 0.554526 -1.511674
-3.029161 0.578343 -1.474082
-3.155799 0.608293 -1.444709
-3.410399 0.667562 -1.464791
-3.597025 0.710801 -1.444436
-3.782263 0.754486 -1.415880
-4.012334 0.808569 -1.394601
-4.258469 0.866509 -1.367078
-4.527835 0.929142 -1.335871
-4.846754 1.004151 -1.305691
-5.134517 1.072207 -1.252214
-5.542202 1.168160 -1.212747
-5.912529 1.254674 -1.147062
-6.435643 1.345907 -1.087865
-7.091494 1.496946 -1.025709
-8.088958 1.724558 -0.972272
-8.438175 1.806814 -0.811078
-8.902889 1.915612 -0.642239
-9.765436 2.115462 -0.470839
-0.000970 -0.111188 -0.004169
-10.240900 2.229283 -0.003773
-10.210061 2.225865 0.239384
-10.185352 2.223828 0.483492
-10.182854 2.224998 0.726719
-10.172499 2.226242 0.969924
-10.175756 2.230599 1.217209
-10.144608 2.227039 1.459221
-10.146851 2.229292 1.706929
-10.142592 2.231913 1.957366
-0.438271 -0.009222 -0.270415
-2.756954 0.531796 -1.594069
-2.836760 0.550889 -1.552366
-2.945849 0.577387 -1.522429
-3.026786 0.596825 -1.474924
-3.220864 0.643375 -1.476418
-3.400343 0.686631 -1.462463
-3.592088 0.732238 -1.444421
-3.775232 0.776583 -1.415181
-4.001437 0.830460 -1.392665
-4.237912 0.887625 -1.362295
-4.530940 0.958308 -1.338609
-4.823306 1.028147 -1.301114
-5.131400 1.102754 -1.253117
-5.529268 1.197850 -1.211479
-5.910304 1.290167 -1.148151
-6.424717 1.384862 -1.087515
-7.101108 1.543593 -1.028466
-8.081447 1.774930 -0.972708
-8.455393 1.865227 -0.813832
-8.906256 1.972153 -0.643323
-9.724814 2.167094 -0.469502
-0.000966 -0.111084 -0.004166
-0.000966 -0.111084 -0.004166
-10.225197 2.293373 0.240117
-10.200900 2.289421 0.484925
-10.186282 2.289608 0.728011
-10.172419 2.288089 0.971259
-10.185309 2.294770 1.220033
-10.154087 2.291005 1.462597
-10.156245 2.293263 1.710856
-10.140409 2.293130 1.959624
-0.434327 -0.007487 -0.268371
-0.462234 -0.000659 -0.270614
-2.839883 0.568461 -1.556110
-2.929789 0.591014 -1.516135
-3.033224 0.616889 -1.480043
-3.220147 0.662297 -1.478032
-3.394047 0.705283 -1.461679
-3.567252 0.748216 -1.436405
-3.762893 0.795985 -1.412432
-4.003328 0.855380 -1.395209
-4.220955 0.909428 -1.358705
-4.537972 0.986855 -1.342451
-4.794107 1.050548 -1.295019
-5.113206 1.128754 -1.250331
-5.536829 1.233457 -1.214786
-5.894496 1.322429 -1.146649
-6.412421 1.419907 -1.086844
-7.085979 1.581950 -1.027607
-8.063077 1.818302 -0.971752
-8.461648 1.916698 -0.815476
-8.873117 2.016830 -0.641761
-9.688640 2.215888 -0.468352
-14.697706 3.424255 -0.354450
-0.000961 -0.110980 -0.004162
-0.000961 -0.110980 -0.004162
-10.233509 2.359492 0.487198
-10.197924 2.352660 0.729859
-10.181656 2.352365 0.973524
-10.182858 2.356302 1.221462
-10.161695 2.352928 1.465694
-10.153732 2.354625 1.712837
-10.141658 2.355309 1.962621
-0.438735 -0.003659 -0.271427
-0.464987 0.002940 -0.272568
-2.832491 0.584062 -1.554220
-2.923980 0.607563 -1.515224
-3.037738 0.636592 -1.484310
-3.222616 0.683257 -1.481271
-3.392877 0.725803 -1.463206
-3.558613 0.767940 -1.434937
-3.766566 0.820656 -1.415836
-4.010567 0.881706 -1.399675
-4.226141 0.936586 -1.362262
-4.516472 1.010178 -1.338022
-4.824882 1.087566 -1.305130
-5.100097 1.157767 -1.248929
-5.534460 1.267815 -1.216012
-5.859202 1.350833 -1.141443
-6.401579 1.456445 -1.086497
-7.071953 1.623123 -1.027025
-8.047962 1.863860 -0.971260
-8.502028 1.978326 -0.820461
-8.873917 2.072906 -0.642704
-9.632388 2.261236 -0.466272
-14.673224 3.508001 -0.354309
-0.000957 -0.110877 -0.004159
-0.000957 -0.110877 -0.004159
-0.000957 -0.110877 -0.004159
-10.233479 2.425725 0.733525
-10.176525 2.415254 0.974490
-10.181959 2.418364 1.223122
-10.162264 2.417117 1.467957
-10.161883 2.420658 1.716764
-10.152073 2.419974 1.967471
-0.436421 -0.001376 -0.270402
-0.452452 0.002812 -0.265706
-2.836885 0.603119 -1.558902
-2.921391 0.625432 -1.516110
-3.042167 0.656404 -1.488574
-3.209122 0.699660 -1.477191
-3.375311 0.742840 -1.457798
-3.586006 0.796754 -1.448016
-3.768437 0.844291 -1.418556
-3.997453 0.903036 -1.397098
-4.231139 0.963833 -1.365819
-4.502482 1.034370 -1.335801
-4.829171 1.118317 -1.308149
-5.098369 1.188672 -1.250292
-5.547523 1.304123 -1.220565
-5.951868 1.409413 -1.161044
-6.394074 1.494984 -1.086799
-7.044580 1.659597 -1.024495
-8.032248 1.910716 -0.970768
-8.479838 2.026420 -0.819502
-8.880536 2.128962 -0.644068
-9.592965 2.312102 -0.465028
-14.671519 3.597459 -0.354724
-14.693581 3.608313 -0.003402
-14.643764 3.600961 0.347312
-0.000974 -0.110751 -0.004154
-14.610142 3.600231 1.050620
-10.245248 2.493258 0.982517
-10.190321 2.482954 1.225946
-10.170539 2.481569 1.471331
-10.162872 2.481379 1.719392
-10.144945 2.480460 1.968988
-0.437489 0.001604 -0.271415
-0.456882 0.006748 -0.268640
-2.832869 0.619064 -1.558889
-2.936274 0.646748 -1.525968
-3.051707 0.677634 -1.495405
-3.216781 0.721433 -1.482872
-3.372277 0.762244 -1.458555
-3.566293 0.813754 -1.442182
-3.755590 0.864185 -1.415806
-3.998883 0.928048 -1.399643
-4.210093 0.984435 -1.361038
-4.490228 1.058932 -1.334131
-4.786440 1.136938 -1.298509
-5.102085 1.221054 -1.253040
-5.537141 1.336628 -1.220128
-5.978862 1.454260 -1.168056
-6.386918 1.531262 -1.087101
-7.036181 1.700737 -1.024748
-8.020827 1.955644 -0.970742
-8.753144 2.147479 -0.846954
-8.821117 2.168194 -0.640692
-9.542527 2.356242 -0.463229
-14.632484 3.677488 -0.354260
-0.000970 -0.110648 -0.004150
-0.000970 -0.110648 -0.004150
-14.628900 3.689653 0.701454
-14.611691 3.690452 1.052343
-0.000970 -0.110648 -0.004150
-10.246335 2.560254 1.234580
-10.178428 2.546211 1.474707
-10.162580 2.545737 1.722022
-10.150747 2.544420 1.973096
-0.441795 0.005609 -0.274471
-0.454501 0.009120 -0.267654
-2.828488 0.635961 -1.558877
-2.931746 0.664273 -1.525954
-3.057462 0.698608 -1.500526
-3.215483 0.740990 -1.484485
-3.370613 0.783288 -1.460083
-3.555369 0.833586 -1.439984
-3.766274 0.890256 -1.421946
-3.981658 0.948934 -1.395786
-4.209050 1.010969 -1.362809
-4.481565 1.084381 -1.333562
-4.780827 1.165921 -1.298997
-5.113150 1.255558 -1.257630
-5.489033 1.357985 -1.211378
-5.962173 1.486748 -1.166553
-6.373250 1.568234 -1.086429
-7.027541 1.741836 -1.025002
-8.006522 2.002811 -0.970480
-8.516274 2.140460 -0.825384
-8.746134 2.202749 -0.636200
-9.477507 2.399628 -0.460776
-14.598157 3.761286 -0.353933
-0.000965 -0.110544 -0.004147
-0.000965 -0.110544 -0.004147
-0.000965 -0.110544 -0.004147
-26.583158 6.968771 1.920995
-26.551588 6.969966 2.561024
-0.000965 -0.110544 -0.004147
-0.000965 -0.110544 -0.004147
-10.171888 2.610966 1.726272
-10.151898 2.609298 1.976465
-0.437801 0.007358 -0.272426
-0.457161 0.012738 -0.269609
-2.827556 0.653260 -1.560742
-2.920331 0.679378 -1.522353
-3.059717 0.718181 -1.503937
-3.214058 0.760559 -1.486098
-3.368975 0.803758 -1.461610
-3.551657 0.854629 -1.440698
-3.753191 0.910055 -1.419196
-3.970002 0.970452 -1.393851
-4.200692 1.034799 -1.362197
-4.446792 1.102686 -1.325277
-4.745382 1.185875 -1.291384
-5.105196 1.285085 -1.257612
-5.497477 1.394336 -1.215098
-5.937706 1.517003 -1.163570
-6.369198 1.606561 -1.087378
-7.014837 1.781859 -1.024700
-7.984614 2.046394 -0.969294
-8.547371 2.201530 -0.829626
-8.707622 2.246405 -0.634359
-9.430119 2.445400 -0.459162
-14.523502 3.831262 -0.352636
-0.000961 -0.110440 -0.004144
-0.000961 -0.110440 -0.004144
-0.000961 -0.110440 -0.004144
-26.599680 7.137611 1.925267
-26.548779 7.133371 2.564826
-26.548185 7.142840 3.215786
-26.515520 7.138568 3.860650
-10.230288 2.689949 1.738958
-10.154996 2.673014 1.980202
-0.440421 0.010887 -0.274462
-0.454774 0.015018 -0.268624
-2.829909 0.671507 -1.564487
-2.919180 0.697239 -1.524135
-3.047932 0.733964 -1.500501
-3.210577 0.780188 -1.486899
-3.365439 0.823747 -1.462367
-3.540658 0.873671 -1.438502
-3.752517 0.933933 -1.421232
-3.976502 0.996972 -1.398315
-4.194017 1.059070 -1.362181
-4.448776 1.131741 -1.328016
-4.745314 1.215385 -1.293391
-5.100571 1.316501 -1.258515
-5.499746 1.430193 -1.217573
-5.944961 1.557081 -1.166881
-6.359212 1.643329 -1.087355
-6.995858 1.821455 -1.023561
-7.968230 2.091389 -0.968803
-8.499370 2.241267 -0.826255
-8.641559 2.283746 -0.630566
-9.419106 2.500855 -0.459315
-14.475515 3.908002 -0.351986
-0.000954 -0.110334 -0.004140
-0.000954 -0.110334 -0.004140
-0.000954 -0.110334 -0.004140
-26.592710 7.305625 1.928005
-26.564774 7.307504 2.570674
-26.567171 7.312844 3.223307
-26.510170 7.306579 3.866305
-26.478634 7.307398 4.515224
-0.000954 -0.110334 -0.004140
-0.443017 0.014543 -0.276496
-0.455692 0.018282 -0.269599
-2.830332 0.689841 -1.567290
-2.917775 0.715617 -1.525918
-3.051581 0.754612 -1.504765
-3.219316 0.803332 -1.493391
-3.349185 0.840775 -1.457729
-3.531186 0.893756 -1.437032
-3.744447 0.955766 -1.420533
-3.966223 1.019618 -1.397019
-4.192531 1.085622 -1.363950
-4.426529 1.153990 -1.323590
-4.768985 1.252661 -1.301981
-5.082652 1.344165 -1.256191
-5.471703 1.457516 -1.213395
-5.916086 1.587021 -1.163156
-6.348683 1.681126 -1.087332
-6.991895 1.865196 -1.024649
-7.956935 2.139278 -0.969007
-8.632809 2.333540 -0.840520
-8.646416 2.340548 -0.631928
-9.397662 2.555156 -0.459005
-14.422558 3.985741 -0.351244
-0.000950 -0.110230 -0.004137
-0.000950 -0.110230 -0.004137
-0.000950 -0.110230 -0.004137
-26.592340 7.475990 1.931301
-26.562403 7.477161 2.574850
-26.547480 7.477586 3.226414
-26.534220 7.483490 3.876415
-26.492931 7.481352 4.525364
-26.458191 7.476061 5.183402
-0.432381 0.014253 -0.270372
-0.454961 0.020926 -0.269594
-2.798688 0.697907 -1.552256
-2.918274 0.733498 -1.528597
-3.055370 0.774247 -1.509032
-3.221348 0.822873 -1.496632
-3.345599 0.860087 -1.458486
-3.529091 0.914598 -1.438473
-3.749454 0.979262 -1.424622
-3.974407 1.046091 -1.402125
-4.176621 1.106454 -1.360956
-4.412254 1.175883 -1.321369
-4.744591 1.274505 -1.297406
-5.076580 1.372296 -1.256634
-5.451885 1.483915 -1.210881
-5.927563 1.625186 -1.167208
-6.346179 1.718858 -1.088606
-6.984903 1.904192 -1.025183
-7.948076 2.184904 -0.969443
-8.657278 2.392879 -0.844205
-8.648341 2.391821 -0.633016
-9.376885 2.606056 -0.458694
-14.364894 4.056314 -0.350366
-0.000969 -0.110107 -0.004132
-0.000969 -0.110107 -0.004132
-0.000969 -0.110107 -0.004132
-26.612204 7.637732 1.935849
-26.582115 7.638710 2.580876
-26.563793 7.643111 3.233701
-26.542145 7.641485 3.883733
-26.502604 7.639660 4.534201
-26.471989 7.640410 5.194596
-0.434970 0.017820 -0.272406
-0.447521 0.021682 -0.265670
-2.793969 0.714099 -1.552246
-2.916807 0.751414 -1.530379
-3.060631 0.795009 -1.514152
-3.212255 0.841037 -1.494992
-3.338188 0.878916 -1.457702
-3.528503 0.936608 -1.440641
-3.742917 1.001588 -1.424608
-3.945878 1.062575 -1.394429
-4.182355 1.134404 -1.365110
-4.415601 1.205436 -1.324659
-4.756927 1.307986 -1.302959
-5.065841 1.401947 -1.256153
-5.421697 1.510166 -1.206290
-5.932235 1.664945 -1.170147
-6.409368 1.777222 -1.101224
-6.970943 1.945161 -1.024879
-7.930906 2.229612 -0.968953
-8.646531 2.443930 -0.844548
-8.648656 2.447734 -0.634101
-9.353409 2.657843 -0.458291
-14.317650 4.132270 -0.349764
-0.000963 -0.110001 -0.004128
-0.000963 -0.110001 -0.004128
-0.000963 -0.110001 -0.004128
-26.617378 7.810989 1.939705
-26.591011 7.812927 2.586354
-26.579584 7.814243 3.241220
-26.524145 7.807476 3.887995
-26.495827 7.808767 4.541096
-26.487154 7.810890 5.206533
-0.424305 0.017517 -0.266282
-0.451733 0.025942 -0.268604
-2.812726 0.737919 -1.565375
-2.915058 0.769832 -1.532162
-3.055215 0.813262 -1.514139
-3.206729 0.859626 -1.494979
-3.326959 0.897201 -1.455377
-3.516875 0.956000 -1.438445
-3.731076 1.021604 -1.422540
-3.933415 1.084423 -1.392493
-4.165773 1.156528 -1.362115
-4.420834 1.234874 -1.328500
-4.724372 1.328963 -1.296358
-5.034701 1.424387 -1.250604
-5.404808 1.539198 -1.204607
-5.904983 1.694004 -1.166796
-0.000958 -0.109897 -0.004125
-6.957095 1.984807 -1.024576
-7.909298 2.274462 -0.967997
-8.656006 2.502777 -0.846931
-8.645249 2.501082 -0.634907
-9.334910 2.712825 -0.458166
-14.271179 4.210896 -0.349207
-0.000958 -0.109897 -0.004125
-0.000958 -0.109897 -0.004125
-23.806210 7.119768 1.157899
-26.630482 7.982259 1.944116
-26.584929 7.978230 2.590340
-26.583385 7.987572 3.247580
-26.546274 7.981003 3.898103
-26.496948 7.975757 4.549288
-26.490400 7.983538 5.216618
-0.436728 0.024109 -0.274437
-0.447608 0.027618 -0.266640
-2.821301 0.758361 -1.572874
-2.918490 0.789346 -1.536635
-3.056764 0.833084 -1.517548
-3.199340 0.877635 -1.494153
-3.331686 0.919721 -1.459987
-3.507132 0.975247 -1.436976
-3.731660 1.045387 -1.425263
-3.944574 1.112772 -1.398879
-4.167528 1.183432 -1.365077
-4.396495 1.255282 -1.323523
-4.754812 1.368320 -1.306974
-5.044384 1.459255 -1.255194
-5.434431 1.582608 -1.213317
-5.887002 1.725760 -1.165293
-6.432137 1.866154 -1.108957
-6.948703 2.026111 -1.025109
-7.899214 2.321239 -0.968435
-8.657945 2.557972 -0.848573
-8.656748 2.559153 -0.636830
-9.307035 2.763108 -0.457577
-14.217393 4.284266 -0.348468
-0.000954 -0.109794 -0.004122
-0.000954 -0.109794 -0.004122
-23.638231 7.217833 1.151814
-26.619633 8.146852 1.946852
-26.604441 8.151990 2.596929
-26.585623 8.156006 3.253707
-26.535151 8.145056 3.903476
-26.514002 8.148311 4.560400
-26.495861 8.152472 5.227073
-0.427738 0.024150 -0.269332
-0.441826 0.028734 -0.263696
-2.821308 0.776283 -1.575679
-2.923500 0.809463 -1.542006
-3.040934 0.847512 -1.512403
-3.214522 0.902746 -1.503899
-3.336266 0.942328 -1.464598
-3.486616 0.991045 -1.431143
-3.730330 1.068667 -1.427299
-3.941093 1.136725 -1.400143
-4.163650 1.208666 -1.366253
-4.394060 1.282429 -1.325159
-4.736985 1.392845 -1.304426
-5.037104 1.488960 -1.255638
-5.435791 1.617545 -1.215791
-5.866977 1.756763 -1.163421
-6.460206 1.915679 -1.115740
-6.941952 2.067979 -1.025919
-7.883185 2.366201 -0.968176
-8.663328 2.614466 -0.850586
-8.650748 2.612069 -0.637498
-9.263660 2.808370 -0.456244
-14.170867 4.359566 -0.347914
-0.000950 -0.109690 -0.004118
-0.000950 -0.109690 -0.004118
-23.563238 7.343721 1.150300
-26.632488 8.319407 1.951403
-26.598177 8.318438 2.601102
-26.586784 8.324716 3.259832
-26.551344 8.318249 3.913028
-26.516748 8.317128 4.569239
-26.502121 8.322331 5.237897
-0.431869 0.028278 -0.272388
-0.436026 0.029774 -0.260754
-2.816161 0.792621 -1.575667
-2.914760 0.825296 -1.540200
-3.043986 0.867881 -1.516667
-3.213852 0.923014 -1.506327
-3.326659 0.960508 -1.463042
-3.499717 1.017487 -1.439130
-3.719904 1.089078 -1.425917
-3.928426 1.157748 -1.398209
-4.148723 1.230381 -1.363855
-4.387793 1.308401 -1.325695
-4.730109 1.420813 -1.304913
-5.020415 1.515656 -1.253775
-5.422036 1.647721 -1.214940
-5.854253 1.790011 -1.163031
-6.459702 1.956558 -1.117662
-6.923638 2.106220 -1.025061
-7.859339 2.408636 -0.966990
-8.656995 2.667480 -0.851484
-8.652040 2.667452 -0.638722
-9.242887 2.860554 -0.456027
-14.120148 4.433258 -0.347267
-0.000943 -0.109583 -0.004115
-0.000943 -0.109583 -0.004115
-23.683430 7.532189 1.158400
-23.691900 7.539205 1.738759
-26.632542 8.498548 2.609365
-26.592562 8.495556 3.266655
-26.560741 8.490054 3.921742
-26.531582 8.490514 4.580350
-26.484873 8.485260 5.244276
-0.432706 0.031401 -0.273403
-0.435210 0.032379 -0.260749
-2.809230 0.808368 -1.574717
-2.924620 0.847172 -1.548263
-3.043463 0.887186 -1.519221
-3.202659 0.939914 -1.503873
-3.330946 0.983190 -1.467654
-3.505558 1.041795 -1.444208
-3.711155 1.109997 -1.425219
-3.926476 1.182239 -1.400113
-4.128245 1.250173 -1.359670
-4.385036 1.335561 -1.327331
-4.728566 1.450560 -1.306921
-5.018374 1.547096 -1.255600
-5.411818 1.679022 -1.214921
-5.805902 1.811455 -1.155607
-6.447709 1.993841 -1.117639
-6.933350 2.153535 -1.028375
-7.844710 2.453971 -0.966963
-8.655984 2.722345 -0.852941
-8.662436 2.726028 -0.640644
-9.204753 2.907006 -0.454973
-14.055741 4.502143 -0.346298
-0.000939 -0.109480 -0.004112
-0.000939 -0.109480 -0.004112
-24.648600 8.000782 1.208126
-26.651104 8.664539 1.960227
-0.000939 -0.109480 -0.004112
-15.301508 4.939388 1.881450
-15.217377 4.914380 2.249346
-15.214385 4.919096 2.629762
-15.140720 4.900420 3.001894
-0.431895 0.034000 -0.273397
-0.436051 0.035543 -0.261723
-2.807253 0.825753 -1.576583
-2.924142 0.865794 -1.550943
-3.032541 0.903092 -1.516642
-3.198099 0.959574 -1.504674
-3.321119 1.001304 -1.466098
-3.470618 1.052612 -1.432556
-3.716337 1.136287 -1.429991
-3.908190 1.201315 -1.396258
-4.134820 1.278888 -1.364419
-4.383677 1.364108 -1.329519
-4.702995 1.472313 -1.302347
-5.001076 1.574463 -1.253738
-5.386285 1.706207 -1.211576
-5.811163 1.851637 -1.158917
-6.469182 2.042245 -1.123451
-6.934839 2.199751 -1.030576
-7.822282 2.496705 -0.966009
-8.654635 2.777292 -0.854397
-8.660599 2.782541 -0.641730
-9.173961 2.955646 -0.454292
-14.000523 4.573629 -0.345558
-15.311246 5.017834 -0.002706
-15.260745 5.003696 0.370938
-15.202956 4.990050 0.745045
-15.199574 4.994637 1.118416
-15.129432 4.976778 1.486345
-15.130954 4.980037 1.864062
-15.035261 4.953508 2.226835
-15.036525 4.959589 2.604182
-14.998008 4.949333 2.979343
-0.435916 0.038315 -0.276453
-0.438482 0.039351 -0.263677
-2.813356 0.846471 -1.583143
-2.921703 0.884394 -1.552724
-3.035028 0.924075 -1.520907
-3.200547 0.981029 -1.508727
-3.316215 1.021689 -1.466856
-3.486570 1.081105 -1.441998
-3.719774 1.161420 -1.434080
-3.914701 1.229504 -1.401362
-4.128323 1.304123 -1.364999
-4.391479 1.395034 -1.334463
-4.686209 1.497786 -1.300304
-4.971043 1.596386 -1.248649
-5.377590 1.737939 -1.211972
-5.799762 1.885169 -1.158897
-6.454436 2.080068 -1.123104
-6.930794 2.242932 -1.031944
-7.801038 2.541266 -0.965287
-8.658099 2.835764 -0.856409
-8.662683 2.838905 -0.643094
-9.144258 3.006266 -0.453703
-13.964907 4.654142 -0.345329
-15.156529 5.063402 -0.002670
-15.114725 5.054845 0.368145
-15.036338 5.033741 0.738374
-15.007581 5.026643 1.106450
-0.000954 -0.109254 -0.004103
-0.000954 -0.109254 -0.004103
-0.000954 -0.109254 -0.004103
-0.000954 -0.109254 -0.004103
-0.000954 -0.109254 -0.004103
-0.428572 0.038688 -0.272367
-2.708324 0.827833 -1.613449
-2.792791 0.857560 -1.574682
-2.920997 0.903058 -1.555404
-3.017081 0.937502 -1.514906
-3.182118 0.995338 -1.503022
-3.323601 1.045722 -1.473007
-3.484937 1.103105 -1.444167
-3.715937 1.184157 -1.435434
-3.919434 1.256482 -1.405829
-4.118301 1.327345 -1.364388
-4.391833 1.423586 -1.337202
-4.662266 1.519748 -1.296237
-4.951953 1.621885 -1.246327
-5.366870 1.768988 -1.211952
-5.804881 1.924497 -1.162208
-6.430532 2.113447 -1.121137
-6.932104 2.288096 -1.034146
-7.785633 2.586249 -0.965262
-8.656051 2.890906 -0.857865
-8.666302 2.896054 -0.644598
-9.114837 3.055055 -0.453115
-13.897569 4.720814 -0.344314
-0.000949 -0.109150 -0.004100
-15.016745 5.118254 0.366514
-0.000949 -0.109150 -0.004100
-0.000949 -0.109150 -0.004100
-14.985219 5.121397 1.478071
-0.000949 -0.109150 -0.004100
-0.000949 -0.109150 -0.004100
-0.000949 -0.109150 -0.004100
-0.000949 -0.109150 -0.004100
-0.434195 0.043538 -0.276442
-2.702880 0.843512 -1.613438
-2.790523 0.874919 -1.576547
-2.899941 0.914603 -1.547318
-3.024627 0.959772 -1.521738
-3.170546 1.011928 -1.500569
-3.311659 1.063086 -1.470683
-3.493711 1.128867 -1.450698
-3.697810 1.201876 -1.431316
-3.913305 1.279780 -1.406453
-4.104571 1.349230 -1.362586
-4.386549 1.450241 -1.338288
-4.645521 1.544086 -1.294194
-4.949239 1.653092 -1.248152
-5.361484 1.801937 -1.213181
-5.804178 1.961963 -1.164408
-6.395295 2.142687 -1.117226
-6.936864 2.334666 -1.036904
-7.773727 2.632472 -0.965699
-8.663043 2.949439 -0.860249
-8.663885 2.951329 -0.645684
-9.077624 3.100943 -0.452156
-13.861991 4.798227 -0.344085
-0.000943 -0.109043 -0.004096
-0.000943 -0.109043 -0.004096
-17.843472 6.224679 0.880651
-0.000943 -0.109043 -0.004096
-26.627127 9.357745 2.635063
-26.625853 9.367425 3.303560
-26.593328 9.360760 3.965877
-26.538904 9.351480 4.627471
-26.531948 9.359108 5.306180
-0.434916 0.046709 -0.277458
-2.679294 0.852684 -1.602652
-2.769851 0.885699 -1.568087
-2.909135 0.936828 -1.555381
-3.013339 0.975450 -1.519158
-3.164043 1.030273 -1.500556
-3.320486 1.087882 -1.477606
-3.474248 1.144635 -1.445594
-3.691962 1.223887 -1.431986
-3.883858 1.294665 -1.398758
-4.105098 1.376207 -1.365547
-4.384725 1.478194 -1.340477
-4.652303 1.576852 -1.298733
-4.964634 1.690965 -1.254587
-5.352220 1.833550 -1.213578
-5.810618 2.002168 -1.168090
-6.380363 2.178922 -1.116880
-6.930138 2.377365 -1.037992
-7.759680 2.677979 -0.965905
-8.671519 3.008825 -0.862818
-8.668656 3.009398 -0.647327
-9.013875 3.137033 -0.449895
-13.825963 4.875370 -0.343857
-0.000938 -0.108940 -0.004093
-0.000938 -0.108940 -0.004093
-17.802912 6.326081 0.880518
-17.854692 6.348110 1.325375
-26.658266 9.542236 2.643698
-26.639925 9.545787 3.312243
-26.596037 9.534806 3.974591
-26.563726 9.533251 4.641502
-26.512070 9.524647 5.313301
-0.445343 0.053460 -0.284592
-2.681910 0.871199 -1.607538
-2.769050 0.903558 -1.570892
-2.901392 0.953061 -1.554472
-3.010437 0.994136 -1.520857
-3.162371 1.051017 -1.502983
-3.303149 1.103276 -1.472968
-3.487960 1.172441 -1.454308
-3.666369 1.239402 -1.425131
-3.875705 1.317110 -1.398744
-4.103646 1.402574 -1.367914
-4.378856 1.505636 -1.341561
-4.658835 1.609737 -1.303275
-4.950197 1.719139 -1.253648
-5.342439 1.866062 -1.213974
-5.799843 2.037407 -1.168438
-6.385615 2.222504 -1.120098
-6.931998 2.424666 -1.040472
-7.730451 2.717960 -0.964256
-8.666501 3.063611 -0.864089
-8.670588 3.068428 -0.648831
-8.980034 3.183507 -0.449121
-11.786736 4.217153 -0.294311
-0.000932 -0.108833 -0.004090
-0.000932 -0.108833 -0.004090
-17.774927 6.432077 0.881040
-26.673065 9.716886 1.986420
-26.636009 9.713465 2.647314
-26.626711 9.714982 3.317670
-26.603340 9.716584 3.984422
-26.559715 9.710685 4.650994
-26.544594 9.710025 5.331164
-0.437913 0.053794 -0.280508
-2.664610 0.882941 -1.600670
-2.763012 0.920086 -1.570879
-2.893372 0.969741 -1.553562
-3.000636 1.010282 -1.519135
-3.162498 1.071881 -1.506223
-3.304543 1.126188 -1.476809
-3.471798 1.189347 -1.450658
-3.683182 1.269822 -1.434691
-3.890491 1.348150 -1.407050
-4.096658 1.426952 -1.368494
-4.369470 1.530916 -1.341546
-4.645253 1.635297 -1.302244
-4.923194 1.741557 -1.249482
-5.320343 1.891842 -1.211462
-5.793296 2.071956 -1.169528
-6.386468 2.265965 -1.122668
-6.935870 2.471570 -1.043229
-7.709821 2.762505 -0.963766
-8.664318 3.121350 -0.865730
-8.670835 3.125389 -0.650196
-8.915408 3.220062 -0.446860
-11.720423 4.269684 -0.293257
-0.000951 -0.108711 -0.004085
-0.000951 -0.108711 -0.004085
-24.900599 9.217663 1.238622
-26.668310 9.890062 1.990411
-26.659040 9.891572 2.655204
-26.642212 9.895536 3.326818
-26.611197 9.894168 3.994252
-26.557995 9.879123 4.660480
-26.544590 9.884323 5.342729
-0.443432 0.058776 -0.284583
-2.663935 0.899767 -1.603597
-2.768765 0.939966 -1.577441
-2.883977 0.984728 -1.551755
-2.987398 1.025092 -1.515700
-3.160762 1.092116 -1.508651
-3.288970 1.141446 -1.472943
-3.481701 1.216065 -1.457916
-3.673422 1.290441 -1.433994
-3.876740 1.368620 -1.405114
-4.100220 1.455379 -1.372649
-4.358160 1.555473 -1.340979
-4.635119 1.662112 -1.302228
-4.905188 1.767208 -1.247621
-5.299252 1.919986 -1.209364
-5.760060 2.098653 -1.165437
-6.363879 2.298208 -1.121027
-6.939414 2.518593 -1.045987
-7.686236 2.802812 -0.962814
-8.668486 3.178264 -0.867930
-8.676316 3.184592 -0.651978
-8.864941 3.257859 -0.445251
-11.683796 4.332957 -0.292942
-0.000947 -0.108607 -0.004081
-24.741083 9.311285 0.613344
-17.942959 6.729831 0.893382
-26.690439 10.074200 1.996500
-26.664324 10.074574 2.661795
-26.660215 10.078005 3.336431
-26.621561 10.073558 4.004638
-26.566425 10.062762 4.672565
-26.567337 10.068101 5.359111
-0.450463 0.064601 -0.289678
-2.667670 0.919423 -1.609462
-2.759224 0.955226 -1.575549
-2.890759 1.007057 -1.558922
-2.987353 1.045500 -1.519110
-3.162325 1.113703 -1.512704
-3.297000 1.167050 -1.479864
-3.454669 1.229400 -1.449902
-3.665296 1.311671 -1.433981
-3.874962 1.394432 -1.407660
-4.081985 1.476339 -1.369655
-4.350295 1.581346 -1.341514
-4.640771 1.696008 -1.306767
-4.894318 1.795542 -1.247602
-5.289299 1.951287 -1.209761
-5.769225 2.140460 -1.169858
-6.360520 2.340279 -1.122950
-6.942636 2.565727 -1.048746
-7.668818 2.848466 -0.962788
-8.669252 3.237631 -0.869943
-8.679538 3.243239 -0.653622
-8.841078 3.309069 -0.445035
-11.694530 4.416753 -0.293828
-24.789827 9.489126 -0.001194
-17.967554 6.854710 0.445381
-17.894608 6.833406 0.893065
-17.872936 6.828363 1.338588
-26.677610 10.256220 2.669129
-26.664066 10.261336 3.344650
-26.612299 10.246227 4.012238
-26.569914 10.240081 4.683676
-26.533918 10.236393 5.364750
-0.459063 0.071052 -0.295793
-2.656840 0.932963 -1.606512
-2.759624 0.973774 -1.579294
-2.877654 1.021192 -1.555320
-2.970566 1.058823 -1.513966
-3.156946 1.132674 -1.513505
-3.291318 1.186794 -1.480622
-3.457294 1.253464 -1.454253
-3.679804 1.341833 -1.442855
-3.855672 1.412658 -1.403805
-4.083435 1.504127 -1.373213
-4.333349 1.603657 -1.339293
-4.635697 1.724946 -1.308269
-4.888695 1.825948 -1.248968
-5.279182 1.982549 -1.210158
-5.723282 2.160706 -1.163178
-6.331629 2.371229 -1.120335
-6.941887 2.611569 -1.050946
-7.646100 2.890505 -0.962068
-8.677661 3.298547 -0.872697
-8.678664 3.300579 -0.654986
-8.815668 3.357843 -0.444728
-11.662679 4.481936 -0.293654
-17.953024 6.961370 -0.001930
-24.753855 9.649298 0.616618
-17.887772 6.949663 0.894800
-26.708672 10.435410 2.006998
-26.674864 10.432496 2.674973
-26.651917 10.433851 3.350775
-26.629538 10.430049 4.024017
-26.590588 10.425039 4.698032
-26.567055 10.426113 5.383726
-0.493191 0.087809 -0.318228
-2.637833 0.943176 -1.598666
-2.761558 0.993033 -1.583975
-2.884380 1.043150 -1.562486
-2.963804 1.076018 -1.513953
-3.135953 1.146057 -1.506986
-3.268374 1.199647 -1.473674
-3.464959 1.279691 -1.460786
-3.646716 1.353953 -1.433267
-3.860934 1.440602 -1.408910
-4.074093 1.527728 -1.373197
-4.314190 1.625854 -1.336522
-4.625058 1.751710 -1.308253
-4.873522 1.853572 -1.248028
-5.268497 2.014676 -1.210554
-5.733431 2.204306 -1.167967
-6.298908 2.400455 -1.117073
-6.938503 2.657954 -1.052870
-7.623181 2.932404 -0.961347
-8.678227 3.356689 -0.874711
-8.676796 3.359519 -0.656351
-8.795557 3.408666 -0.444699
-11.610054 4.538735 -0.292971
-24.794701 9.826174 -0.001031
-17.965929 7.093411 0.447494
-17.976601 7.104756 0.901391
-26.706720 10.618370 2.011691
-0.000931 -0.108293 -0.004071
-0.000931 -0.108293 -0.004071
-15.798828 6.252534 2.391381
-15.793929 6.256768 2.795435
-15.727838 6.233118 3.192860
-0.520722 0.102468 -0.336582
-2.646099 0.964818 -1.607470
-2.758245 1.010824 -1.585842
-2.869222 1.056988 -1.557988
-2.998801 1.110183 -1.535328
-3.125286 1.162812 -1.505348
-3.267387 1.221900 -1.476745
-3.460361 1.301133 -1.462227
-3.660846 1.384249 -1.442144
-3.839651 1.457888 -1.404417
-4.064605 1.551267 -1.373183
-4.316589 1.655867 -1.340364
-4.614292 1.778437 -1.308235
-4.851331 1.877283 -1.245246
-5.267414 2.048610 -1.213030
-5.698588 2.227436 -1.163508
-6.338774 2.460120 -1.126772
-6.913269 2.694246 -1.051457
-7.610530 2.979933 -0.962016
-8.675966 3.415726 -0.876537
-8.680718 3.419312 -0.658133
-8.756011 3.453365 -0.443742
-11.568295 4.599616 -0.292564
-15.885407 6.362903 -0.002070
-15.871484 6.363494 0.395857
-15.805635 6.339671 0.793942
-15.782031 6.336269 1.189922
-15.734494 6.319873 1.583586
-15.735921 6.326666 1.985958
-15.673922 6.307501 2.378055
-15.648538 6.300108 2.776013
-15.611040 6.290921 3.176606
-0.548154 0.117254 -0.354938
-2.640060 0.979674 -1.607459
-2.750305 1.025629 -1.584893
-2.862664 1.073088 -1.557977
-2.996743 1.129605 -1.537883
-3.118137 1.180348 -1.505336
-3.249699 1.236013 -1.472107
-3.445301 1.318291 -1.459305
-3.638583 1.399035 -1.436659
-3.841081 1.484446 -1.408241
-4.062028 1.577676 -1.375550
-4.272953 1.666055 -1.329877
-4.601564 1.804344 -1.307712
-4.858146 1.911931 -1.249837
-5.263936 2.082773 -1.215090
-5.643318 2.242939 -1.154977
-6.318856 2.493334 -1.125780
-6.921330 2.742732 -1.055049
-7.591315 3.021730 -0.961761
-8.681911 3.474862 -0.879108
-8.684858 3.477749 -0.659916
-8.708284 3.490870 -0.442321
-11.526191 4.660146 -0.292159
-15.760302 6.414910 -0.002035
-15.739029 6.412349 0.393477
-15.683325 6.395489 0.789692
-15.661027 6.389258 1.183541
-15.629148 6.382233 1.576750
-15.621552 6.385276 1.976239
-15.540922 6.354748 2.363337
-15.507506 6.347009 2.757565
-15.463249 6.334726 3.154050
-0.557972 0.125168 -0.362072
-2.630540 0.993621 -1.605489
-2.746997 1.042923 -1.586759
-2.852524 1.088277 -1.556171
-2.989584 1.146957 -1.537870
-3.107067 1.197513 -1.503697
-3.260602 1.262664 -1.480572
-3.449072 1.343290 -1.464381
-3.645148 1.427253 -1.442800
-3.859776 1.518409 -1.418468
-4.045216 1.598178 -1.373153
-4.267653 1.693715 -1.331516
-4.585116 1.828649 -1.306178
-4.874746 1.952946 -1.257195
-5.245447 2.111796 -1.213824
-5.612981 2.269591 -1.151626
-6.287385 2.522932 -1.122842
-6.902444 2.783077 -1.054749
-7.565824 3.062425 -0.960810
-8.683174 3.534162 -0.881306
-8.687335 3.539366 -0.661698
-8.681899 3.538758 -0.442013
-11.481946 4.719582 -0.291708
-15.614401 6.463429 -0.002000
-15.581439 6.452571 0.390492
-15.571976 6.454795 0.786004
-15.550488 6.451936 1.178138
-15.548167 6.457162 1.572520
-15.543628 6.458246 1.971170
-15.527834 6.457771 2.367286
-15.505264 6.454413 2.764103
-26.583279 11.148437 5.438507
-0.554990 0.127900 -0.361047
-2.630383 1.012051 -1.609396
-2.748261 1.062780 -1.591440
-2.850298 1.107382 -1.558852
-2.985638 1.165681 -1.539568
-3.106227 1.218365 -1.506937
-3.254121 1.282825 -1.481329
-3.432087 1.359562 -1.460732
-3.631069 1.446108 -1.440735
-3.850358 1.540728 -1.418453
-4.045850 1.626059 -1.376712
-4.258982 1.719129 -1.332051
-4.575659 1.855888 -1.306668
-4.848497 1.974948 -1.253490
-5.250928 2.148874 -1.217963
-5.614069 2.307228 -1.154567
-6.282560 2.564935 -1.124765
-6.889326 2.824439 -1.055282
-7.556025 3.111270 -0.961943
-8.683377 3.595094 -0.883505
-8.682714 3.596501 -0.662923
-8.680304 3.598944 -0.443007
-11.430041 4.775526 -0.291072
-15.657208 6.587972 -0.001941
-24.958893 10.576081 0.629630
-0.000935 -0.107857 -0.004056
-0.000935 -0.107857 -0.004056
-0.000935 -0.107857 -0.004056
-0.000935 -0.107857 -0.004056
-26.651432 11.343029 4.076225
-15.615216 6.604144 2.790432
-26.592007 11.333323 5.453777
-0.553664 0.131099 -0.361042
-2.627284 1.028201 -1.611344
-2.738421 1.076795 -1.589553
-2.838556 1.121259 -1.556148
-2.978237 1.182944 -1.539558
-3.098539 1.236335 -1.506925
-3.253076 1.304019 -1.484399
-3.432131 1.383125 -1.464354
-3.615166 1.464100 -1.437986
-3.833846 1.559947 -1.415879
-4.034047 1.648676 -1.376101
-4.280118 1.757562 -1.341954
-4.557178 1.879218 -1.304627
-4.836416 2.002940 -1.253473
-5.230290 2.176977 -1.216281
-5.614049 2.346903 -1.157508
-6.278419 2.604794 -1.126687
-6.886870 2.870467 -1.057484
-7.536099 3.152733 -0.961688
-8.689989 3.655520 -0.886260
-8.690501 3.659232 -0.665125
-8.674143 3.653841 -0.443723
-11.381555 4.832629 -0.290529
-0.000931 -0.107753 -0.004053
-24.975851 10.748912 0.631662
-0.000931 -0.107753 -0.004053
-26.725115 11.530849 2.037936
-26.696068 11.528957 2.716555
-26.688629 11.530922 3.404495
-26.659458 11.528955 4.087727
-15.692644 6.748151 2.811572
-26.597691 11.517903 5.468678
-0.550648 0.133776 -0.360018
-2.622098 1.044582 -1.612312
-2.726495 1.090991 -1.586725
-2.836118 1.140336 -1.558829
-2.967225 1.199239 -1.537835
-3.105557 1.261433 -1.514232
-3.249698 1.325625 -1.486699
-3.412992 1.399045 -1.459978
-3.609213 1.487144 -1.439340
-3.839494 1.589679 -1.421623
-4.030536 1.675771 -1.378469
-4.291830 1.793159 -1.349101
-4.554152 1.910243 -1.307142
-4.825588 2.032495 -1.253917
-5.214837 2.207267 -1.215848
-5.642475 2.399419 -1.166371
-6.260388 2.641298 -1.126343
-6.892642 2.921744 -1.061076
-7.520258 3.199098 -0.962126
-8.693007 3.718349 -0.888830
-8.697210 3.723718 -0.667324
-8.671773 3.714216 -0.444717
-11.324605 4.888090 -0.289800
-0.000927 -0.107649 -0.004049
-24.954876 10.916433 0.632857
-0.000927 -0.107649 -0.004049
-26.737658 11.725679 2.044305
-26.704821 11.721966 2.724635
-26.706255 11.727842 3.415738
-26.665947 11.720784 4.099507
-15.781545 6.898929 2.834984
-26.619797 11.716325 5.487654
-0.552396 0.138453 -0.362052
-2.618601 1.061186 -1.614261
-2.717950 1.106067 -1.585775
-2.835411 1.159675 -1.562406
-2.954929 1.213680 -1.535257
-3.074529 1.268421 -1.502834
-3.217830 1.333876 -1.475896
-3.414724 1.422761 -1.464329
-3.598534 1.506611 -1.438643
-3.828208 1.610407 -1.420971
-4.041435 1.707767 -1.385599
-4.277622 1.815612 -1.347985
-4.539290 1.934170 -1.306113
-4.785171 2.046735 -1.246526
-5.198666 2.233945 -1.215000
-5.603751 2.418715 -1.161171
-6.248056 2.679020 -1.126970
-6.886484 2.965157 -1.062721
-7.501096 3.242474 -0.962101
-8.698094 3.780652 -0.891585
-8.693899 3.780492 -0.668689
-8.676970 3.776447 -0.446083
-11.291033 4.948899 -0.289629
-0.000920 -0.107543 -0.004046
-24.958450 11.090376 0.634656
-0.000920 -0.107543 -0.004046
-26.743942 11.907655 2.049972
-26.733044 11.908031 2.734196
-26.733912 11.919304 3.427906
-26.669870 11.901358 4.110447
-15.872932 7.042680 2.858392
-26.599922 11.885947 5.497365
-0.549456 0.140937 -0.361026
-2.610447 1.075174 -1.613271
-2.709305 1.121072 -1.584825
-2.831548 1.177069 -1.564189
-2.935757 1.225552 -1.529257
-3.069885 1.287721 -1.504448
-3.231298 1.362406 -1.485903
-3.416042 1.447146 -1.468678
-3.596037 1.530540 -1.441363
-3.817948 1.633198 -1.420956
-3.999317 1.717540 -1.374866
-4.268243 1.841132 -1.348519
-4.539423 1.966815 -1.309640
-4.781151 2.079240 -1.248814
-5.198515 2.272293 -1.218304
-5.586871 2.451203 -1.160782
-6.225212 2.710728 -1.125653
-6.884902 3.012225 -1.065202
-7.484077 3.285234 -0.962309
-8.698003 3.839150 -0.893785
-8.698599 3.842973 -0.670751
-8.678090 3.837210 -0.447263
-11.248993 5.008171 -0.289270
-0.000916 -0.107439 -0.004043
-24.982685 11.274665 0.637016
-0.000916 -0.107439 -0.004043
-0.000916 -0.107439 -0.004043
-26.632277 12.053334 2.731298
-26.734337 12.110887 3.437289
-26.677355 12.095765 4.122784
-15.968390 7.200092 2.883428
-16.570225 7.482306 3.432254
-0.551042 0.145818 -0.363062
-2.603172 1.091196 -1.613260
-2.692346 1.132794 -1.579182
-2.826903 1.195944 -1.565971
-2.924520 1.241542 -1.527533
-3.081441 1.315194 -1.514196
-3.222541 1.381675 -1.485889
-3.394914 1.462013 -1.463575
-3.548735 1.534592 -1.426306
-3.797559 1.650498 -1.417102
-4.026864 1.758317 -1.387951
-4.270547 1.872989 -1.352913
-4.516877 1.988142 -1.306586
-4.779066 2.111758 -1.251562
-5.188686 2.303033 -1.219119
-5.602339 2.497532 -1.167054
-6.180999 2.736439 -1.120772
-6.857270 3.048982 -1.063789
-7.465006 3.331815 -0.962516
-8.693639 3.901497 -0.895796
-8.702176 3.907164 -0.672812
-8.699861 3.909670 -0.449559
-11.203909 5.068227 -0.288866
-0.000935 -0.107317 -0.004038
-0.000935 -0.107317 -0.004038
-0.000935 -0.107317 -0.004038
-0.000935 -0.107317 -0.004038
-16.578421 7.578223 1.703222
-16.558487 7.575795 2.133087
-16.492085 7.551780 2.553961
-16.081739 7.364403 2.911708
-16.424656 7.530502 3.411182
-0.540263 0.144625 -0.356937
-2.596453 1.105826 -1.613249
-2.688593 1.149418 -1.581047
-2.813109 1.208784 -1.562371
-2.934719 1.266904 -1.536931
-3.080070 1.335585 -1.517437
-3.229202 1.406793 -1.492813
-3.374016 1.476098 -1.458472
-3.565027 1.566469 -1.436550
-3.785645 1.671625 -1.416448
-3.995314 1.771822 -1.380791
-4.268125 1.901010 -1.355653
-4.513487 2.018348 -1.309101
-4.764840 2.137689 -1.251085
-5.169416 2.330482 -1.217854
-5.583691 2.528181 -1.166295
-6.150706 2.764335 -1.118160
-6.848504 3.091526 -1.065158
-7.454686 3.377774 -0.963651
-8.685537 3.956844 -0.897253
-8.701301 3.965961 -0.674456
-8.680926 3.960011 -0.449716
-11.148561 5.120884 -0.288186
-0.000931 -0.107213 -0.004034
-0.000931 -0.107213 -0.004034
-0.000931 -0.107213 -0.004034
-12.113819 5.588464 0.933826
-12.245691 5.655541 1.260444
-16.431295 7.632215 2.122438
-16.386333 7.614327 2.544256
-16.357937 7.607717 2.969845
-16.316395 7.594878 3.397889
-0.537251 0.147100 -0.355912
-2.578393 1.115625 -1.606382
-2.674917 1.161945 -1.577283
-2.803867 1.224300 -1.561463
-2.921863 1.281559 -1.534353
-3.063219 1.350023 -1.513357
-3.227095 1.428639 -1.495883
-3.381650 1.503612 -1.465732
-3.563510 1.591737 -1.439956
-3.783905 1.697595 -1.419633
-3.986160 1.795734 -1.381371
-4.250937 1.923923 -1.353984
-4.502904 2.045235 -1.309592
-4.751456 2.166046 -1.251067
-5.126620 2.347693 -1.211188
-5.553778 2.554579 -1.163315
-6.125154 2.795591 -1.116520
-6.847298 3.140703 -1.067916
-7.430908 3.419057 -0.963163
-8.683577 4.017160 -0.899452
-8.702207 4.029624 -0.676377
-8.686209 4.023767 -0.451176
-11.094802 5.173951 -0.287552
-0.000926 -0.107109 -0.004031
-0.000926 -0.107109 -0.004031
-12.085527 5.658059 0.622274
-12.092412 5.666378 0.934842
-12.164543 5.705877 1.255643
-16.296822 7.683983 2.110856
-16.286606 7.685880 2.535945
-16.251318 7.675763 2.958859
-16.266430 7.686284 3.396825
-0.543493 0.154120 -0.361005
-2.585243 1.137824 -1.615185
-2.667345 1.177899 -1.577271
-2.799148 1.242578 -1.563245
-2.912187 1.297676 -1.533486
-3.059715 1.370126 -1.515785
-3.217937 1.447873 -1.495870
-3.355548 1.515053 -1.458447
-3.563831 1.617257 -1.444044
-3.768327 1.716976 -1.417700
-4.002609 1.832071 -1.390886
-4.242634 1.950155 -1.355070
-4.486954 2.069550 -1.308564
-4.754036 2.201123 -1.255198
-5.125163 2.382385 -1.214078
-5.549441 2.590823 -1.165516
-6.130941 2.843117 -1.120710
-6.817780 3.175041 -1.066225
-7.411645 3.464059 -0.963370
-8.666122 4.072181 -0.900166
-8.705194 4.092787 -0.678438
-8.693940 4.090995 -0.452819
-11.042591 5.227431 -0.286965
-16.400377 7.822734 -0.001401
-12.196149 5.794938 0.312480
-12.071908 5.737264 0.623339
-12.058942 5.736028 0.934878
-12.198199 5.805991 1.262564
-0.000920 -0.107003 -0.004027
-26.699080 12.858071 4.171569
-26.657608 12.843345 4.869397
-26.642433 12.847127 5.581867
-0.546659 0.159514 -0.364060
-2.565721 1.146225 -1.607339
-2.656955 1.191327 -1.575383
-2.788358 1.256716 -1.561440
-2.908915 1.316908 -1.536041
-3.057729 1.391048 -1.519025
-3.200914 1.461859 -1.492005
-3.364567 1.543497 -1.466432
-3.557218 1.639511 -1.445398
-3.776478 1.747951 -1.424725
-3.999956 1.859419 -1.393848
-4.235877 1.977195 -1.356709
-4.477818 2.097170 -1.309560
-4.744143 2.230280 -1.256104
-5.106780 2.411117 -1.213230
-5.556239 2.635110 -1.170308
-6.119681 2.880007 -1.121663
-6.788093 3.209148 -1.064533
-7.393376 3.506378 -0.963578
-8.646227 4.122375 -0.900510
-8.707737 4.156119 -0.680499
-8.691867 4.150121 -0.453909
-11.002708 5.286647 -0.286701
-0.000915 -0.106899 -0.004023
-12.143246 5.853377 0.312002
-12.055971 5.815611 0.624309
-12.037625 5.811661 0.935893
-0.000915 -0.106899 -0.004023
-26.768764 13.071834 3.489534
-26.696779 13.047631 4.183069
-26.652847 13.037211 4.882781
-26.636082 13.034380 5.596395
-0.541988 0.161330 -0.362015
-2.550419 1.157647 -1.602432
-2.658705 1.211889 -1.581004
-2.775426 1.270963 -1.558736
-2.902045 1.335058 -1.536884
-3.042502 1.405481 -1.515761
-3.213024 1.491610 -1.502011
-3.348033 1.560202 -1.463511
-3.555495 1.664250 -1.448805
-3.765410 1.770432 -1.424710
-4.001870 1.890031 -1.398598
-4.232404 2.005950 -1.359449
-4.466396 2.124673 -1.310050
-4.742804 2.263770 -1.259313
-5.118443 2.453726 -1.219445
-5.554413 2.674209 -1.173250
-6.130139 2.930390 -1.126826
-6.775977 3.251808 -1.065624
-7.373578 3.551169 -0.963786
-8.622760 4.174597 -0.900668
-8.704469 4.216951 -0.682144
-8.693299 4.215083 -0.455273
-10.952602 5.343041 -0.286206
-0.000911 -0.106795 -0.004020
-12.177452 5.960208 0.313861
-12.140381 5.946874 0.630607
-12.042596 5.900586 0.939004
-0.000911 -0.106795 -0.004020
-26.773603 13.272311 3.500545
-26.714455 13.248238 4.197913
-26.673740 13.239181 4.900704
-26.643734 13.235457 5.614633
-0.541978 0.165325 -0.363029
-2.538440 1.170077 -1.599482
-2.636878 1.220141 -1.572544
-2.765844 1.286220 -1.557829
-2.892060 1.351023 -1.536019
-3.022324 1.417321 -1.510057
-3.165885 1.491071 -1.484274
-3.338382 1.579566 -1.463498
-3.548605 1.686508 -1.450158
-3.764672 1.797315 -1.428537
-3.992027 1.914024 -1.399177
-4.223595 2.032131 -1.360536
-4.451756 2.149597 -1.309528
-4.748167 2.300835 -1.264365
-5.079194 2.470870 -1.213611
-5.545328 2.709831 -1.174710
-6.107268 2.963098 -1.125833
-6.765378 3.295336 -1.066992
-7.354146 3.594563 -0.963996
-8.594402 4.222504 -0.900271
-8.716837 4.285976 -0.685040
-8.698581 4.280475 -0.456825
-10.903189 5.397135 -0.285711
-0.000930 -0.106673 -0.004015
-0.000930 -0.106673 -0.004015
-0.000930 -0.106673 -0.004015
-0.000930 -0.106673 -0.004015
-0.000930 -0.106673 -0.004015
-26.772264 13.465024 3.510622
-26.732460 13.450373 4.213035
-26.658016 13.423979 4.912139
