# This PCD file was generated using the MATLAB® pcwrite function
# from Computer Vision Toolbox®.
# .PCD v.7 - Point Cloud Data file format
VERSION .7
FIELDS x y z
SIZE 4 4 4
TYPE F F F
COUNT 1 1 1
WIDTH 1600
HEIGHT 1
VIEWPOINT 0 0 0 1 0 0 0
POINTS 1600
DATA ascii
-4.818527 -2.399130 -1.274214
-5.288027 -2.629755 -1.254155
-5.766251 -2.864293 -1.211924
-6.310435 -3.168185 -1.158956
-6.955608 -3.488187 -1.092445
-8.075203 -4.046522 -1.053455
-8.755426 -4.382849 -0.912253
-8.764608 -4.383607 -0.684132
-8.814760 -4.406713 -0.458522
-9.975844 -4.981729 -0.257754
-12.742556 -6.355442 0.001437
-12.622061 -6.292674 0.328785
-12.544166 -6.248411 0.654789
-12.441800 -6.192075 0.972963
-7.376503 -3.671421 0.769081
0.000220 -0.008384 -0.000362
-7.680742 -3.817477 1.205683
-8.425909 -4.183362 1.545835
-8.199967 -4.069617 1.724931
-2.512854 -1.248561 -1.661890
-2.606884 -1.293830 -1.633118
-2.722770 -1.350384 -1.614022
-2.846154 -1.409952 -1.592829
-2.974746 -1.471987 -1.569228
-3.136395 -1.550856 -1.556097
-3.302669 -1.631198 -1.536966
-3.475076 -1.714399 -1.511574
-3.696605 -1.822330 -1.498575
-3.906088 -1.923460 -1.469793
-4.118315 -2.025705 -1.430775
-4.366663 -2.146421 -1.393925
-4.647315 -2.281807 -1.354100
-4.865434 -2.387480 -1.282975
-5.292479 -2.594005 -1.251667
-5.779077 -2.829206 -1.211189
-6.323771 -3.127953 -1.157990
-6.959551 -3.440080 -1.089949
-8.086557 -3.992279 -1.051842
-9.270774 -4.571680 -0.963100
-10.533323 -5.190839 -0.819785
-8.942884 -4.404476 -0.463830
-9.965701 -4.902948 -0.256751
-12.816609 -6.300351 0.001425
-12.702216 -6.238695 0.329888
-12.607883 -6.186950 0.656173
-12.509447 -6.136021 0.975461
-7.406413 -3.633156 0.770002
-7.475131 -3.663546 0.973791
-7.489021 -3.668726 1.172241
-8.366471 -4.093959 1.530574
-8.073771 -3.947547 1.693424
-2.516869 -1.232453 -1.659850
-2.612667 -1.277936 -1.632140
-2.720936 -1.329932 -1.608389
-2.855788 -1.394215 -1.593727
-2.981238 -1.454464 -1.568374
-3.146884 -1.533450 -1.556910
-3.300339 -1.606407 -1.531572
-3.481206 -1.693227 -1.510121
-3.698529 -1.796819 -1.495159
-3.909915 -1.898202 -1.467234
-4.141553 -2.008378 -1.434946
-4.366787 -2.115279 -1.390070
-4.659923 -2.255729 -1.354105
-4.873806 -2.356774 -1.281596
-5.298033 -2.560053 -1.249593
-5.784094 -2.791684 -1.208976
-6.327434 -3.084472 -1.155405
-6.966724 -3.393783 -1.088011
-8.104005 -3.942935 -1.051157
-9.250327 -4.495506 -0.958287
-8.717480 -4.235155 -0.676634
-9.025596 -4.380668 -0.466815
-9.069692 -4.400082 -0.233076
-12.886834 -6.242887 0.001411
-12.770287 -6.181002 0.330709
-12.672771 -6.131118 0.657743
-12.575089 -6.078507 0.977820
-7.417582 -3.587304 0.769064
-7.370186 -3.561249 0.957505
-7.481440 -3.611676 1.167776
-8.351817 -4.029090 1.523749
-8.069104 -3.889495 1.687857
-2.512806 -1.213069 -1.652710
-2.626021 -1.266221 -1.636056
-2.717118 -1.309278 -1.601819
-2.866711 -1.379679 -1.595522
-2.999304 -1.441842 -1.573508
-3.144064 -1.509691 -1.551219
-3.315876 -1.591027 -1.534656
-3.492539 -1.673843 -1.510849
-3.700285 -1.771339 -1.491741
-3.913886 -1.872289 -1.464677
-4.154722 -1.985218 -1.435545
-4.370158 -2.085871 -1.387319
-4.620381 -2.203822 -1.338919
-4.881976 -2.326058 -1.280217
-5.306000 -2.525119 -1.247937
-5.788078 -2.751316 -1.206391
-6.337395 -3.045573 -1.154116
-6.991466 -3.356066 -1.088853
-8.111514 -3.890653 -1.049313
-9.244697 -4.429070 -0.955145
-9.053106 -4.333582 -0.700739
-9.109375 -4.358494 -0.469892
-9.069582 -4.335608 -0.232441
-9.320844 -4.451503 0.000908
-12.837055 -6.124964 0.331531
-12.734876 -6.070819 0.659125
-12.636862 -6.018740 0.979898
-7.431515 -3.539691 0.768312
-7.406669 -3.526320 0.959589
-7.527124 -3.580309 1.171668
-8.339869 -3.962449 1.517249
-7.940346 -3.771328 1.656350
-2.524582 -1.200230 -1.655769
-2.631866 -1.249765 -1.635077
-2.727969 -1.294545 -1.603698
-2.865103 -1.357963 -1.590139
-3.001213 -1.420839 -1.570087
-3.141100 -1.485997 -1.545526
-3.295146 -1.557084 -1.520786
-3.502348 -1.652995 -1.510852
-3.717186 -1.753087 -1.494479
-3.924870 -1.848938 -1.464680
-4.169835 -1.962045 -1.436739
-4.376830 -2.058114 -1.385669
-4.631563 -2.175449 -1.338418
-4.897009 -2.298618 -1.280682
-5.308021 -2.488604 -1.245031
-5.794890 -2.713661 -1.204546
-6.346380 -3.003602 -1.152503
-6.990931 -3.306344 -1.085801
-8.129021 -3.839808 -1.048628
-9.200495 -4.340952 -0.947922
-9.135654 -4.308445 -0.705206
-8.811402 -4.152078 -0.453271
-9.449783 -4.448283 -0.241505
0.000228 -0.007981 -0.000345
-12.907536 -6.064705 0.332401
-12.805011 -6.011142 0.660883
-12.714623 -5.966081 0.983234
-7.484190 -3.511929 0.771652
-7.227707 -3.388771 0.933769
-7.581671 -3.552727 1.176952
-8.326759 -3.897540 1.510750
-7.957217 -3.721533 1.655230
-2.522053 -1.181211 -1.649649
-2.640543 -1.235225 -1.636057
-2.733748 -1.277953 -1.602758
-2.871200 -1.340587 -1.589243
-3.009321 -1.403407 -1.570086
-3.157852 -1.471619 -1.549593
-3.325780 -1.548060 -1.530806
-3.511768 -1.632689 -1.510853
-3.725461 -1.730760 -1.493797
-3.937130 -1.826989 -1.465322
-4.161962 -1.929082 -1.430190
-4.371107 -2.024716 -1.380162
-4.652753 -2.152685 -1.340953
-4.897736 -2.264584 -1.277461
-5.323991 -2.458708 -1.245452
-5.803225 -2.676862 -1.203072
-6.354570 -2.962742 -1.150890
-6.997236 -3.260082 -1.083863
-8.143754 -3.789472 -1.047710
-9.178327 -4.266002 -0.943109
-9.292397 -4.316928 -0.715385
0.000206 -0.007862 -0.000339
-9.377237 -4.348311 -0.239021
-13.088844 -6.063499 0.001370
-12.980307 -6.007791 0.333362
-12.870193 -5.951447 0.662452
-12.775901 -5.905197 0.985312
-7.567528 -3.497866 0.778153
-7.692679 -3.552311 0.991197
-7.632531 -3.522998 1.181678
-8.245033 -3.801577 1.491920
-7.974888 -3.673913 1.654478
-2.528771 -1.166554 -1.649649
-2.645995 -1.219159 -1.635077
-2.742617 -1.262822 -1.603698
-2.873943 -1.321702 -1.586553
-3.020597 -1.387453 -1.571798
-3.164823 -1.451989 -1.548781
-3.327890 -1.525705 -1.527724
-3.510907 -1.607687 -1.506490
-3.735614 -1.708525 -1.493800
-3.945834 -1.803378 -1.464683
-4.162525 -1.900240 -1.426621
-4.388256 -2.001019 -1.381818
-4.613947 -2.102545 -1.326274
-4.900407 -2.230552 -1.274700
-5.327746 -2.422128 -1.242964
-5.811798 -2.639034 -1.201597
-6.360718 -2.921058 -1.148952
-7.000199 -3.210984 -1.081367
-8.152743 -3.736625 -1.046099
-9.123012 -4.176543 -0.934956
-9.005635 -4.119091 -0.691440
-9.094842 -4.157918 -0.465374
-9.136449 -4.173046 -0.232291
-9.493448 -4.331781 0.000885
-13.040123 -5.944436 0.333996
-12.936940 -5.892015 0.664114
-12.843366 -5.844040 0.987809
-7.611682 -3.463493 0.780562
-7.635187 -3.472547 0.981189
-7.038171 -3.198679 1.086675
-8.242249 -3.741072 1.487368
-7.650317 -3.471375 1.582956
-2.545010 -1.155669 -1.655769
-2.654725 -1.204046 -1.636057
-2.756455 -1.249322 -1.607453
-2.888222 -1.307444 -1.590141
-3.030357 -1.370157 -1.572656
-3.181659 -1.436829 -1.552849
-3.335157 -1.505067 -1.526954
-3.522027 -1.587492 -1.507220
-3.733646 -1.680834 -1.489014
-3.951219 -1.777517 -1.462766
-4.149271 -1.864491 -1.418287
-4.384214 -1.967773 -1.376861
-4.638665 -2.080547 -1.329821
-4.906421 -2.198143 -1.272859
-5.334839 -2.387175 -1.241305
-5.821920 -2.601996 -1.200493
-6.368897 -2.879103 -1.147339
-7.006458 -3.163582 -1.079428
-8.152980 -3.678300 -1.043329
-8.748046 -3.942518 -0.894146
-8.745963 -3.937919 -0.669725
-9.328904 -4.197897 -0.476072
-8.591844 -3.863255 -0.217891
-13.261984 -5.953364 0.001345
-13.129873 -5.891371 0.335378
-13.015405 -5.834627 0.666338
-12.908744 -5.781466 0.990167
-7.662958 -3.431978 0.783715
-7.693707 -3.444084 0.986064
-7.147427 -3.197102 1.100596
-8.112844 -3.624501 1.460102
-7.737186 -3.455398 1.596658
-2.535646 -1.134357 -1.645570
-2.651802 -1.184851 -1.630180
-2.760122 -1.232365 -1.605576
-2.898698 -1.292639 -1.591936
-3.034624 -1.351629 -1.570945
-3.169530 -1.410066 -1.543092
-3.345136 -1.487071 -1.527728
-3.498407 -1.553391 -1.493405
-3.739477 -1.658341 -1.487650
-3.945451 -1.748419 -1.457008
-4.173553 -1.847344 -1.423054
-4.398617 -1.944695 -1.377966
-4.621834 -2.042031 -1.321724
-4.915005 -2.169039 -1.271942
-5.339091 -2.353301 -1.239232
-5.830935 -2.566955 -1.199387
-6.375833 -2.839369 -1.145725
-7.018532 -3.121892 -1.078602
-8.158837 -3.626148 -1.041484
-8.780799 -3.898347 -0.895271
-8.713058 -3.864665 -0.665556
-9.127425 -4.046209 -0.464654
-8.761393 -3.880575 -0.221642
-20.689943 -9.144931 0.002244
0.000214 -0.007557 -0.000327
0.000214 -0.007557 -0.000327
0.000214 -0.007557 -0.000327
0.000214 -0.007557 -0.000327
-7.752782 -3.418560 0.991170
-7.279347 -3.207243 1.118137
-8.047984 -3.541744 1.444842
0.000214 -0.007557 -0.000327
-2.553323 -1.124010 -1.652710
-2.655538 -1.167596 -1.628222
-2.767333 -1.215868 -1.605577
-2.891527 -1.268876 -1.583862
-3.032599 -1.329166 -1.565813
-3.185951 -1.395317 -1.547158
-3.340330 -1.461193 -1.521563
-3.519492 -1.537691 -1.498496
-3.745477 -1.635175 -1.486284
-3.973076 -1.732435 -1.463412
-4.194905 -1.827001 -1.426630
-4.377934 -1.905472 -1.368051
-4.619605 -2.008330 -1.317679
-4.920228 -2.137501 -1.270102
-5.352496 -2.322421 -1.239238
-5.834748 -2.528552 -1.197173
-6.379849 -2.795861 -1.143464
-7.039982 -3.082901 -1.079166
-8.167424 -3.572005 -1.039871
-8.612062 -3.762501 -0.875798
-8.758895 -3.824688 -0.667378
-8.874642 -3.871445 -0.450630
-8.787879 -3.830016 -0.221746
0.000192 -0.007437 -0.000321
0.000192 -0.007437 -0.000321
-19.807697 -8.602777 1.009045
-19.742111 -8.570206 1.506876
-7.787197 -3.381831 0.792440
-7.796577 -3.382657 0.994183
-7.430345 -3.222576 1.138464
-7.995748 -3.463908 1.431854
-8.294213 -3.589487 1.702979
-2.556563 -1.107810 -1.650669
-2.652567 -1.148045 -1.622345
-2.777493 -1.201197 -1.607454
-2.906949 -1.255634 -1.588349
-3.044911 -1.314244 -1.568381
-3.178758 -1.370373 -1.539841
-3.345250 -1.440371 -1.520024
-3.522830 -1.515720 -1.496317
-3.734064 -1.604591 -1.478079
-3.960012 -1.700419 -1.455093
-4.203249 -1.802686 -1.426037
-4.379965 -1.876341 -1.365298
-4.596903 -1.967960 -1.308062
-4.927035 -2.106740 -1.268724
-5.354551 -2.287781 -1.236749
-5.841494 -2.492750 -1.195699
-6.384942 -2.754273 -1.141526
-7.046676 -3.037499 -1.077504
-8.184149 -3.523253 -1.039419
-8.673817 -3.730004 -0.879890
-8.711051 -3.744198 -0.662097
-8.832479 -3.792621 -0.447388
-8.818272 -3.784719 -0.221989
-19.841360 -8.498223 0.002066
-19.849958 -8.493704 0.503280
0.000194 -0.007337 -0.000317
0.000194 -0.007337 -0.000317
-7.855381 -3.359280 0.797453
-7.884748 -3.368560 1.003010
-7.547148 -3.221523 1.153499
-7.867858 -3.356480 1.405564
-8.310477 -3.541468 1.702228
-2.570580 -1.096774 -1.655769
-2.658903 -1.133102 -1.622345
-2.774567 -1.180943 -1.601822
-2.910578 -1.237884 -1.586556
-3.039063 -1.290954 -1.561538
-3.205081 -1.359748 -1.548787
-3.350048 -1.419544 -1.518484
-3.531458 -1.495301 -1.496319
-3.725864 -1.575674 -1.471244
-3.978717 -1.680461 -1.458296
-4.189191 -1.767249 -1.417702
-4.387092 -1.849502 -1.364200
-4.590610 -1.933062 -1.303003
-4.932240 -2.074344 -1.266884
-5.362954 -2.252671 -1.235508
-5.847082 -2.454142 -1.193853
-6.394731 -2.716160 -1.140560
-7.040285 -2.986737 -1.073897
-8.190861 -3.471963 -1.037806
-8.687132 -3.678303 -0.879159
-9.195631 -3.889394 -0.697209
-9.165235 -3.872791 -0.463108
-9.151255 -3.865024 -0.229808
0.000196 -0.007236 -0.000312
0.000196 -0.007236 -0.000312
-8.652322 -3.644023 0.438406
0.000196 -0.007236 -0.000312
-7.919217 -3.330991 0.801908
-7.961350 -3.345419 1.010209
-7.657427 -3.214838 1.167418
-8.422781 -3.533715 1.500944
-8.264222 -3.463929 1.688508
-2.577188 -1.080944 -1.655769
-2.670558 -1.118744 -1.625283
-2.773330 -1.160961 -1.597128
-2.916404 -1.219278 -1.585658
-3.043298 -1.271401 -1.559827
-3.209669 -1.339204 -1.547162
-3.320866 -1.383980 -1.501530
-3.526457 -1.468506 -1.490502
-3.743791 -1.557028 -1.474665
-3.976039 -1.652339 -1.453818
-4.186913 -1.737880 -1.413535
-4.397950 -1.823332 -1.364203
-4.576577 -1.896163 -1.295919
-4.940450 -2.044325 -1.265967
-5.371799 -2.221083 -1.234681
-5.853807 -2.417329 -1.192379
-6.398407 -2.671632 -1.138299
-7.057841 -2.944801 -1.073905
-8.200869 -3.417180 -1.036425
0.000198 -0.007135 -0.000308
-8.826034 -3.671696 -0.667550
-8.822612 -3.666687 -0.444715
-8.736245 -3.629070 -0.218869
-8.678870 -3.601724 0.000699
0.000198 -0.007135 -0.000308
0.000198 -0.007135 -0.000308
-8.653413 -3.582337 0.655430
0.000198 -0.007135 -0.000308
0.000198 -0.007135 -0.000308
-7.772811 -3.210588 1.182172
-8.459399 -3.491795 1.503855
-8.240391 -3.398210 1.679607
-2.581553 -1.065774 -1.654749
-2.683180 -1.106352 -1.629201
-2.787904 -1.148696 -1.601822
-2.918168 -1.200832 -1.582967
-3.042162 -1.250326 -1.555551
-3.196773 -1.312850 -1.537403
-3.362675 -1.379258 -1.516945
-3.538274 -1.449467 -1.491958
-3.755876 -1.537401 -1.476034
-3.978428 -1.626448 -1.451260
-4.168505 -1.702133 -1.404010
-4.406243 -1.797914 -1.363656
-4.571244 -1.863121 -1.291366
-4.946354 -2.014392 -1.264588
-5.379030 -2.187791 -1.233439
-5.858481 -2.379781 -1.190534
-6.405865 -2.632773 -1.137011
-7.064989 -2.901473 -1.072521
-8.197713 -3.362204 -1.033655
-8.652036 -3.544624 -0.871387
-8.768783 -3.590557 -0.661711
-8.744884 -3.577235 -0.439800
-8.714372 -3.561233 -0.217817
-8.682152 -3.546296 0.000687
-8.656951 -3.532501 0.217705
-8.580752 -3.497999 0.432688
-8.630753 -3.516556 0.652206
-8.541802 -3.476936 0.860848
-8.385815 -3.410149 1.059017
-7.876852 -3.202005 1.195256
-8.490287 -3.447375 1.505790
-8.256125 -3.349131 1.678855
-2.578031 -1.046928 -1.648630
-2.692693 -1.092087 -1.631161
-2.800974 -1.135162 -1.605579
-2.931626 -1.186573 -1.586556
-3.064366 -1.238751 -1.563251
-3.211232 -1.296488 -1.540658
-3.367092 -1.358392 -1.515406
-3.543058 -1.427580 -1.490505
-3.757901 -1.512198 -1.473302
-3.968339 -1.595656 -1.444222
-4.187072 -1.681530 -1.406990
-4.406085 -1.767350 -1.360352
-4.599845 -1.843816 -1.296431
-4.952737 -1.982751 -1.263210
-5.377343 -2.149932 -1.230118
-5.861495 -2.340518 -1.188320
-6.406245 -2.589824 -1.134425
-7.071002 -2.854965 -1.070861
-8.207698 -3.311113 -1.032505
-8.646424 -3.484215 -0.868798
-8.762122 -3.527202 -0.659632
-8.746776 -3.519253 -0.438880
-8.729134 -3.508643 -0.217689
-8.697433 -3.492379 0.000676
-8.682688 -3.484708 0.217834
-8.660087 -3.472155 0.435667
-8.734780 -3.498512 0.658482
0.000178 -0.006915 -0.000298
-8.645112 -3.457427 1.089232
-7.698842 -3.076611 1.165442
-8.497727 -3.391719 1.503508
-8.382978 -3.344314 1.700705
-2.580959 -1.030236 -1.646589
-2.692594 -1.073421 -1.627244
-2.802715 -1.116452 -1.602761
-2.930260 -1.165768 -1.582071
-3.061536 -1.216454 -1.558119
-3.211817 -1.275177 -1.537406
-3.364757 -1.334212 -1.510782
-3.547963 -1.405057 -1.489052
-3.756024 -1.486283 -1.469200
-3.991795 -1.577531 -1.449345
-4.189821 -1.653762 -1.404611
-4.408993 -1.739028 -1.358151
-4.614257 -1.817806 -1.297448
-4.964038 -1.954088 -1.263214
-5.378655 -2.114552 -1.227630
-5.871191 -2.305170 -1.187585
-6.417789 -2.550205 -1.133783
-7.076249 -2.809706 -1.069199
-8.221611 -3.260063 -1.031820
-8.776153 -3.475948 -0.879759
-8.778549 -3.475103 -0.659364
-8.774887 -3.470128 -0.439263
-8.772082 -3.465482 -0.218254
-8.728510 -3.446541 0.000665
-8.757106 -3.454278 0.219174
-8.911048 -3.511263 0.447235
-8.764048 -3.451684 0.659171
-9.684682 -3.809652 0.971491
-8.277115 -3.253615 1.040397
-7.664759 -3.011885 1.157633
-8.482182 -3.328935 1.497335
-7.804135 -3.060246 1.579540
-2.591620 -1.017122 -1.649649
-2.697069 -1.057156 -1.626264
-2.810692 -1.100835 -1.603701
-2.930228 -1.146171 -1.578482
-3.076886 -1.201959 -1.562396
-3.227590 -1.259857 -1.541473
-3.363738 -1.311374 -1.506931
-3.547266 -1.381130 -1.485418
-3.759218 -1.462493 -1.467151
-3.976041 -1.544836 -1.440386
-4.184996 -1.623989 -1.399849
-4.395582 -1.704497 -1.350990
-4.615584 -1.787617 -1.294920
-4.969735 -1.923253 -1.261835
-5.383400 -2.080622 -1.225973
-5.876978 -2.268404 -1.186111
-6.428661 -2.511657 -1.133141
-7.084893 -2.765927 -1.068095
-8.258722 -3.219757 -1.034148
-8.595543 -3.347319 -0.859725
-8.820678 -3.433068 -0.661048
-8.833810 -3.434598 -0.441226
-8.866449 -3.443693 -0.220113
-8.807870 -3.419221 0.000662
-8.797333 -3.411620 0.219677
0.000182 -0.006714 -0.000290
0.000182 -0.006714 -0.000290
0.000182 -0.006714 -0.000290
-8.217821 -3.175784 1.030621
-7.454629 -2.879989 1.123362
-8.526967 -3.289846 1.501867
-8.087583 -3.117448 1.633253
-2.592568 -1.000238 -1.646590
-2.698183 -1.039634 -1.623326
-2.807064 -1.080729 -1.598068
-2.928381 -1.125991 -1.573998
-3.080330 -1.182834 -1.560687
-3.222808 -1.236576 -1.535780
-3.371213 -1.291864 -1.506931
-3.570809 -1.366527 -1.491964
-3.751749 -1.434680 -1.460997
-3.986585 -1.522494 -1.441030
-4.194232 -1.599760 -1.399852
-4.405290 -1.679042 -1.350993
-4.618535 -1.758151 -1.292898
-4.977038 -1.893125 -1.260918
-5.391610 -2.048083 -1.225145
-5.878877 -2.230243 -1.183896
-6.430079 -2.469546 -1.130880
-7.089565 -2.720730 -1.066434
-8.280807 -3.173453 -1.034621
-8.590446 -3.288429 -0.857324
-8.888739 -3.400599 -0.664680
-9.032599 -3.451920 -0.450162
-9.091611 -3.470788 -0.225209
-10.038532 -3.829563 0.000780
0.000184 -0.006614 -0.000286
0.000184 -0.006614 -0.000286
0.000184 -0.006614 -0.000286
-8.243980 -3.134625 0.823240
-8.365963 -3.177584 1.046886
-7.282166 -2.765323 1.094944
-8.674945 -3.289475 1.524567
-8.232234 -3.118657 1.658809
-2.588608 -0.981530 -1.640468
-2.695930 -1.020900 -1.618429
-2.813195 -1.064444 -1.598069
-2.944822 -1.112771 -1.579381
-3.090436 -1.166240 -1.562399
-3.224684 -1.215982 -1.533343
-3.375081 -1.271044 -1.505392
-3.573339 -1.343881 -1.489784
-3.761666 -1.413610 -1.461683
-3.986375 -1.496089 -1.437832
-4.217641 -1.580821 -1.404620
-4.398648 -1.647486 -1.346036
-4.623100 -1.729396 -1.291383
-4.984190 -1.862952 -1.259999
-5.399611 -2.015529 -1.224319
-5.882366 -2.192826 -1.182052
-6.434923 -2.428894 -1.129266
-7.093953 -2.675568 -1.064773
-8.278441 -3.117925 -1.032082
-8.635315 -3.248586 -0.859932
-8.661579 -3.256717 -0.646300
-9.065392 -3.404642 -0.450824
-9.102046 -3.414764 -0.224989
0.000186 -0.006513 -0.000282
0.000186 -0.006513 -0.000282
0.000186 -0.006513 -0.000282
-8.173650 -3.057370 0.610659
-8.286119 -3.096034 0.825648
-8.404574 -3.136867 1.049434
0.000186 -0.006513 -0.000282
-8.664113 -3.228351 1.519365
-8.450844 -3.145688 1.699183
-2.597386 -0.967709 -1.642510
-2.698457 -1.004038 -1.616470
-2.815926 -1.046896 -1.596192
-2.954508 -1.096918 -1.581176
-3.091989 -1.146433 -1.559832
-3.236744 -1.199178 -1.535784
-3.375387 -1.248922 -1.502311
-3.570489 -1.319321 -1.485422
-3.755579 -1.386642 -1.456216
-3.980655 -1.467779 -1.432715
-4.205130 -1.548507 -1.397476
-4.417033 -1.625344 -1.348795
-4.632945 -1.702636 -1.291387
-4.987484 -1.831442 -1.258160
-5.401896 -1.980944 -1.222246
-5.885639 -2.155429 -1.180206
-6.437660 -2.387581 -1.127329
-7.099914 -2.631135 -1.063391
-8.260830 -3.057009 -1.027688
-8.635163 -3.191802 -0.858087
-8.833654 -3.263271 -0.657735
0.000164 -0.006393 -0.000276
-9.130919 -3.365629 -0.225231
-19.587688 -7.208674 0.001724
0.000164 -0.006393 -0.000276
0.000164 -0.006393 -0.000276
-8.277267 -3.041725 0.617077
-8.324331 -3.055700 0.827682
0.000164 -0.006393 -0.000276
-7.700334 -2.822556 1.152862
-8.658435 -3.169492 1.515137
-7.839187 -2.867123 1.572834
-2.611135 -0.955105 -1.647610
-2.707618 -0.989083 -1.618428
-2.818733 -1.028854 -1.594315
-2.949161 -1.074997 -1.574896
-3.098495 -1.128503 -1.559834
-3.242049 -1.179218 -1.534972
-3.372286 -1.225004 -1.497688
-3.565731 -1.294192 -1.480332
-3.761945 -1.363579 -1.455533
-3.987222 -1.444079 -1.432077
-4.235494 -1.531925 -1.404626
-4.403049 -1.590532 -1.341634
-4.639009 -1.674497 -1.290376
-4.992725 -1.799737 -1.256782
-5.409494 -1.948373 -1.221420
-5.886826 -2.117404 -1.177991
-6.444251 -2.346543 -1.126040
-7.106066 -2.585467 -1.062007
-8.267578 -3.003773 -1.026307
-9.249321 -3.356038 -0.917117
-8.745876 -3.171994 -0.649806
-9.100760 -3.296839 -0.450660
-9.170791 -3.320360 -0.225752
-19.662056 -7.103763 0.001696
-17.750061 -6.406582 0.439585
-17.700932 -6.385377 0.878945
0.000169 -0.006290 -0.000272
-9.271152 -3.341971 0.919915
0.000169 -0.006290 -0.000272
-7.651678 -2.753282 1.143105
-8.652352 -3.110811 1.510908
-8.617797 -3.095021 1.725466
-2.601821 -0.935188 -1.638429
-2.721273 -0.976772 -1.623326
-2.811099 -1.008245 -1.586804
-2.948332 -1.056018 -1.571309
-3.103213 -1.109924 -1.558979
-3.243584 -1.158588 -1.532533
-3.377309 -1.205423 -1.496918
-3.559035 -1.268555 -1.474516
-3.769710 -1.341775 -1.455534
-3.988300 -1.418453 -1.429519
-4.251409 -1.509949 -1.407011
-4.377668 -1.552865 -1.331166
-4.644886 -1.646366 -1.289368
-5.001148 -1.770191 -1.256324
-5.411692 -1.912890 -1.219347
-5.891819 -2.079733 -1.176517
-6.444201 -2.305779 -1.123778
-7.111471 -2.541070 -1.060624
-8.289805 -2.959449 -1.027012
0.000171 -0.006189 -0.000267
-8.592887 -3.060667 -0.637138
-9.134048 -3.251212 -0.451416
-9.611830 -3.417165 -0.236120
-17.793037 -6.313404 0.001480
-17.794943 -6.310599 0.439791
0.000171 -0.006189 -0.000267
0.000171 -0.006189 -0.000267
0.000171 -0.006189 -0.000267
-10.075882 -3.562031 1.250271
-7.603870 -2.686681 1.133626
-8.646421 -3.050795 1.506680
-8.624326 -3.041320 1.723233
-2.612143 -0.921350 -1.641490
-2.717110 -0.957046 -1.617449
-2.823661 -0.993775 -1.590560
-2.949460 -1.036621 -1.568617
-3.101153 -1.088422 -1.554703
-3.246721 -1.138576 -1.530907
-3.382630 -1.184643 -1.496148
-3.575269 -1.250362 -1.478153
-3.802171 -1.328599 -1.465112
-4.009143 -1.399008 -1.434001
-4.242223 -1.478326 -1.401058
-4.406473 -1.534463 -1.337232
-4.656363 -1.619305 -1.289878
-5.003851 -1.738721 -1.254486
-5.415199 -1.879022 -1.217689
-5.896251 -2.043078 -1.175041
-6.450280 -2.264786 -1.122489
-7.122214 -2.498659 -1.060076
-8.320301 -2.914695 -1.028645
-8.884946 -3.108598 -0.877422
-8.772357 -3.067543 -0.649129
-8.762635 -3.060729 -0.432179
0.000173 -0.006089 -0.000263
-17.887617 -6.231106 0.001459
-17.892494 -6.225791 0.441258
-17.883780 -6.215774 0.884307
-17.877623 -6.210125 1.324737
0.000173 -0.006089 -0.000263
-8.719012 -3.025026 1.079616
-7.572392 -2.626551 1.126654
-8.637708 -2.991814 1.502128
-8.629195 -2.985490 1.720630
-2.614134 -0.905050 -1.639449
-2.729131 -0.943550 -1.621368
-2.824288 -0.975676 -1.587744
-2.963802 -1.022409 -1.573103
-3.100508 -1.068085 -1.551281
-3.246274 -1.117390 -1.527655
-3.389340 -1.165052 -1.496151
-3.584124 -1.230260 -1.478884
-3.799073 -1.302915 -1.461009
-3.997379 -1.369056 -1.426962
-4.245225 -1.451905 -1.399273
-4.407926 -1.506471 -1.335030
-4.652751 -1.587998 -1.286337
-5.008224 -1.707889 -1.253107
-5.422198 -1.846433 -1.216862
-5.896705 -2.005209 -1.172827
-6.463199 -2.227482 -1.122494
-7.125222 -2.453626 -1.058414
-8.320014 -2.860813 -1.026568
-8.640825 -2.967522 -0.851634
-8.672813 -2.976789 -0.640502
-8.795207 -3.015281 -0.432934
-9.333204 -3.195703 -0.228375
-17.991310 -6.151157 0.001439
-18.001804 -6.147732 0.443047
-26.084728 -8.895204 1.287345
-26.083078 -8.889546 1.929015
-26.032990 -8.862337 2.567686
-9.919277 -3.376676 1.225833
-7.527351 -2.562411 1.117732
-8.626730 -2.932407 1.497251
-8.625734 -2.928705 1.716544
-2.635570 -0.895374 -1.649649
-2.732836 -0.927150 -1.620389
-2.824809 -0.957592 -1.584928
-2.964512 -1.003518 -1.570413
-3.110000 -1.051257 -1.552993
-3.256079 -1.099735 -1.529283
-3.401226 -1.147154 -1.498463
-3.592883 -1.210087 -1.479613
-3.761909 -1.266001 -1.443916
-4.006949 -1.346517 -1.427606
-4.273397 -1.433989 -1.405827
-4.398248 -1.474874 -1.329523
-4.665457 -1.562294 -1.287353
-5.019794 -1.679523 -1.253571
-5.432693 -1.815079 -1.216867
-5.900655 -1.968634 -1.171352
-6.468402 -2.187597 -1.121205
-7.124165 -2.407402 -1.056198
-8.340075 -2.814021 -1.027042
-8.480322 -2.857932 -0.834196
-8.657622 -2.915885 -0.638144
-8.931717 -3.004527 -0.438803
0.000153 -0.005868 -0.000253
-19.915155 -6.680335 0.001587
-26.119722 -8.749598 0.641664
-26.105183 -8.734591 1.285811
-26.063791 -8.715691 1.923805
-26.038214 -8.697042 2.563181
0.000153 -0.005868 -0.000253
0.000153 -0.005868 -0.000253
-8.620970 -2.875098 1.493347
-8.614447 -2.869581 1.710976
-2.647185 -0.882238 -1.653729
-2.734785 -0.910197 -1.618430
-2.838624 -0.943976 -1.589622
-2.948158 -0.979031 -1.558749
-3.115960 -1.033229 -1.552994
-3.258858 -1.079714 -1.527657
-3.404238 -1.126287 -1.496923
-3.582078 -1.183434 -1.472340
-3.765534 -1.243037 -1.442550
-4.011011 -1.322127 -1.426327
-4.259786 -1.402109 -1.398683
-4.413949 -1.451807 -1.331730
-4.668817 -1.533495 -1.285838
-5.016401 -1.646246 -1.250349
-5.431872 -1.780008 -1.214378
-5.906256 -1.932681 -1.170247
-6.475228 -2.148353 -1.120240
-7.122848 -2.361242 -1.053979
-8.314617 -2.752126 -1.021952
-8.908875 -2.944943 -0.874669
-8.818258 -2.913341 -0.648743
0.000155 -0.005768 -0.000249
0.000155 -0.005768 -0.000249
-26.162344 -8.606657 0.002119
-26.137341 -8.588327 0.640830
-26.094273 -8.564080 1.282784
-26.123013 -8.568437 1.924464
-26.055681 -8.536297 2.559980
-8.652817 -2.835352 1.065171
-7.537475 -2.469183 1.114930
-8.618598 -2.819174 1.490093
-8.617735 -2.815545 1.708373
-2.647262 -0.865290 -1.650670
-2.738290 -0.893790 -1.617450
-2.840611 -0.926424 -1.587746
-2.967300 -0.966345 -1.565929
-3.108070 -1.010710 -1.546151
-3.261698 -1.059129 -1.526032
-3.403598 -1.104300 -1.493842
-3.599442 -1.166108 -1.476705
-3.810386 -1.232654 -1.456913
-4.016715 -1.298322 -1.425690
-4.278661 -1.380953 -1.402259
-4.420626 -1.424891 -1.331182
-4.675717 -1.505872 -1.285334
-5.018627 -1.613977 -1.248510
-5.446038 -1.748830 -1.215214
-5.915713 -1.896900 -1.169883
-6.472448 -2.106044 -1.117654
-7.127285 -2.315773 -1.052596
-8.328403 -2.703482 -1.021731
-8.654710 -2.805830 -0.848138
-8.636001 -2.796456 -0.634124
0.000157 -0.005667 -0.000245
-9.444008 -3.052083 -0.229797
-26.308096 -8.481834 0.002086
-26.291031 -8.471251 0.643353
-26.268660 -8.453925 1.288903
-16.709934 -5.373332 1.228531
-16.663088 -5.351854 1.633900
0.000157 -0.005667 -0.000245
-7.855650 -2.521551 1.159763
-7.691545 -2.466037 1.327231
-8.613173 -2.759189 1.704287
-2.642480 -0.846332 -1.644550
-2.745185 -0.877935 -1.618429
-2.839303 -0.907299 -1.583990
-2.976355 -0.949697 -1.567724
-3.100199 -0.987772 -1.539307
-3.267706 -1.040227 -1.526033
-3.406547 -1.082860 -1.492302
-3.597374 -1.141827 -1.473071
-3.777962 -1.198137 -1.441869
-4.008061 -1.269223 -1.419931
-4.246677 -1.342824 -1.389159
-4.436075 -1.401605 -1.333388
-4.684528 -1.478003 -1.285338
-5.024108 -1.583764 -1.247591
-5.446655 -1.714404 -1.213140
-5.915259 -1.859166 -1.167667
-6.481044 -2.066297 -1.117012
-7.127262 -2.270383 -1.050656
-8.332901 -2.650310 -1.020350
-8.669270 -2.753727 -0.847963
-8.631015 -2.739939 -0.632601
0.000159 -0.005567 -0.000241
-9.522934 -3.015166 -0.231289
-16.750223 -5.296035 0.001212
-16.696051 -5.272499 0.407675
-16.682312 -5.261765 0.816882
-16.685398 -5.259516 1.224457
-16.725887 -5.265862 1.637036
-9.564664 -3.009994 1.173014
-7.834099 -2.464903 1.154462
-7.647222 -2.403287 1.317166
-8.608736 -2.701468 1.700202
-2.639076 -0.828427 -1.639449
-2.746820 -0.860982 -1.616471
-2.844435 -0.890837 -1.583992
-2.974927 -0.930307 -1.564134
-3.117722 -0.974088 -1.545297
-3.268386 -1.019651 -1.523594
-3.428547 -1.068047 -1.499241
-3.614335 -1.124927 -1.477437
-3.790143 -1.177927 -1.443924
-4.024089 -1.249530 -1.423135
-4.286917 -1.329122 -1.399883
-4.453211 -1.378773 -1.336148
-4.692679 -1.451714 -1.285342
-5.027517 -1.552995 -1.246213
-5.452372 -1.682706 -1.212314
-5.921779 -1.824831 -1.166932
-6.479613 -2.024724 -1.114750
-7.134512 -2.227429 -1.049829
-8.349891 -2.602763 -1.020592
-8.610784 -2.680610 -0.840734
-8.656154 -2.693037 -0.633308
-9.327130 -2.897776 -0.454842
0.000137 -0.005447 -0.000235
-16.805269 -5.207053 0.001191
-16.800613 -5.199181 0.409468
-16.801121 -5.196135 0.821244
-16.810713 -5.192643 1.231417
-9.160493 -2.830319 0.894906
-9.577498 -2.955260 1.172537
-7.821636 -2.411488 1.150554
-7.686893 -2.368572 1.321698
-8.599234 -2.645749 1.695375
-2.630466 -0.809551 -1.631289
-2.748236 -0.844490 -1.614511
-2.854404 -0.876379 -1.586808
-2.974904 -0.912017 -1.561444
-3.124979 -0.956536 -1.546153
-3.282919 -1.003356 -1.527661
-3.429145 -1.047157 -1.496929
-3.613597 -1.101816 -1.474529
-3.802237 -1.157607 -1.445977
-4.013053 -1.220733 -1.416736
-4.288981 -1.302650 -1.398099
-4.459214 -1.352434 -1.335599
-4.695384 -1.422875 -1.283826
-5.034490 -1.523342 -1.245756
-5.458480 -1.649091 -1.211487
-5.932454 -1.789568 -1.166938
-6.477581 -1.984362 -1.112488
-7.141494 -2.184479 -1.049004
-8.349074 -2.551344 -1.018746
0.000139 -0.005346 -0.000231
0.000139 -0.005346 -0.000231
-9.444433 -2.876348 -0.459785
-16.893705 -5.134348 -0.408731
-16.882795 -5.124591 0.001171
-16.886765 -5.122570 0.410842
-16.901499 -5.120590 0.824674
-16.914785 -5.118156 1.236839
0.000139 -0.005346 -0.000231
-8.076707 -2.442097 0.987022
-10.129893 -3.057669 1.487534
0.000139 -0.005346 -0.000231
-8.619954 -2.597770 1.696477
-2.638480 -0.794814 -1.633329
-2.756488 -0.829076 -1.616472
-2.856138 -0.858311 -1.584931
-2.971684 -0.891678 -1.556957
-3.128834 -0.937360 -1.545298
-3.246567 -0.971828 -1.508143
-3.422879 -1.023008 -1.491535
-3.603958 -1.075485 -1.467985
-3.819615 -1.138795 -1.450082
-4.032925 -1.200554 -1.421219
-4.296603 -1.277072 -1.398102
-4.466892 -1.326631 -1.335603
-4.701840 -1.394347 -1.283324
-5.048748 -1.495872 -1.247143
-5.460343 -1.615313 -1.209830
-5.936984 -1.753593 -1.165833
-6.485428 -1.944654 -1.111846
-7.148252 -2.141493 -1.048175
-8.337381 -2.493706 -1.015511
-8.516987 -2.544064 -0.828688
-9.067041 -2.706299 -0.661061
-9.154924 -2.728997 -0.444914
-16.996683 -5.055547 -0.410513
-17.040457 -5.065315 0.001157
-26.353905 -7.820868 0.640115
-26.285267 -7.790520 1.280341
-26.256784 -7.777083 1.916719
-9.196710 -2.723950 0.895254
0.000141 -0.005246 -0.000226
-8.557376 -2.530080 1.254417
0.000141 -0.005246 -0.000226
-8.976446 -2.646909 1.763519
-2.652888 -0.782405 -1.639450
-2.766215 -0.814547 -1.619410
-2.850844 -0.838760 -1.579298
-2.976744 -0.874436 -1.556957
-3.123734 -0.916185 -1.540166
-3.260854 -0.955567 -1.512211
-3.414514 -0.999038 -1.485371
-3.599327 -1.051483 -1.463623
-3.842318 -1.121397 -1.456240
-4.056126 -1.181949 -1.426981
-4.289181 -1.247959 -1.393341
-4.479976 -1.302378 -1.337259
-4.706041 -1.366069 -1.282315
-5.044173 -1.462875 -1.243919
-5.469530 -1.583735 -1.209835
-5.937500 -1.716556 -1.163989
-6.485128 -1.903839 -1.109908
-7.147130 -2.096293 -1.046236
-8.364940 -2.449429 -1.017142
-9.242593 -2.702393 -0.897754
0.000143 -0.005145 -0.000222
-9.095643 -2.654343 -0.441298
-17.662888 -5.142881 -0.425899
-17.603214 -5.122189 0.001175
-26.308245 -7.642647 0.637887
-26.275944 -7.623327 1.277688
-26.253212 -7.611752 1.913187
0.000143 -0.005145 -0.000222
-9.637068 -2.790124 1.173664
-8.649796 -2.503174 1.265825
-8.695942 -2.513220 1.487436
-8.759225 -2.528150 1.717943
-2.645756 -0.763676 -1.632308
-2.767486 -0.797527 -1.617451
-2.860678 -0.823689 -1.582116
-2.988567 -0.859145 -1.560548
-3.127186 -0.897581 -1.539312
-3.269795 -0.937657 -1.513838
-3.405984 -0.975205 -1.479206
-3.592752 -1.027063 -1.458533
-3.859553 -1.102208 -1.460344
-4.055546 -1.156396 -1.424423
-4.290758 -1.221562 -1.391556
-4.485507 -1.275936 -1.336712
-4.710079 -1.337784 -1.281306
-5.048737 -1.432635 -1.243002
-5.469121 -1.549442 -1.207761
-5.937808 -1.679552 -1.162143
-6.494056 -1.865810 -1.109591
-7.147621 -2.051726 -1.044575
-8.354046 -2.394009 -1.014139
0.000147 -0.005042 -0.000218
-10.501913 -3.002283 -0.763098
-9.076191 -2.591933 -0.439633
0.000147 -0.005042 -0.000218
-17.511209 -4.986143 0.001140
-26.321024 -7.482164 0.637101
-26.282867 -7.461412 1.275874
-26.260124 -7.449986 1.910493
-9.305976 -2.639878 0.902855
-9.652958 -2.734466 1.173652
0.000147 -0.005042 -0.000218
-8.763451 -2.477984 1.496510
-8.762280 -2.474348 1.715711
-2.656701 -0.750185 -1.636389
-2.783744 -0.784776 -1.624309
-2.865351 -0.807090 -1.582115
-2.990003 -0.840841 -1.558753
-3.128804 -0.878466 -1.537601
-3.280389 -0.920184 -1.516279
-3.423954 -0.958940 -1.484603
-3.618325 -1.011739 -1.466535
-3.849509 -1.075329 -1.454191
-4.082174 -1.138504 -1.431468
-4.303228 -1.198247 -1.393345
-4.459420 -1.240721 -1.326794
-4.717689 -1.310517 -1.281308
-5.054995 -1.402916 -1.242545
-5.477919 -1.517816 -1.207766
-5.941665 -1.643662 -1.161039
-6.495164 -1.825611 -1.107977
-7.151661 -2.008289 -1.043470
-8.381041 -2.349513 -1.015773
-8.711095 -2.438558 -0.843384
0.000126 -0.004922 -0.000212
-9.262203 -2.587277 -0.447924
0.000126 -0.004922 -0.000212
-17.593557 -4.900119 0.001118
-26.350157 -7.326611 0.636734
-17.922396 -4.978127 0.868526
-17.893225 -4.966676 1.299586
-9.351724 -2.594622 0.905820
-9.670432 -2.679255 1.173872
0.000126 -0.004922 -0.000212
-8.756609 -2.421605 1.492930
-8.766871 -2.421139 1.713847
-2.642700 -0.729760 -1.625168
-2.774744 -0.764935 -1.616472
-2.869927 -0.790466 -1.582116
-2.993033 -0.823039 -1.557857
-3.107611 -0.853196 -1.524769
-3.271651 -0.896759 -1.509774
-3.445402 -0.943478 -1.491542
-3.600703 -0.984412 -1.457080
-3.868486 -1.055815 -1.458980
-4.068543 -1.109394 -1.424428
-4.310021 -1.173345 -1.393348
-4.485219 -1.219168 -1.332309
-4.719523 -1.281711 -1.279793
-5.063194 -1.372798 -1.242550
-5.481140 -1.483647 -1.206523
-5.943711 -1.606210 -1.159562
-6.503636 -1.787548 -1.107659
-7.157693 -1.964140 -1.042643
-8.359936 -2.291648 -1.011608
-9.224439 -2.524667 -0.891660
0.000128 -0.004822 -0.000208
-9.242241 -2.524321 -0.446260
-9.466720 -2.581980 -0.227300
-17.680185 -4.811278 0.001097
-26.332085 -7.158379 0.635251
-26.303385 -7.140728 1.272715
-26.283762 -7.125533 1.905944
0.000128 -0.004822 -0.000208
-9.683758 -2.622897 1.173628
-9.948315 -2.690679 1.448761
0.000128 -0.004822 -0.000208
-8.759772 -2.364881 1.709762
-2.650271 -0.714857 -1.627209
-2.777518 -0.747900 -1.615493
-2.867721 -0.771488 -1.578360
-2.961581 -0.795468 -1.539014
-3.137051 -0.841152 -1.536747
-3.287336 -0.880612 -1.514654
-3.450935 -0.922894 -1.491541
-3.570438 -0.953362 -1.442535
-3.879922 -1.034861 -1.461034
-4.091503 -1.089501 -1.430192
-4.305800 -1.144716 -1.389778
-4.494015 -1.193691 -1.332862
-4.717670 -1.251101 -1.277264
-5.072870 -1.344010 -1.243015
-5.480110 -1.449456 -1.204449
-5.947127 -1.570354 -1.158458
-6.500766 -1.745242 -1.105396
-7.149726 -1.917662 -1.039868
-8.386787 -2.245494 -1.013241
-9.233448 -2.468250 -0.891115
0.000130 -0.004721 -0.000204
-9.500271 -2.534106 -0.457993
0.000130 -0.004721 -0.000204
-17.765556 -4.724689 0.001075
-26.323824 -6.988570 0.634001
-26.206226 -6.947584 1.265957
-26.148836 -6.927473 1.893196
-9.481485 -2.511359 0.915465
-9.702967 -2.566303 1.174081
-8.914203 -2.356392 1.296140
-15.805338 -4.168417 2.686299
-8.758427 -2.308752 1.706788
-2.659311 -0.700780 -1.630269
-2.781754 -0.731783 -1.615493
-2.878928 -0.756636 -1.582115
-3.004129 -0.788225 -1.558755
-3.129579 -0.819770 -1.530759
-3.290570 -0.861090 -1.513841
-3.452583 -0.901978 -1.490002
-3.556014 -0.927524 -1.434536
-3.882145 -1.011456 -1.459669
-4.108671 -1.068676 -1.434036
-4.327075 -1.123624 -1.394546
-4.497064 -1.166725 -1.331763
-4.721024 -1.222838 -1.276255
-5.080505 -1.314659 -1.243019
-5.486451 -1.417277 -1.204038
-5.954145 -1.535482 -1.158093
-6.503031 -1.705685 -1.104107
-7.164447 -1.877363 -1.040433
-8.351507 -2.184505 -1.007455
-9.226275 -2.409413 -0.889085
-9.392852 -2.451063 -0.678270
-9.497278 -2.474724 -0.457168
0.000132 -0.004620 -0.000200
-17.856333 -4.638772 0.001054
-26.195206 -6.793125 0.629910
-15.892467 -4.117256 0.766468
-9.539971 -2.471577 0.689526
-15.814133 -4.088130 1.524710
-9.727187 -2.512753 1.175231
0.000132 -0.004620 -0.000200
-15.775523 -4.063471 2.677193
0.000132 -0.004620 -0.000200
-2.658284 -0.684063 -1.627208
-2.792659 -0.717370 -1.619411
-2.878073 -0.738635 -1.579300
-3.013775 -0.772139 -1.561449
-3.135954 -0.802089 -1.531616
-3.258261 -0.832569 -1.496762
-3.459491 -0.882419 -1.490773
-3.561263 -0.906926 -1.434537
-3.875120 -0.985751 -1.454884
-4.079836 -1.036060 -1.421876
-4.339008 -1.099975 -1.396335
-4.481295 -1.135073 -1.325153
-4.729832 -1.196002 -1.276765
-5.080426 -1.283369 -1.241178
-5.486905 -1.383641 -1.202380
-5.955241 -1.499143 -1.156617
-6.503175 -1.665647 -1.102492
-7.173203 -1.835469 -1.040162
-8.375474 -2.139210 -1.008855
-9.353857 -2.385093 -0.900048
-9.613688 -2.449433 -0.693194
-9.453258 -2.405129 -0.454388
0.000134 -0.004520 -0.000196
0.000134 -0.004520 -0.000196
-15.873260 -4.020667 0.381039
-15.855866 -4.010373 0.763555
-15.869922 -4.010975 1.145456
0.000134 -0.004520 -0.000196
-9.745322 -2.457560 1.175684
-9.926023 -2.501184 1.438978
-15.924992 -4.004158 2.698581
0.000134 -0.004520 -0.000196
-2.667165 -0.669883 -1.630268
-2.789943 -0.699487 -1.615493
-2.875391 -0.720238 -1.575545
-3.004275 -0.751212 -1.554271
-3.138761 -0.783461 -1.530760
-3.273602 -0.816333 -1.501644
-3.451951 -0.859270 -1.485379
-3.615239 -0.898367 -1.454177
-3.866127 -0.959693 -1.449414
-4.105956 -1.017428 -1.428918
-4.330418 -1.071209 -1.391573
-4.510137 -1.114650 -1.331770
-4.725349 -1.165862 -1.273730
-5.083921 -1.253060 -1.240260
-5.487162 -1.350050 -1.200722
-5.958020 -1.463319 -1.155512
-6.512634 -1.628062 -1.102499
-7.164414 -1.789234 -1.037387
-8.364491 -2.085086 -1.006083
-9.380918 -2.334457 -0.901360
-9.470753 -2.355002 -0.681916
-9.428156 -2.340922 -0.452538
0.000112 -0.004400 -0.000190
0.000112 -0.004400 -0.000190
0.000112 -0.004400 -0.000190
-16.008642 -3.950924 0.769784
-16.026405 -3.952338 1.155069
-9.709018 -2.392532 0.933278
-9.761233 -2.401753 1.175906
-9.922923 -2.439633 1.436459
-16.089615 -3.947037 2.722562
0.000112 -0.004400 -0.000190
-2.660915 -0.651976 -1.624148
-2.773559 -0.678367 -1.603739
-2.886323 -0.705235 -1.579301
-3.010259 -0.734216 -1.555169
-3.144950 -0.765693 -1.531616
-3.287254 -0.798926 -1.505711
-3.438866 -0.834950 -1.477674
-3.645668 -0.883553 -1.464363
-3.868077 -0.935745 -1.448047
-4.082242 -0.986568 -1.418679
-4.347620 -1.048828 -1.395150
-4.525995 -1.090008 -1.334529
-4.728185 -1.137634 -1.272721
-5.089357 -1.222304 -1.239803
-5.489318 -1.316014 -1.199481
-5.960840 -1.426465 -1.154407
-6.510371 -1.587624 -1.100560
-7.172948 -1.746124 -1.037117
-8.387912 -2.039593 -1.007484
-8.910354 -2.163056 -0.854956
-9.788990 -2.372308 -0.703812
-9.422038 -2.281787 -0.451619
0.000114 -0.004300 -0.000185
-16.100985 -3.884301 0.000860
-16.136173 -3.889800 0.386207
-16.176773 -3.893602 0.776757
-16.146544 -3.880358 1.162028
0.000114 -0.004300 -0.000185
-9.850214 -2.363445 1.184958
-10.043142 -2.405944 1.451762
-17.633011 -4.214391 2.979436
-17.239971 -4.117368 3.340335
-2.666400 -0.636455 -1.625167
-2.780904 -0.662597 -1.605698
-2.887005 -0.687168 -1.577423
-3.009337 -0.714988 -1.552476
-3.126399 -0.742074 -1.520496
-3.286436 -0.778623 -1.503272
-3.456311 -0.817383 -1.483070
-3.641607 -0.860302 -1.460727
-3.844095 -0.906485 -1.437107
-4.102594 -0.966396 -1.423802
-4.364724 -1.026274 -1.398726
-4.547149 -1.067319 -1.338941
-4.734634 -1.110279 -1.272725
-5.090595 -1.191551 -1.238424
-5.488946 -1.283452 -1.197822
-5.970595 -1.393502 -1.154783
-6.513886 -1.547499 -1.099595
-7.177075 -1.703313 -1.036290
-8.481043 -2.008865 -1.017230
-8.628407 -2.040520 -0.826746
0.000116 -0.004199 -0.000181
0.000116 -0.004199 -0.000181
0.000116 -0.004199 -0.000181
-26.229986 -6.165445 0.001476
-26.199722 -6.148684 0.626261
-26.185221 -6.140435 1.255685
-26.173277 -6.128006 1.881129
-26.118956 -6.110478 2.503976
0.000116 -0.004199 -0.000181
0.000116 -0.004199 -0.000181
0.000116 -0.004199 -0.000181
-17.812815 -4.145633 3.446624
-2.678263 -0.623388 -1.630268
-2.786243 -0.647338 -1.606678
-2.890896 -0.670419 -1.577423
-3.020213 -0.699683 -1.556067
-3.146457 -0.727592 -1.528196
-3.324664 -0.767358 -1.518728
-3.469933 -0.799416 -1.486925
-3.639206 -0.837554 -1.457820
-3.834564 -0.880879 -1.431638
-4.098984 -0.939833 -1.420605
-4.363263 -0.998557 -1.396346
-4.549452 -1.040150 -1.337841
-4.739235 -1.081624 -1.272221
-5.091850 -1.159933 -1.237046
-5.496673 -1.249785 -1.197826
-5.967229 -1.355341 -1.152568
-6.508940 -1.507888 -1.097333
-7.179037 -1.660058 -1.035183
-8.354656 -1.929701 -1.000780
-8.598904 -1.982810 -0.822856
-9.555062 -2.199328 -0.685156
-9.523962 -2.188682 -0.455271
-26.287088 -6.028883 -0.624696
-26.233831 -6.007047 0.001434
-26.215183 -5.993139 0.625757
-26.174408 -5.974203 1.253406
-26.173109 -5.969084 1.878577
-26.123669 -5.948221 2.500963
-18.317053 -4.165196 2.197589
-18.698408 -4.244955 2.695641
-18.119192 -4.110255 3.053341
-17.672230 -4.002460 3.414743
-2.675293 -0.605396 -1.626187
-2.795233 -0.631338 -1.609616
-2.889626 -0.651993 -1.574607
-3.013939 -0.678772 -1.550683
-3.147164 -0.708015 -1.526486
-3.323797 -0.746305 -1.516288
-3.456572 -0.774696 -1.479220
-3.640471 -0.815014 -1.456365
-3.858045 -0.862085 -1.438479
-4.107999 -0.916930 -1.421888
-4.354015 -0.969994 -1.391583
-4.538637 -1.009282 -1.332883
-4.743473 -1.053789 -1.271718
-5.090837 -1.128794 -1.235205
-5.493992 -1.216857 -1.195752
-5.974920 -1.320841 -1.152573
-6.518012 -1.467992 -1.097338
-7.179083 -1.615148 -1.033799
-8.389537 -1.883730 -1.003571
-8.762398 -1.964066 -0.837349
0.000120 -0.003998 -0.000173
0.000120 -0.003998 -0.000173
0.000120 -0.003998 -0.000173
-26.243624 -5.845520 0.001394
-26.228800 -5.832602 0.625206
-26.190807 -5.819365 1.252528
-26.171032 -5.805373 1.875885
-26.120531 -5.789392 2.497391
-26.145670 -5.785368 3.132810
-26.073488 -5.759863 3.754046
-18.007641 -3.975980 3.030610
-25.161484 -5.544679 4.855646
-2.683652 -0.591444 -1.629247
-2.793576 -0.614503 -1.606678
-2.900100 -0.637250 -1.578363
-3.026405 -0.663719 -1.555169
-3.149279 -0.689940 -1.525631
-3.318975 -0.725677 -1.512221
-3.462642 -0.755655 -1.479990
-3.650384 -0.795769 -1.458550
-3.859106 -0.839624 -1.437113
-4.118590 -0.895069 -1.423810
-4.357465 -0.945162 -1.390991
-4.562959 -0.987882 -1.338399
-4.736020 -1.024327 -1.268177
-5.106549 -1.102287 -1.237514
-5.506417 -1.187282 -1.197004
-5.978336 -1.286526 -1.151838
-6.524164 -1.431038 -1.097020
-7.191819 -1.575789 -1.034364
-8.407663 -1.838440 -1.004508
-8.703156 -1.899742 -0.830675
-9.388667 -2.047337 -0.671518
-9.226380 -2.008633 -0.439939
0.000098 -0.003878 -0.000167
-26.258242 -5.694961 0.001354
-26.219915 -5.677045 0.624191
-26.189690 -5.665728 1.250904
-26.164036 -5.650601 1.873055
-26.129101 -5.638276 2.495124
-26.121246 -5.627036 3.126032
-26.091694 -5.611140 3.752059
-25.165007 -5.407382 4.230042
-17.960522 -3.853853 3.461736
-2.681941 -0.574798 -1.626187
-2.788528 -0.596474 -1.601779
-2.910602 -0.621901 -1.582119
-3.038881 -0.648037 -1.559657
-3.149764 -0.670379 -1.523920
-3.330342 -0.707380 -1.515476
-3.477731 -0.737893 -1.484617
-3.656846 -0.774369 -1.459279
-3.869512 -0.817764 -1.439167
-4.121970 -0.870103 -1.423171
-4.361127 -0.918775 -1.390397
-4.568737 -0.960665 -1.338401
-4.743885 -0.996497 -1.268687
-5.107260 -1.070671 -1.236135
-5.511621 -1.153127 -1.196593
-5.982202 -1.249086 -1.151104
-6.534196 -1.393752 -1.097351
-7.191346 -1.530915 -1.032979
-8.385048 -1.782881 -1.000576
-8.634059 -1.832561 -0.823072
0.000102 -0.003775 -0.000163
-9.218208 -1.951238 -0.439020
-9.183379 -1.940520 -0.217550
-26.254379 -5.531112 0.001313
-26.230633 -5.521316 0.623640
-26.199373 -5.505191 1.249745
-26.175587 -5.490662 1.871478
-26.129892 -5.471542 2.491924
-26.132774 -5.467366 3.123436
-26.081865 -5.447217 3.745894
-25.155039 -5.244618 4.222868
-25.117811 -5.232283 4.835198
-2.683596 -0.558421 -1.625167
-2.800528 -0.581581 -1.606678
-2.902122 -0.602009 -1.575547
-3.030419 -0.627352 -1.553375
-3.144701 -0.650303 -1.519643
-3.336120 -0.688459 -1.516291
-3.472993 -0.715284 -1.480764
-3.642970 -0.749453 -1.452007
-3.855729 -0.791596 -1.432329
-4.113900 -0.843591 -1.418692
-4.360698 -0.892405 -1.388613
-4.585472 -0.936538 -1.341711
-4.743847 -0.967889 -1.267170
-5.107603 -1.039971 -1.234756
-5.516047 -1.121828 -1.196181
-5.985222 -1.214764 -1.150368
-6.530741 -1.352449 -1.095412
-7.200015 -1.489377 -1.032987
-8.370183 -1.727764 -0.997570
-8.691588 -1.790806 -0.827537
0.000104 -0.003674 -0.000159
-9.194386 -1.889170 -0.437355
0.000104 -0.003674 -0.000159
-26.252457 -5.372913 0.001272
-26.219795 -5.356692 0.622576
-26.191479 -5.346124 1.247842
-26.179392 -5.334146 1.869485
-26.134651 -5.320276 2.489468
-26.146271 -5.313130 3.121305
-26.081734 -5.290522 3.741400
-25.129772 -5.092980 4.213750
-25.095509 -5.076917 4.825161
-2.679899 -0.541973 -1.621087
-2.795175 -0.564101 -1.601779
-2.895017 -0.583616 -1.569915
-3.030327 -0.609630 -1.551583
-3.148362 -0.632082 -1.519644
-3.345388 -0.670196 -1.518732
-3.460621 -0.692530 -1.473829
-3.656349 -0.730165 -1.455645
-3.862051 -0.769630 -1.433014
-4.114952 -0.819044 -1.417414
-4.384480 -0.870872 -1.394572
-4.583209 -0.908531 -1.339510
-4.756908 -0.941950 -1.269199
-5.113489 -1.010429 -1.234759
-5.516810 -1.087854 -1.194940
-5.992292 -1.179135 -1.150374
-6.532353 -1.314697 -1.094447
-7.208468 -1.447766 -1.032993
-8.342661 -1.673489 -0.993175
-8.787348 -1.759308 -0.835717
-9.223326 -1.843066 -0.657331
-9.079375 -1.812709 -0.431410
-9.430604 -1.879261 -0.222897
-26.261383 -5.217236 0.001233
-26.235559 -5.207351 0.622213
-26.202213 -5.191216 1.246870
-26.188133 -5.178930 1.867911
-26.142307 -5.160374 2.487200
-26.145245 -5.156210 3.117549
-26.103975 -5.138602 3.740248
-25.105303 -4.933044 4.204631
-25.079950 -4.923509 4.816604
-2.686413 -0.526622 -1.623128
-2.793308 -0.546411 -1.598841
-2.905353 -0.567664 -1.573670
-3.032137 -0.591174 -1.550684
-3.137848 -0.610532 -1.512800
-3.333028 -0.647691 -1.511412
-3.473702 -0.673634 -1.477684
-3.673409 -0.710811 -1.460737
-3.860859 -0.746211 -1.430964
-4.108552 -0.792366 -1.413576
-4.387670 -0.844382 -1.393980
-4.594023 -0.883088 -1.341166
-4.756687 -0.912519 -1.267684
-5.107716 -0.978682 -1.231998
-5.521052 -1.055586 -1.194528
-5.998973 -1.144492 -1.150378
-6.536154 -1.275051 -1.093804
-7.206927 -1.404249 -1.031611
-8.352436 -1.623847 -0.993183
-8.762415 -1.700226 -0.832385
-8.998714 -1.744340 -0.640612
-9.209617 -1.781799 -0.437097
0.000084 -0.003454 -0.000149
-26.267393 -5.061275 0.001193
-26.232605 -5.045068 0.621384
-26.216848 -5.032534 1.246086
-26.184212 -5.021533 1.865500
-26.148092 -5.005152 2.484930
-26.150009 -4.996033 3.114490
-26.111721 -4.984006 3.737147
-15.579342 -2.969428 2.606247
-25.066250 -4.766423 4.808420
-2.692772 -0.511667 -1.625167
-2.796387 -0.530213 -1.598841
-2.910279 -0.551149 -1.574609
-3.042494 -0.574918 -1.554274
-3.144733 -0.593564 -1.514512
-3.336684 -0.628379 -1.511413
-3.479331 -0.653838 -1.478455
-3.644331 -0.684030 -1.447646
-3.887238 -0.727994 -1.439174
-4.118474 -0.770350 -1.415499
-4.405430 -0.822207 -1.398152
-4.604690 -0.857557 -1.342822
-4.754089 -0.884417 -1.265661
-5.113254 -0.949144 -1.232002
-5.524921 -1.024275 -1.194117
-6.001392 -1.110149 -1.149643
-6.541419 -1.236925 -1.093487
-7.218784 -1.363338 -1.032174
-8.336243 -1.570844 -0.990179
-8.638956 -1.624649 -0.819768
0.000086 -0.003353 -0.000145
-8.823036 -1.654392 -0.418307
0.000086 -0.003353 -0.000145
-26.284304 -4.907603 0.001155
-26.237614 -4.889417 0.620787
-26.215055 -4.880474 1.244648
-26.195019 -4.867277 1.864205
-26.152142 -4.854581 2.482662
-26.175528 -4.849466 3.114219
0.000086 -0.003353 -0.000145
0.000086 -0.003353 -0.000145
-10.104959 -1.865062 1.936304
-2.688806 -0.495272 -1.621086
-2.792431 -0.513225 -1.594922
-2.918512 -0.535731 -1.577426
-3.035071 -0.555905 -1.548892
-3.155200 -0.576627 -1.517935
-3.340239 -0.609040 -1.511413
-3.481086 -0.633970 -1.477686
-3.628032 -0.659273 -1.439646
-3.869149 -0.701488 -1.430969
-4.094852 -0.741469 -1.405899
-4.410077 -0.796713 -1.398154
-4.620870 -0.832975 -1.346134
-4.743847 -0.854188 -1.261613
-5.109046 -0.917854 -1.229700
-5.525095 -0.990345 -1.192874
-6.003993 -1.073722 -1.148907
-6.540447 -1.198846 -1.092196
-7.218706 -1.320215 -1.031068
-8.337035 -1.522748 -0.989262
-8.834017 -1.610116 -0.837417
-9.104550 -1.656040 -0.646766
-8.804585 -1.600006 -0.417014
0.000088 -0.003253 -0.000140
-26.294392 -4.752851 0.001115
-15.237634 -2.752896 0.360077
0.000088 -0.003253 -0.000140
0.000088 -0.003253 -0.000140
0.000088 -0.003253 -0.000140
0.000088 -0.003253 -0.000140
-15.140465 -2.710799 2.162219
-15.150087 -2.707062 2.529013
0.000088 -0.003253 -0.000140
-2.691677 -0.479205 -1.621086
-2.790254 -0.495634 -1.591984
-2.904232 -0.515227 -1.568037
-3.041837 -0.538385 -1.550686
-3.142519 -0.554981 -1.510235
-3.331059 -0.587492 -1.505722
-3.486585 -0.613518 -1.478458
-3.642875 -0.639550 -1.444011
-3.891628 -0.682315 -1.437809
-4.097286 -0.716736 -1.405262
-4.412846 -0.770084 -1.397560
-4.631276 -0.807213 -1.347788
-4.748824 -0.825911 -1.261615
