# This PCD file was generated using the MATLAB® pcwrite function
# from Computer Vision Toolbox®.
# .PCD v.7 - Point Cloud Data file format
VERSION .7
FIELDS x y z
SIZE 4 4 4
TYPE F F F
COUNT 1 1 1
WIDTH 1644
HEIGHT 1
VIEWPOINT 0 0 0 1 0 0 0
POINTS 1644
DATA ascii
-3.292758 5.964763 -0.001492
-9.228342 16.893593 0.451455
-9.536490 17.476522 0.935178
-8.867188 16.251633 1.302845
0.002973 -0.094982 -0.003743
0.002973 -0.094982 -0.003743
-3.361219 6.119032 0.991687
-3.359177 6.120877 1.159652
-3.586821 6.547772 1.421406
-0.274218 0.418342 -0.349393
-0.285219 0.439220 -0.344472
-0.306392 0.478749 -0.349999
-0.342997 0.547215 -0.369640
-0.439253 0.726599 -0.444961
-1.867226 3.381017 -1.759578
-1.973825 3.582514 -1.746058
-2.094305 3.810222 -1.732994
-2.197257 4.003953 -1.695254
-2.191265 3.996537 -1.570833
-2.318230 4.237245 -1.535635
-2.476925 4.535706 -1.508151
-2.636107 4.837455 -1.466263
-2.831318 5.204910 -1.425766
-3.039551 5.599479 -1.373912
-3.272768 6.041569 -1.312046
-3.261320 5.959359 -1.131507
-3.247188 5.936099 -0.964337
-3.246178 5.939709 -0.801784
-3.296136 6.038051 -0.651194
-3.285051 6.020428 -0.487022
-3.262586 5.984148 -0.323331
-3.254429 5.974457 -0.161462
-3.246488 5.962615 -0.001545
-9.287148 17.239119 0.459127
-9.455909 17.570026 0.937098
-9.327421 17.338608 1.385257
0.002951 -0.094863 -0.003737
-9.365363 17.441370 2.327667
0.002951 -0.094863 -0.003737
-3.321472 6.136760 1.158953
0.002951 -0.094863 -0.003737
-0.272062 0.421545 -0.350413
-0.277242 0.431753 -0.338596
-0.304750 0.483745 -0.351876
-0.340148 0.550886 -0.370537
-0.432818 0.726037 -0.443253
-1.845470 3.388597 -1.757976
-1.952615 3.593933 -1.746084
-2.078762 3.835501 -1.738837
-2.199116 4.064821 -1.715105
-2.181845 4.036003 -1.581097
-2.293234 4.250630 -1.535667
-2.462782 4.573803 -1.515896
-2.633846 4.902290 -1.480972
-2.803467 5.226394 -1.427189
-3.038640 5.677591 -1.388487
-3.228228 6.043039 -1.308396
-3.483064 6.460835 -1.221198
0.002953 -0.094762 -0.003734
0.002953 -0.094762 -0.003734
-3.295297 6.122133 -0.658093
-3.283453 6.102834 -0.492068
-3.261204 6.066517 -0.326709
-3.246553 6.044467 -0.162837
-3.229313 6.014911 -0.001581
-9.283428 17.474514 0.463832
-9.539673 17.975857 0.955616
-9.270656 17.475084 1.391701
-9.362514 17.665384 1.875747
-9.288299 17.540834 2.333579
-3.437098 6.437972 1.036225
-3.263499 6.114004 1.151110
-3.316253 6.220106 1.342670
-0.265893 0.417132 -0.346334
-0.278248 0.441170 -0.343493
-0.303066 0.488745 -0.353753
-0.339752 0.559292 -0.374125
-0.429751 0.731830 -0.444967
-1.827923 3.404137 -1.760440
-1.930483 3.603590 -1.745341
-2.055221 3.845856 -1.738140
0.002956 -0.094661 -0.003730
-2.192197 4.114137 -1.606074
-2.272609 4.272359 -1.538674
-2.433186 4.582896 -1.514279
-2.607719 4.922649 -1.482526
-2.779967 5.256381 -1.430913
-3.008957 5.702048 -1.390192
-3.204593 6.084310 -1.313250
-3.242696 6.094619 -1.149725
-3.228092 6.069816 -0.979705
-3.220705 6.061403 -0.812982
-3.295460 6.209953 -0.665362
-3.284671 6.192461 -0.497673
-3.264523 6.159683 -0.330645
-3.249070 6.135847 -0.164763
-3.232011 6.106229 -0.001603
-9.252338 17.662552 0.467262
-9.429013 18.018229 0.954814
-9.197882 17.583170 1.395902
-9.228868 17.659079 1.869266
-9.098689 17.424934 2.311076
-3.353785 6.369893 1.022226
-3.230414 6.138072 1.152036
-3.194836 6.075210 1.307757
-0.262947 0.418777 -0.346334
-0.272775 0.438250 -0.340554
-0.297272 0.485896 -0.350938
-0.331039 0.551815 -0.368747
-0.423332 0.731198 -0.443259
-1.805452 3.411782 -1.758840
-1.910016 3.616408 -1.746136
-2.033355 3.859399 -1.738894
-2.161499 4.112188 -1.724053
-2.190441 4.170605 -1.622737
-2.251768 4.293965 -1.541683
-2.402766 4.592240 -1.512662
-2.580544 4.941134 -1.483576
-2.751725 5.279826 -1.432797
-2.996807 5.763447 -1.400618
-3.203702 6.173335 -1.328086
-3.231478 6.160636 -1.158511
-3.201449 6.108321 -0.982810
-3.178837 6.067617 -0.811408
-3.298346 6.305031 -0.673374
-3.287535 6.289997 -0.503835
-3.261393 6.242436 -0.334025
-3.246097 6.218588 -0.166460
-3.230845 6.194795 -0.001628
-9.251382 17.913061 0.472337
0.002958 -0.094561 -0.003726
-9.284988 18.012125 1.425316
-9.159707 17.784540 1.876572
0.002958 -0.094561 -0.003726
-3.193583 6.151802 0.984520
-3.216749 6.202948 1.160432
-3.133325 6.042882 1.296954
-0.263804 0.428106 -0.351433
-0.268814 0.438426 -0.339575
-0.294612 0.489333 -0.351878
-0.328827 0.557079 -0.370541
-0.420069 0.737040 -0.444972
-1.783575 3.418973 -1.757239
-1.891302 3.634363 -1.749245
-2.003949 3.859868 -1.733836
-2.138945 4.128034 -1.725450
-2.195940 4.244494 -1.645798
-2.229143 4.314174 -1.544097
-2.389621 4.633557 -1.521508
-2.560220 4.975457 -1.489180
-2.733018 5.320012 -1.439285
-2.967417 5.789442 -1.402740
-3.170197 6.197046 -1.329244
-3.271384 6.331052 -1.186394
-3.243885 6.280318 -1.007023
-3.217899 6.235209 -0.830893
-3.295531 6.393847 -0.680647
-3.283258 6.372974 -0.508885
-3.260823 6.334837 -0.337871
-3.245644 6.310956 -0.168391
-3.228934 6.281200 -0.001655
-9.262722 18.201427 0.478344
-11.392077 22.427153 1.180622
-9.129252 17.963945 1.417185
-9.053911 17.831787 1.875868
-3.173698 6.198999 0.822740
-3.162915 6.180821 0.986145
-3.188427 6.237351 1.163307
-3.105697 6.079041 1.300614
-0.258480 0.425133 -0.348373
-0.267313 0.443202 -0.341534
-0.292840 0.494297 -0.353755
-0.320271 0.549502 -0.365160
-0.414476 0.737956 -0.444119
-1.759225 3.421134 -1.753198
-1.864837 3.635401 -1.744650
-1.983641 3.876451 -1.736045
-2.116287 4.143764 -1.726847
-2.200569 4.316518 -1.668218
-2.207141 4.333893 -1.546509
-2.365791 4.654235 -1.523746
-2.542193 5.012734 -1.495796
-2.707861 5.347962 -1.442550
-2.942216 5.824071 -1.406936
-3.134797 6.217079 -1.329661
-3.314059 6.508622 -1.215575
-3.291558 6.467163 -1.033461
-3.277590 6.445522 -0.855931
-4.757033 9.403816 -0.991867
-5.977515 11.845265 -0.933701
0.002938 -0.094341 -0.003716
-3.242685 6.397620 -0.170182
-3.228820 6.373159 -0.001680
-9.423352 18.787691 0.492198
-11.050893 22.068813 1.158227
-11.012668 22.003448 1.729821
-8.944333 17.871286 1.874420
-3.142709 6.227958 0.824089
-3.181416 6.309009 1.003390
-2.999152 5.948229 1.106746
-3.074492 6.105772 1.302423
-0.253960 0.423652 -0.346333
-0.265746 0.447965 -0.343493
-0.286317 0.489769 -0.350002
-0.320510 0.559455 -0.369647
-0.412877 0.746926 -0.447542
-1.738134 3.429675 -1.752410
-1.841687 3.642876 -1.743136
-1.961578 3.889603 -1.736800
-2.092654 4.157661 -1.727562
-2.210271 4.400616 -1.695119
-2.197616 4.379195 -1.557850
-2.336714 4.664447 -1.522679
-2.517006 5.036086 -1.498364
-2.694486 5.400267 -1.452263
-2.911536 5.848063 -1.408641
-3.096662 6.231603 -1.328970
-3.304876 6.586072 -1.226307
-3.780811 7.551187 -1.200191
-4.212798 8.432166 -1.111686
-4.717255 9.461523 -0.995090
-5.937818 11.938643 -0.938380
-7.091927 14.289969 -0.747246
0.002943 -0.094237 -0.003712
-8.923008 18.028891 0.001828
-9.348902 18.911737 0.493878
-11.211292 22.718483 1.188692
0.002943 -0.094237 -0.003712
-3.232175 6.496521 0.683276
-3.129882 6.294243 0.830329
-3.192442 6.425166 1.018680
-2.972106 5.981469 1.109622
-3.055145 6.157043 1.309422
-0.252480 0.428313 -0.348373
-0.261864 0.448042 -0.342514
-0.286052 0.497879 -0.353756
-0.318324 0.564637 -0.371440
-0.404848 0.742902 -0.444125
-1.717808 3.439735 -1.752435
-1.819335 3.651876 -1.742392
-1.941027 3.905954 -1.739011
-2.069798 4.173150 -1.728958
0.002945 -0.094136 -0.003708
-2.198467 4.446864 -1.576931
-2.316817 4.693506 -1.527671
-2.479831 5.034935 -1.493848
-2.670435 5.431580 -1.456448
-2.891742 5.894787 -1.415746
-3.096937 6.325554 -1.344918
-3.396186 6.871156 -1.274915
-3.756703 7.613896 -1.206639
-4.181031 8.492115 -1.116380
0.002945 -0.094136 -0.003708
-5.893750 12.024788 -0.942505
-7.029072 14.372018 -0.749489
-9.090665 18.631096 -0.481442
-8.927669 18.305006 0.001750
-9.294261 19.078712 0.496684
-11.172072 22.973373 1.198441
-10.606190 21.816641 1.705099
0.002945 -0.094136 -0.003708
-3.091330 6.308718 0.829815
-3.204798 6.546991 1.034805
-3.035708 6.203008 1.146925
-2.985816 6.105616 1.294912
-0.247969 0.426771 -0.346334
-0.258741 0.449664 -0.342514
-0.279565 0.493257 -0.350003
-0.314522 0.566572 -0.371442
-0.403942 0.753489 -0.448403
-1.696637 3.448031 -1.751647
-1.797714 3.662388 -1.742419
-1.919588 3.920551 -1.740492
-2.045167 4.185091 -1.728991
0.002923 -0.094017 -0.003703
0.002923 -0.094017 -0.003703
-2.295003 4.719026 -1.531561
-2.452751 5.054478 -1.495404
-2.641916 5.454000 -1.458332
-2.868135 5.934408 -1.421190
-3.059084 6.341626 -1.344596
-3.376562 6.933413 -1.282736
-3.721704 7.655157 -1.209753
-4.147016 8.548411 -1.120611
-5.042733 10.423976 -1.088981
-5.848002 12.109005 -0.946492
-6.971529 14.466411 -0.752384
-9.099189 18.926727 -0.487789
-8.985535 18.699038 0.001703
-9.297506 19.370190 0.502728
-10.856599 22.655235 1.178395
-10.469529 21.855867 1.703243
-3.024983 6.258535 0.654673
-3.049288 6.315779 0.828370
-3.005671 6.227497 0.982052
-2.923135 6.060109 1.117650
-2.994780 6.216933 1.314520
-0.245706 0.429864 -0.347354
-0.253357 0.446532 -0.339577
-0.276197 0.494991 -0.350003
-0.309184 0.565259 -0.369649
-0.395972 0.749390 -0.444984
-1.678717 3.464757 -1.754924
-1.776059 3.672795 -1.742445
-1.897232 3.933335 -1.741247
-2.019758 4.197276 -1.729021
-2.161375 4.500184 -1.718247
-2.204556 4.596490 -1.619856
-2.265596 4.730933 -1.531046
-2.425541 5.073890 -1.496958
-2.615570 5.483783 -1.462059
-2.844764 5.977988 -1.427468
-3.039197 6.398939 -1.352781
-3.338566 6.958195 -1.283761
-3.678201 7.682585 -1.210647
-4.109059 8.597394 -1.123918
-5.012704 10.517760 -1.095733
-5.800202 12.195918 -0.950622
-6.928507 14.593158 -0.756946
-9.103769 19.221272 -0.494092
-8.976163 18.969278 0.001611
-9.278087 19.620707 0.507688
0.002925 -0.093916 -0.003699
0.002925 -0.093916 -0.003699
-3.000783 6.305339 0.657604
-3.008948 6.326159 0.827390
-2.972300 6.254295 0.983396
-2.945176 6.202595 1.140336
-2.957561 6.232423 1.314102
-0.242590 0.431428 -0.347355
-0.250892 0.449728 -0.340556
-0.273449 0.498342 -0.350942
-0.303758 0.563960 -0.367857
-0.390973 0.751850 -0.444986
-1.658968 3.476133 -1.755761
-1.748220 3.671655 -1.737080
-1.868585 3.934489 -1.736914
-1.995001 4.208936 -1.729052
-2.133280 4.511316 -1.717641
-2.208000 4.677161 -1.643107
-2.240179 4.749231 -1.532734
-2.395643 5.090055 -1.497504
-2.594035 5.521835 -1.468088
-2.810572 5.996160 -1.427928
-3.033874 6.486037 -1.367253
-3.315010 7.017330 -1.290939
-3.654271 7.748612 -1.217654
-4.073378 8.655958 -1.128383
-4.972349 10.596177 -1.100821
-5.755441 12.285322 -0.955026
-6.867350 14.690292 -0.759937
-9.115324 19.547117 -0.501138
-8.952099 19.205818 0.001510
-9.300547 19.976656 0.515315
-10.641128 22.891453 1.183742
-10.945460 23.561293 1.825388
-10.848905 23.375935 2.414994
0.002927 -0.093816 -0.003695
-2.937363 6.275033 0.983907
-2.887383 6.172987 1.131846
-2.933136 6.278545 1.319985
-0.240298 0.434508 -0.348373
-0.247044 0.449712 -0.339576
-0.270760 0.501619 -0.351882
-0.299973 0.565825 -0.367857
-0.392106 0.767336 -0.451832
-1.638381 3.485737 -1.755786
-1.726516 3.681780 -1.737105
-1.845362 3.945298 -1.736942
-1.971753 4.223885 -1.730450
-2.105928 4.521904 -1.717035
-2.210618 4.755918 -1.665762
-2.219445 4.777918 -1.537726
-2.375395 5.125018 -1.503613
-2.569719 5.554507 -1.472735
-2.789251 6.042644 -1.435032
-3.013820 6.542872 -1.375439
-3.279783 7.048973 -1.293258
-3.618982 7.791246 -1.221046
-4.028706 8.692010 -1.130071
-4.926473 10.659139 -1.104424
-5.707311 12.369147 -0.959016
-6.802056 14.773306 -0.762277
-9.125132 19.868515 -0.508092
-8.993781 19.591867 0.001446
-9.248787 20.170074 0.518769
-10.516054 22.968840 1.184403
-10.827278 23.664000 1.828282
0.002929 -0.093715 -0.003691
-10.753183 23.548822 3.039994
-2.915405 6.324425 0.988879
-2.849621 6.186043 1.131150
-2.970298 6.458315 1.353677
-0.238681 0.439144 -0.350412
-0.246780 0.457589 -0.343494
-0.268780 0.506501 -0.353760
-0.300601 0.577436 -0.373239
-0.385655 0.766401 -0.450124
-1.615473 3.490218 -1.753372
-1.704733 3.691758 -1.737132
-1.819002 3.949166 -1.734063
-1.947620 4.236986 -1.731164
-2.082422 4.540979 -1.719627
-2.217089 4.845297 -1.691991
-2.211045 4.834569 -1.551532
-2.351620 5.152829 -1.507700
-2.542712 5.581738 -1.476002
-2.753854 6.058705 -1.435078
-2.990818 6.594321 -1.382514
-3.245937 7.084047 -1.296224
-3.599642 7.869816 -1.229998
-4.019768 8.807498 -1.141944
-4.887408 10.738258 -1.109696
-5.661709 12.460115 -0.963562
-6.769715 14.930743 -0.768417
-9.137270 20.203428 -0.515374
-9.019834 19.953508 0.001371
-9.263947 20.516708 0.526157
-10.374078 23.009096 1.183192
-10.816959 24.008205 1.849790
-10.806074 24.008348 2.466771
-10.769567 23.951309 3.083566
-2.923743 6.442465 1.004445
-2.825490 6.229486 1.135973
-2.938943 6.489799 1.356595
-0.235598 0.440616 -0.350413
-0.240765 0.452752 -0.339577
-0.263902 0.504946 -0.351882
-0.292355 0.569469 -0.367860
-0.382170 0.772032 -0.451837
-1.597143 3.506526 -1.756650
-1.682167 3.699946 -1.736387
-1.791916 3.951176 -1.730455
-1.921142 4.246864 -1.730511
-2.054922 4.551264 -1.719021
-2.204057 4.893007 -1.703934
-2.208202 4.907497 -1.570297
-2.322171 5.168182 -1.508242
-2.519221 5.619991 -1.482033
-2.724412 6.091164 -1.438863
-2.963763 6.640840 -1.388483
-3.221416 7.140583 -1.303077
-3.560383 7.909237 -1.232838
-3.971695 8.837887 -1.142936
-4.845174 10.811830 -1.114412
-5.614679 12.555610 -0.968388
-6.722795 15.059063 -0.773077
-9.149108 20.546452 -0.522842
-8.963097 20.147581 0.001243
-9.260866 20.831289 0.532699
0.002910 -0.093495 -0.003681
-10.825352 24.415173 1.875907
-10.805199 24.394604 2.499536
0.002910 -0.093495 -0.003681
-3.003906 6.729855 1.045933
-2.847575 6.381741 1.160277
-2.838480 6.364640 1.327259
-0.228981 0.434263 -0.345313
-0.237517 0.454284 -0.339577
-0.263183 0.513085 -0.355637
-0.289146 0.572955 -0.368757
-0.376468 0.772691 -0.450984
-1.576399 3.515785 -1.756673
-1.663328 3.718427 -1.740266
-1.770079 3.964947 -1.731938
-1.896871 4.259696 -1.731225
-2.030413 4.568345 -1.720973
-2.176085 4.907492 -1.704563
-2.215440 5.003108 -1.596222
-2.300317 5.201089 -1.513848
-2.508765 5.686271 -1.495435
-2.706196 6.144070 -1.447630
-2.923757 6.651982 -1.387422
-3.188731 7.183166 -1.307343
-3.516628 7.935164 -1.233732
-3.916236 8.855944 -1.142311
-4.797147 10.878813 -1.118389
-5.561715 12.633539 -0.971963
-6.687962 15.225131 -0.779596
-9.161315 20.899454 -0.530544
-9.032683 20.626141 0.001187
-9.279509 21.214109 0.540918
-10.889726 24.924217 1.274649
-10.493868 24.039976 1.842270
-10.781826 24.715853 2.525980
0.002912 -0.093394 -0.003677
0.002912 -0.093394 -0.003677
0.002912 -0.093394 -0.003677
-2.815294 6.413456 1.333884
-0.226707 0.437222 -0.346333
-0.235142 0.457318 -0.340557
-0.256886 0.508225 -0.351883
-0.286119 0.576310 -0.369656
-0.370035 0.771635 -0.449277
-1.552693 3.518196 -1.753445
-1.640616 3.726357 -1.739521
-1.744471 3.970050 -1.729784
-1.868788 4.263734 -1.728521
-2.003478 4.582167 -1.721646
-2.146374 4.920425 -1.704600
-2.219361 5.093647 -1.620498
-2.274183 5.227202 -1.517430
-2.482086 5.719069 -1.500085
-2.681103 6.191174 -1.454741
-2.893714 6.692820 -1.392282
-3.148844 7.202797 -1.307718
-3.507209 8.040857 -1.246854
-3.883516 8.917923 -1.147469
-4.754735 10.949446 -1.122917
-5.509633 12.714955 -0.975815
-6.648548 15.377292 -0.785465
-9.161841 21.234877 -0.537791
-9.004735 20.891115 0.001074
-9.262246 21.513556 0.547028
-10.898428 25.355789 1.293163
-10.247945 23.850702 1.823053
-10.568698 24.625740 2.510142
-11.049994 25.778191 3.292204
-2.794115 6.460567 0.999280
-2.777468 6.425251 1.162130
-2.802841 6.491652 1.346439
-0.220763 0.432378 -0.342255
-0.233148 0.462077 -0.342515
-0.254703 0.513116 -0.353761
-0.283418 0.581452 -0.371452
-0.364917 0.773951 -0.449278
-1.531934 3.529124 -1.754285
-1.617203 3.734432 -1.738778
-1.721055 3.982153 -1.730540
-1.843637 4.276592 -1.729236
-1.975766 4.591982 -1.721040
-2.117454 4.932803 -1.704636
-2.219910 5.181249 -1.643673
-2.248029 5.251032 -1.520503
-2.449339 5.735178 -1.500587
-2.652049 6.220598 -1.458108
-2.858394 6.718543 -1.394180
-3.124275 7.269228 -1.316195
-3.460443 8.065289 -1.247472
-4.121574 9.632913 -1.235067
-4.704274 11.018724 -1.127085
-5.455335 12.798977 -0.979810
-6.601801 15.523315 -0.790966
-9.109078 21.463928 -0.542334
-9.033328 21.307261 0.000986
-9.248892 21.840904 0.553786
-10.729190 25.364862 1.290252
-10.121203 23.947994 1.825661
-10.237699 24.238480 2.464521
0.002916 -0.093193 -0.003670
-2.746375 6.452944 0.995609
-2.742186 6.446727 1.163056
0.002916 -0.093193 -0.003670
-0.222488 0.444837 -0.349393
-0.226684 0.455452 -0.337618
-0.249934 0.511374 -0.351885
-0.278976 0.581505 -0.370554
-0.361447 0.779414 -0.450992
-1.505363 3.522570 -1.746989
-1.597216 3.746915 -1.740344
-1.697558 3.990093 -1.729840
-1.819220 4.286939 -1.729264
-1.951046 4.606565 -1.722349
-2.090811 4.948178 -1.705861
-2.227980 5.284228 -1.671806
-2.230748 5.293999 -1.529144
-2.411529 5.736279 -1.497402
-2.619001 6.240848 -1.459397
-2.836836 6.774471 -1.402367
-3.104448 7.337662 -1.325315
-3.443087 8.152206 -1.257815
-4.078671 9.683377 -1.238611
-4.665150 11.100067 -1.132728
-5.402441 12.875393 -0.983383
-6.526778 15.589560 -0.792566
-9.035443 21.627197 -0.545301
-9.037297 21.654829 0.000889
-9.307254 22.328142 0.564670
-10.086831 24.219576 1.228973
-10.086896 24.245701 1.843807
-10.132191 24.369005 2.471788
0.002894 -0.093073 -0.003664
0.002894 -0.093073 -0.003664
-2.723732 6.505849 1.170803
-10.796237 26.070826 5.334846
-0.219390 0.446230 -0.349393
-0.223527 0.456870 -0.337618
-0.246467 0.512937 -0.351884
-0.276446 0.586530 -0.372349
-0.351477 0.769973 -0.445006
-1.487340 3.539994 -1.751080
-1.573687 3.752754 -1.738828
-1.678250 4.012278 -1.734958
-1.790341 4.290799 -1.726561
-1.922409 4.616415 -1.721743
-2.062322 4.964157 -1.707087
-2.217822 5.350873 -1.688373
-2.224296 5.369950 -1.546899
-2.382052 5.763229 -1.500669
-2.597957 6.300332 -1.469417
-2.793363 6.788146 -1.401679
-3.072106 7.381073 -1.329904
-3.412932 8.218405 -1.264826
-4.055513 9.787667 -1.248874
-4.619530 11.172937 -1.137445
-5.345846 12.957181 -0.987239
-6.437870 15.630695 -0.792870
-8.945042 21.774918 -0.547821
-9.038270 22.026617 0.000782
-9.302745 22.686893 0.572219
-9.959039 24.319834 1.230840
-9.827114 24.022591 1.822214
-9.758071 23.879128 2.415930
-2.774915 6.733083 0.859535
-9.857404 24.163500 3.681164
-2.711597 6.591975 1.183087
-10.728021 26.349457 5.378376
-0.212298 0.438068 -0.343274
-0.224184 0.467999 -0.343495
-0.242874 0.514511 -0.351884
-0.273074 0.589926 -0.373248
-0.350547 0.782146 -0.450142
-1.466400 3.548615 -1.751104
-1.550825 3.762124 -1.738856
-1.653164 4.018513 -1.733533
-1.763668 4.297663 -1.725223
-1.892411 4.620472 -1.719218
-2.033867 4.977824 -1.707718
-2.189310 5.370810 -1.690614
-2.228809 5.472574 -1.572246
-2.348993 5.778749 -1.501173
-2.573842 6.343905 -1.476109
-2.763642 6.825643 -1.406167
-3.043252 7.437705 -1.336761
-3.379868 8.274765 -1.270446
-4.014677 9.855880 -1.254507
-4.571231 11.246428 -1.142167
-5.293732 13.045227 -0.991651
-6.346706 15.674288 -0.793271
-8.855541 21.917068 -0.550245
-9.042044 22.405005 0.000676
-9.364159 23.231655 0.584390
-9.816071 24.371346 1.230373
-9.730401 24.184462 1.830001
0.002899 -0.092872 -0.003656
-2.743685 6.769362 0.862045
0.002899 -0.092872 -0.003656
-2.695477 6.660293 1.192454
-10.738803 26.819832 5.461201
-0.210629 0.442573 -0.345312
-0.219123 0.464510 -0.340556
-0.241420 0.520883 -0.354702
-0.268610 0.589908 -0.372351
-0.345506 0.784265 -0.450145
-1.443379 3.552009 -1.748689
-1.529270 3.770833 -1.738881
-1.629478 4.028086 -1.733559
-1.736971 4.304362 -1.723886
-1.868043 4.638468 -1.721808
-2.005337 4.991340 -1.708349
-2.159923 5.388798 -1.692305
0.002901 -0.092772 -0.003652
-2.314448 5.790499 -1.500752
-2.529164 6.342791 -1.472417
-2.731178 6.863988 -1.410657
-3.012847 7.484047 -1.341994
-3.325023 8.277624 -1.268006
-3.973001 9.913341 -1.258978
-4.525471 11.316311 -1.146700
-5.242261 13.136814 -0.996341
0.002901 -0.092772 -0.003652
-8.753679 22.031025 -0.551978
-9.037356 22.773006 0.000564
-9.328540 23.523567 0.590249
-9.716117 24.531656 1.235423
0.002901 -0.092772 -0.003652
-9.657939 24.438570 2.460605
-2.663394 6.681664 0.848968
0.002901 -0.092772 -0.003652
0.002901 -0.092772 -0.003652
0.002901 -0.092772 -0.003652
-0.206174 0.440716 -0.343274
-0.218365 0.472419 -0.344473
-0.235857 0.517497 -0.351886
-0.265192 0.593263 -0.373250
-0.343591 0.794845 -0.454424
-1.425018 3.567176 -1.751966
-1.502311 3.769641 -1.734283
-1.603647 4.034324 -1.732133
-1.712973 4.317897 -1.725284
-1.837874 4.644275 -1.719922
-1.977903 5.010379 -1.710767
-2.127631 5.399472 -1.691792
-2.239803 5.695139 -1.627498
0.002879 -0.092652 -0.003647
-2.499815 6.377423 -1.477033
-2.692490 6.883378 -1.411447
-2.976453 7.523947 -1.345939
-3.274617 8.291223 -1.267232
-3.939571 10.003454 -1.267393
-4.474351 11.385748 -1.151051
-5.192069 13.233810 -1.001451
-6.165442 15.748442 -0.793600
-8.635318 22.116240 -0.552980
-9.050475 23.197624 0.000457
-9.267160 23.781794 0.595161
-10.147057 26.077229 1.309932
-9.438652 24.265417 1.827396
0.002879 -0.092652 -0.003647
0.002879 -0.092652 -0.003647
-2.589652 6.614911 1.008192
0.002879 -0.092652 -0.003647
0.002879 -0.092652 -0.003647
-0.206837 0.451663 -0.349391
-0.210714 0.462385 -0.337618
-0.231711 0.517321 -0.350948
-0.263163 0.599905 -0.375943
-0.338469 0.796920 -0.454427
-1.403931 3.575443 -1.751988
-1.481352 3.781775 -1.735851
-1.578521 4.040117 -1.730706
-1.690899 4.336576 -1.728732
-1.803795 4.637184 -1.713555
-1.949848 5.025368 -1.711992
-2.099401 5.420728 -1.694584
-2.243605 5.805681 -1.654875
-2.254137 5.836982 -1.505905
-2.469478 6.410115 -1.481234
-2.666226 6.935626 -1.418896
-2.945302 7.574237 -1.351823
-3.221311 8.297112 -1.265346
-3.894905 10.061337 -1.271867
-4.423152 11.450484 -1.155030
-5.140244 13.328819 -1.006420
-6.071965 15.778183 -0.793440
-8.531552 22.229200 -0.554716
-9.084672 23.690371 0.000355
-9.275692 24.217829 0.604562
-9.792665 25.601467 1.283000
-9.290424 24.298992 1.825675
0.002881 -0.092551 -0.003643
-9.199162 24.114468 3.028885
-2.555919 6.642800 1.010096
0.002881 -0.092551 -0.003643
-2.453290 6.387439 1.303116
-0.203699 0.452961 -0.349392
-0.208131 0.465336 -0.338598
-0.228818 0.520412 -0.351887
-0.255386 0.591495 -0.370561
-0.328250 0.785451 -0.447585
-1.384714 3.590656 -1.755266
-1.457724 3.786902 -1.734334
-1.555343 4.050986 -1.731462
-1.661967 4.339618 -1.726026
-1.779187 4.654697 -1.716147
-1.916990 5.027679 -1.709050
-2.063945 5.425990 -1.692420
0.002883 -0.092451 -0.003639
-2.239365 5.905053 -1.519772
-2.428102 6.417427 -1.479620
-2.637534 6.986423 -1.425978
-2.915064 7.628109 -1.358356
-3.179159 8.336564 -1.268468
-3.849690 10.119027 -1.276342
-4.374151 11.522450 -1.159753
-5.090035 13.437613 -1.012370
-5.983989 15.822349 -0.794023
-8.449304 22.401617 -0.557926
-9.045306 24.015482 0.000214
-9.284417 24.667845 0.614284
-9.667669 25.719292 1.285890
-9.221785 24.557493 1.840725
-2.698183 7.133615 0.717230
0.002883 -0.092451 -0.003639
-2.532546 6.702517 1.016735
0.002883 -0.092451 -0.003639
-2.415248 6.399738 1.302699
-0.201057 0.455890 -0.350412
-0.209067 0.478123 -0.345454
-0.228881 0.531823 -0.357519
-0.252579 0.596476 -0.372355
-0.326810 0.797675 -0.452720
-1.364741 3.602097 -1.756917
-1.436602 3.800787 -1.736672
-1.529449 4.056764 -1.730035
-1.637708 4.352746 -1.727424
-1.748368 4.658166 -1.713621
-1.885248 5.035487 -1.707896
-2.034118 5.443303 -1.694111
-2.203199 5.909824 -1.676725
-2.243040 6.022093 -1.546081
-2.391925 6.435089 -1.480496
-2.606870 7.029292 -1.431578
-2.873319 7.656475 -1.360357
-3.127824 8.347423 -1.267415
-3.803523 10.180910 -1.281284
-4.323136 11.596872 -1.164663
-5.038353 13.537936 -1.017759
-5.894999 15.872685 -0.794887
-8.377989 22.620289 -0.562252
-9.065493 24.498882 0.000100
-9.264523 25.067856 0.622688
0.002885 -0.092350 -0.003635
-2.589978 6.959675 0.522834
-9.457499 25.667913 2.560521
-2.568607 6.917903 0.870636
-2.463382 6.635290 1.004427
-2.524742 6.810739 1.205192
-2.380755 6.425167 1.304877
-0.198492 0.458773 -0.351431
-0.201615 0.467985 -0.338597
-0.221650 0.523292 -0.351887
-0.246780 0.593005 -0.369665
-0.324151 0.806457 -0.456144
-0.616575 1.611203 -0.810349
-1.415412 3.812573 -1.738239
-1.504252 4.062106 -1.728608
-1.612717 4.363976 -1.728138
-1.721640 4.670057 -1.714292
-1.853091 5.039184 -1.705548
-2.002867 5.456850 -1.694700
-2.169257 5.924346 -1.677273
-2.248755 6.148530 -1.574696
-2.362254 6.470951 -1.485528
-2.584461 7.096085 -1.441988
-2.839471 7.702679 -1.365595
-3.345675 9.096732 -1.376758
-3.757204 10.238221 -1.285760
-4.274802 11.674095 -1.169942
-4.984298 13.634340 -1.022872
-5.804334 15.910233 -0.795190
-8.266820 22.722790 -0.563759
-9.114469 25.077318 -0.000008
-9.337865 25.724455 0.637489
0.002864 -0.092231 -0.003629
0.002864 -0.092231 -0.003629
0.002864 -0.092231 -0.003629
0.002864 -0.092231 -0.003629
-2.391058 6.556322 0.990450
-2.388100 6.556007 1.158090
-2.248850 6.176250 1.252212
-0.190665 0.447069 -0.343272
-0.197786 0.467603 -0.337618
-0.218686 0.526326 -0.352827
-0.245224 0.601249 -0.373255
-0.315324 0.798213 -0.451014
-0.604914 1.609681 -0.807917
-1.393526 3.822508 -1.739035
-1.480290 4.070798 -1.728637
-1.585770 4.369761 -1.726800
-1.694810 4.681781 -1.714964
-1.820320 5.040893 -1.702605
-1.968295 5.461146 -1.692534
-2.136514 5.942320 -1.678833
-2.255006 6.280712 -1.604697
-2.326379 6.490091 -1.486820
-2.550214 7.131332 -1.446110
-2.810492 7.763590 -1.373427
-3.305389 9.151396 -1.382106
-3.709697 10.293467 -1.290005
-4.223058 11.743649 -1.174479
-4.930654 13.734334 -1.028263
0.002866 -0.092130 -0.003625
-8.178231 22.890696 -0.566882
-9.149701 25.636391 -0.000125
-9.302844 26.098206 0.645231
0.002866 -0.092130 -0.003625
0.002866 -0.092130 -0.003625
0.002866 -0.092130 -0.003625
-2.403557 6.709432 0.841003
-2.347449 6.555162 0.988174
-2.323499 6.495342 1.145064
-2.245415 6.281903 1.270696
-0.189271 0.453143 -0.346332
-0.196889 0.475441 -0.341535
-0.213382 0.522712 -0.350010
-0.238272 0.594343 -0.368770
-0.313170 0.808652 -0.455295
-0.593308 1.608091 -0.805485
-1.369120 3.825347 -1.736749
-1.458138 4.084640 -1.730845
-1.558803 4.375374 -1.725462
-1.667284 4.691568 -1.714996
-1.788847 5.045995 -1.700852
-1.941984 5.488843 -1.697531
-2.101717 5.954628 -1.678875
-2.262388 6.420540 -1.636542
-2.294217 6.520125 -1.490606
-2.511171 7.153450 -1.447640
-2.778968 7.818866 -1.380285
-3.267847 9.215219 -1.388848
-3.662327 10.350381 -1.294482
-4.169969 11.811093 -1.178833
-4.879977 13.845464 -1.034491
0.002868 -0.092029 -0.003621
-8.074770 23.020569 -0.569084
-9.129347 26.055086 -0.000267
-9.506843 27.169035 0.670189
-10.737669 30.734819 1.522649
-2.441545 6.928370 0.517096
-2.438831 6.929144 0.690797
-2.380658 6.770207 0.846770
-2.312405 6.578069 0.989523
-2.296521 6.540441 1.150535
-2.298710 6.554863 1.322528
-0.190073 0.465732 -0.353471
-0.192480 0.473385 -0.339576
-0.211563 0.529052 -0.352827
-0.236644 0.602580 -0.372360
-0.307402 0.808854 -0.454441
-0.578735 1.597762 -0.798989
-1.347745 3.836776 -1.738315
-1.435882 4.098370 -1.733054
-1.529994 4.375494 -1.722072
-1.637874 4.695830 -1.713107
-1.761069 5.061726 -1.702675
-1.902968 5.480038 -1.691506
-2.068133 5.970418 -1.679927
0.002870 -0.091929 -0.003617
-2.267460 6.566662 -1.498132
-2.481437 7.203249 -1.454722
-2.732719 7.832980 -1.380017
-3.225834 9.267707 -1.393919
-3.616382 10.412743 -1.299653
-4.118213 11.883990 -1.183742
-4.826226 13.950790 -1.040303
-5.534178 16.029259 -0.796563
-7.320641 21.256836 -0.525047
-9.160233 26.637081 -0.000396
-9.373674 27.293444 0.671714
-10.561924 30.801939 1.522701
-2.408181 6.963207 0.518584
-2.333410 6.752864 0.671963
-2.391738 6.932457 0.865092
-2.332065 6.761987 1.014825
-2.248775 6.525667 1.145623
-2.155435 6.259218 1.260976
-0.180227 0.447387 -0.341231
-0.189772 0.476248 -0.340556
-0.208551 0.532048 -0.353767
-0.232657 0.604060 -0.372360
-0.299317 0.802164 -0.450166
-0.570179 1.604656 -0.800622
-1.326277 3.848076 -1.739881
-1.410544 4.103152 -1.731626
-1.504850 4.386131 -1.722785
-1.611483 4.708881 -1.714419
-1.730161 5.068286 -1.701517
-1.866576 5.478261 -1.687686
-2.035018 5.987829 -1.681488
-2.215682 6.531284 -1.657832
-2.258890 6.668787 -1.518126
-2.451849 7.254816 -1.462174
-2.685144 7.843099 -1.379099
0.002848 -0.091809 -0.003612
-3.567288 10.467381 -1.303898
-4.063825 11.951007 -1.188096
-4.771450 14.055984 -1.046115
-5.446356 16.076109 -0.797423
-7.164423 21.200224 -0.522800
-7.193899 21.302151 -0.001200
-9.331722 27.692039 0.680000
-10.726399 31.883247 1.572804
-2.371333 6.988438 0.519375
-2.290795 6.756867 0.670986
-2.363234 6.982038 0.869461
-2.145020 6.334017 0.949318
-2.143761 6.338331 1.110861
-2.154249 6.377916 1.282050
-0.179744 0.456732 -0.346331
-0.184746 0.472518 -0.337618
-0.205968 0.536754 -0.355644
-0.227400 0.602154 -0.370566
-0.296865 0.812634 -0.454445
-0.558941 1.604644 -0.799006
-1.300570 3.848991 -1.736823
-1.382707 4.102715 -1.728017
-1.476493 4.389743 -1.720763
-1.582976 4.718479 -1.714451
-1.703084 5.089445 -1.705126
-1.832289 5.485694 -1.686622
-1.999521 6.001753 -1.682036
-2.182403 6.562906 -1.662489
-2.256519 6.797423 -1.543944
-2.413097 7.284278 -1.465188
-2.641119 7.868358 -1.380777
-3.126166 9.335080 -1.398503
-3.516441 10.524299 -1.308379
-4.011091 12.031740 -1.193751
-4.718142 14.176979 -1.053045
-5.354731 16.121548 -0.798193
-7.016665 21.177916 -0.521388
-7.041794 21.268604 -0.001368
-9.319365 28.210436 0.691167
0.002851 -0.091709 -0.003608
-2.354820 7.080207 0.525052
-2.257579 6.793172 0.673169
-2.070571 6.231610 0.775251
-2.079115 6.262072 0.936739
-2.109887 6.364204 1.113088
-2.215365 6.695227 1.342396
-0.176576 0.457870 -0.346331
-0.180432 0.470392 -0.335658
-0.200695 0.533003 -0.352829
-0.221182 0.596767 -0.366979
-0.292210 0.816167 -0.455303
-0.549750 1.609707 -0.799826
-1.281264 3.867051 -1.741473
-1.360826 4.117809 -1.730953
-1.454707 4.410793 -1.725579
-1.553485 4.722204 -1.712563
-1.670293 5.090197 -1.702182
-1.801901 5.501748 -1.688313
-1.964980 6.015113 -1.682584
-2.155386 6.610674 -1.671291
-2.263546 6.955697 -1.576410
-2.366371 7.285065 -1.462647
-2.804915 8.527190 -1.491982
-3.087168 9.400126 -1.405522
-3.466925 10.580376 -1.312858
-3.953521 12.092634 -1.197548
-4.663594 14.289409 -1.059418
-5.271754 16.184542 -0.799890
-6.872541 21.151518 -0.519922
-6.904513 21.265150 -0.001527
-9.322789 28.779377 0.703591
0.002853 -0.091608 -0.003604
0.002853 -0.091608 -0.003604
-2.214861 6.796714 0.672193
-2.051145 6.296498 0.781717
-2.086122 6.409828 0.956750
-2.110661 6.494753 1.133482
-2.154652 6.640612 1.329011
-0.173944 0.460641 -0.347350
-0.180369 0.481494 -0.341536
-0.194419 0.525865 -0.348134
-0.222103 0.613473 -0.375055
-0.287534 0.819677 -0.456161
-0.537155 1.604244 -0.795769
-1.257320 3.870954 -1.739957
-1.336546 4.125673 -1.730981
-1.428193 4.417424 -1.724924
-1.526310 4.732986 -1.713235
-1.643297 5.108936 -1.705194
-1.769672 5.512149 -1.688350
-1.922794 6.004301 -1.676548
-2.121442 6.637935 -1.675024
-2.292313 7.188876 -1.625507
-2.333303 7.328684 -1.468619
-2.758853 8.554603 -1.493985
-3.043884 9.453698 -1.410874
-3.416874 10.636241 -1.317336
-3.898994 12.164645 -1.202460
-4.609738 14.407395 -1.066208
-5.186410 16.241400 -0.801308
-6.736172 21.147013 -0.519013
-6.766930 21.258932 -0.001684
-9.361009 29.478891 0.719176
0.002855 -0.091507 -0.003600
0.002855 -0.091507 -0.003600
-2.181742 6.830358 0.674191
-2.246637 7.045322 0.872105
-2.101620 6.589993 0.981495
-2.078645 6.525765 1.136683
-2.084641 6.553666 1.309332
-0.172832 0.468323 -0.351430
-0.175509 0.477653 -0.338597
-0.191920 0.530466 -0.350012
-0.215379 0.606329 -0.370570
-0.282277 0.821430 -0.456164
-0.524906 1.600535 -0.792524
-1.235039 3.880010 -1.740752
-1.314461 4.140532 -1.733917
-1.401960 4.427712 -1.725639
-1.497399 4.738204 -1.711984
-1.612763 5.116606 -1.704632
-1.734097 5.515300 -1.686185
-1.887648 6.015377 -1.676590
-2.072271 6.620755 -1.667696
-2.284284 7.316487 -1.650914
-2.295035 7.361292 -1.472373
-2.711967 8.579874 -1.495665
-2.994884 9.496271 -1.414559
-3.365105 10.688083 -1.321352
-3.845547 12.242132 -1.207930
-4.549767 14.518431 -1.072445
-5.099997 16.295908 -0.802633
-6.132249 19.637154 -0.481644
-6.622937 21.243433 -0.001847
-9.318595 29.944914 0.729024
-10.968018 35.307095 1.727524
-10.897352 35.126091 2.577168
-2.187694 6.995511 0.689018
-2.064220 6.600854 0.816035
-2.017576 6.458636 0.960282
-2.013204 6.453234 1.122039
-2.053299 6.588238 1.313733
-0.167979 0.464511 -0.348371
-0.173659 0.483798 -0.341536
-0.188235 0.531714 -0.350012
-0.210185 0.604294 -0.368776
-0.277376 0.824928 -0.457023
-0.513564 1.598414 -0.790091
-1.208748 3.878541 -1.736925
-1.285521 4.135892 -1.728853
-1.374814 4.432223 -1.724300
-1.467591 4.743470 -1.710738
-1.579047 5.117048 -1.701690
-1.702896 5.528983 -1.687324
-1.846910 6.011780 -1.672579
-2.032459 6.628968 -1.666819
-2.243855 7.337124 -1.652627
-2.400975 7.867455 -1.569407
-2.666250 8.614790 -1.498968
-2.948907 9.543768 -1.419077
-3.313885 10.749763 -1.326529
-3.790940 12.325802 -1.213959
-4.490020 14.624636 -1.078402
-5.016092 16.369955 -0.804892
0.002835 -0.091287 -0.003590
-6.480753 21.218185 -0.002005
-9.324488 30.606243 0.743560
-12.963906 42.642063 2.082109
0.002835 -0.091287 -0.003590
-2.169940 7.084356 0.696408
-2.063586 6.742410 0.831795
0.002835 -0.091287 -0.003590
-1.980620 6.481846 1.124914
-2.089046 6.850704 1.362954
-0.167250 0.473822 -0.353471
-0.172364 0.491597 -0.345453
-0.186682 0.539674 -0.353768
-0.208758 0.614181 -0.373263
-0.270546 0.821441 -0.454458
-0.502766 1.597948 -0.788474
-1.186937 3.889092 -1.738490
-1.261693 4.145123 -1.729607
-1.348745 4.440176 -1.724328
-1.441887 4.759216 -1.713329
-1.549583 5.128005 -1.702319
-1.669965 5.536972 -1.686809
-1.810616 6.018700 -1.671608
-1.993181 6.638813 -1.666402
-2.204930 7.363161 -1.655587
-2.367903 7.924594 -1.577976
-2.622889 8.652795 -1.502916
-2.901920 9.589168 -1.423315
-3.263955 10.810654 -1.331703
-3.271796 10.851837 -1.068493
-4.436660 14.755508 -1.086170
-4.953790 16.507784 -0.810312
-6.321724 21.117977 -0.516000
-6.342532 21.203531 -0.002159
-9.346607 31.328396 0.759587
-5.718037 19.160910 0.934292
-2.089357 6.954776 0.510843
-2.126893 7.091129 0.695802
0.002837 -0.091187 -0.003587
-1.935282 6.458907 0.956854
-1.944408 6.498940 1.125843
-1.960603 6.563025 1.304010
-0.164008 0.474906 -0.353470
-0.165560 0.480989 -0.338596
-0.180537 0.532371 -0.349075
-0.203677 0.612054 -0.371470
-0.269367 0.836987 -0.461304
-0.496139 1.611470 -0.793360
-1.164511 3.897742 -1.739286
-1.237811 4.154224 -1.730360
-1.324728 4.455191 -1.727093
-1.413399 4.765730 -1.712720
-1.518954 5.135108 -1.701758
-1.638057 5.548446 -1.687397
-1.775942 6.030999 -1.672154
-1.949497 6.633461 -1.662298
-2.161978 7.375856 -1.655636
-2.324437 7.947647 -1.579881
-2.577500 8.684907 -1.505893
-2.853947 9.632440 -1.427276
-3.173722 10.735979 -1.320418
-3.169520 10.736827 -1.055573
-3.161547 10.717775 -0.790476
-4.888949 16.641617 -0.815547
0.002839 -0.091086 -0.003583
-6.206350 21.193729 -0.002313
-9.359018 32.046024 0.775464
0.002839 -0.091086 -0.003583
0.002839 -0.091086 -0.003583
-2.052763 6.990563 0.684787
0.002839 -0.091086 -0.003583
-1.888166 6.437725 0.952076
-1.908100 6.515860 1.126774
-1.969182 6.736738 1.335823
-0.161230 0.477615 -0.354490
-0.162751 0.483732 -0.339575
-0.178916 0.540321 -0.352830
-0.201110 0.618487 -0.374162
-0.261523 0.829947 -0.457029
-0.489850 1.626707 -0.799062
-1.138973 3.895618 -1.735457
-1.212809 4.159586 -1.729661
-1.297508 4.459254 -1.725753
-1.386977 4.779371 -1.714671
-1.489369 5.145724 -1.702386
-1.605563 5.557902 -1.687433
-1.742253 6.046822 -1.673713
-1.902760 6.616603 -1.655427
-2.117869 7.384523 -1.654854
-2.282941 7.978043 -1.583266
-2.530190 8.711088 -1.507897
-2.805554 9.675455 -1.431239
-3.079523 10.643442 -1.307045
-2.970990 10.280282 -1.009598
0.002842 -0.090985 -0.003579
-3.019692 10.473238 -0.515435
-5.651914 19.701563 -0.480448
-6.068861 21.177317 -0.002466
-9.395795 32.878258 0.794075
-5.490486 19.206522 0.933088
0.002842 -0.090985 -0.003579
-5.108936 17.905817 1.742774
-1.900792 6.620700 0.812601
-1.921301 6.698244 0.988510
-1.886681 6.585726 1.136784
-1.921822 6.719724 1.330222
-0.153276 0.462093 -0.344289
-0.160381 0.488129 -0.341535
-0.176232 0.544859 -0.354708
-0.195104 0.612883 -0.370573
-0.254751 0.826336 -0.454465
-0.482119 1.638495 -0.803138
-1.116004 3.902224 -1.735481
-1.188828 4.168418 -1.730413
-1.269968 4.465161 -1.725099
-1.359417 4.789214 -1.715342
-1.458161 5.150648 -1.701228
-1.571505 5.565590 -1.686919
-1.705312 6.051265 -1.672235
-1.861888 6.624135 -1.654551
-2.070334 7.385749 -1.652412
-2.234496 7.989657 -1.582952
-2.483198 8.738916 -1.510226
-2.756145 9.722554 -1.435759
-2.724316 9.616898 -1.180520
-2.722445 9.624355 -0.944489
-2.775600 9.828229 -0.723423
-2.766565 9.803726 -0.482278
0.002820 -0.090866 -0.003573
-5.530783 19.737467 -0.002685
-9.388945 33.588703 0.809701
-5.253348 18.785671 0.911040
-2.007786 7.140459 0.521589
-1.990596 7.089145 0.691939
-1.899295 6.765658 0.828825
-1.908468 6.808885 1.002940
-1.877562 6.707257 1.155550
-1.852726 6.622820 1.309065
-0.150002 0.463118 -0.344288
-0.158332 0.494229 -0.344474
-0.171521 0.542602 -0.352831
-0.190911 0.614132 -0.370575
-0.253289 0.841846 -0.461312
-0.472620 1.643110 -0.803960
-1.095688 3.921334 -1.740903
-1.164274 4.175300 -1.730440
-1.242735 4.468897 -1.723759
-1.330296 4.793417 -1.714092
-1.428961 5.162754 -1.702453
-1.538898 5.574649 -1.686956
-1.670948 6.064843 -1.673286
-1.820643 6.625470 -1.652289
-2.022926 7.376542 -1.647885
-2.193959 8.019188 -1.586336
-2.433912 8.765029 -1.512232
-2.709040 9.772752 -1.440834
-2.529921 9.134932 -1.120300
-2.559466 9.256351 -0.907415
-2.601413 9.416968 -0.692535
0.002822 -0.090765 -0.003569
-2.671642 9.695639 -0.238741
-2.859796 10.399677 -0.003175
-9.413946 34.469620 0.829356
-5.223284 19.104881 0.924894
-4.978689 18.233780 1.324982
0.002822 -0.090765 -0.003569
-1.848352 6.734437 0.823668
-1.879586 6.860036 1.008742
-1.831846 6.689190 1.150642
-1.903251 6.963651 1.373465
-0.149135 0.472358 -0.349389
-0.154168 0.491866 -0.342514
-0.168448 0.545379 -0.353769
-0.186973 0.615305 -0.370575
-0.245579 0.834685 -0.457036
-0.463109 1.647690 -0.804781
-1.073740 3.929282 -1.741697
-1.140171 4.183845 -1.731193
-1.217420 4.479715 -1.725155
-1.301662 4.799280 -1.713482
-1.398675 5.171002 -1.702486
-1.505755 5.581675 -1.686441
-1.635469 6.074471 -1.673326
-1.781448 6.634080 -1.651871
-1.965056 7.337463 -1.636711
-2.147310 8.037872 -1.587503
-2.391600 8.805265 -1.516828
-2.660922 9.820808 -1.445632
-2.353696 8.684742 -1.064241
-2.403558 8.883996 -0.870146
-2.392361 8.855676 -0.650901
-2.376738 8.804567 -0.432693
-2.486760 9.229976 -0.227263
0.002824 -0.090665 -0.003565
-9.436020 35.329353 0.848548
-11.348030 42.569023 2.056314
-4.948401 18.545727 1.345372
-4.742060 17.796288 1.723438
-1.838541 6.856456 0.837100
-1.864876 6.966604 1.022617
-1.824878 6.826002 1.172001
-1.847049 6.915713 1.361938
-0.145804 0.473356 -0.349389
-0.150256 0.491194 -0.341535
-0.165577 0.549909 -0.355647
-0.181893 0.613078 -0.368780
-0.240088 0.836241 -0.457039
-0.452325 1.648756 -0.803976
-1.050343 3.937482 -1.742493
-1.113375 4.185233 -1.729038
-1.189794 4.485140 -1.724501
-1.273570 4.810688 -1.714795
-1.369357 5.186712 -1.704903
-1.472548 5.592474 -1.687030
-1.597405 6.078557 -1.671847
-1.744430 6.655931 -1.654684
-1.914576 7.324477 -1.631356
-2.079885 7.976363 -1.573118
-2.344311 8.840419 -1.520454
-2.196928 8.292505 -1.221391
0.002826 -0.090564 -0.003561
-2.169748 8.208559 -0.803713
-2.215622 8.396896 -0.616795
-2.224968 8.439759 -0.414503
0.002826 -0.090564 -0.003561
-2.409921 9.176514 -0.003348
-2.569487 9.797591 0.233879
-11.239890 43.194561 2.082943
-4.751098 18.240767 1.321095
-4.620391 17.764479 1.717550
-1.791823 6.846216 0.834497
-1.808123 6.920148 1.014218
-1.773960 6.798615 1.165468
-1.814763 6.962830 1.368927
-0.140829 0.467636 -0.345308
0.002805 -0.090444 -0.003556
-0.161428 0.549244 -0.354710
-0.180502 0.624625 -0.374165
-0.234760 0.837739 -0.457040
-0.443505 1.654903 -0.805611
-1.025303 3.936427 -1.739433
-1.090103 4.197094 -1.731247
-1.165619 4.497292 -1.726580
-1.244387 4.814380 -1.713545
-1.338948 5.194624 -1.704936
-1.439861 5.597007 -1.685961
-1.561371 6.085887 -1.671381
-1.706255 6.663798 -1.654264
-1.869321 7.320001 -1.628075
-1.974716 7.749746 -1.526884
-2.059301 7.943964 -1.366192
0.002805 -0.090444 -0.003556
-2.055332 7.947899 -0.972287
-2.022789 7.833243 -0.766432
-2.068953 8.020715 -0.588813
-2.083511 8.090553 -0.397142
0.002805 -0.090444 -0.003556
0.002805 -0.090444 -0.003556
0.002805 -0.090444 -0.003556
-12.406789 48.843647 2.351418
0.002805 -0.090444 -0.003556
0.002805 -0.090444 -0.003556
-4.522734 17.826904 2.157795
0.002805 -0.090444 -0.003556
0.002805 -0.090444 -0.003556
-1.807691 7.106721 1.394804
-0.140987 0.481919 -0.353468
0.002807 -0.090344 -0.003552
-0.158606 0.553711 -0.356588
-0.174203 0.617093 -0.369680
-0.227215 0.830420 -0.452765
-0.431684 1.650459 -0.802365
-1.003443 3.947752 -1.741770
-1.063598 4.196180 -1.728363
-1.138737 4.502222 -1.725923
-1.215221 4.817904 -1.712294
-1.308487 5.202357 -1.704969
-1.408924 5.612772 -1.688203
-1.525771 6.094879 -1.671421
-1.667337 6.673627 -1.654307
-1.827068 7.332643 -1.628540
-1.928148 7.755389 -1.525823
-1.906047 7.528899 -1.293943
0.002807 -0.090344 -0.003552
0.002807 -0.090344 -0.003552
-1.911546 7.582093 -0.741221
-1.945006 7.722874 -0.566546
-1.968333 7.829182 -0.384061
0.002807 -0.090344 -0.003552
0.002807 -0.090344 -0.003552
0.002807 -0.090344 -0.003552
-12.113291 48.867870 2.348839
-12.008460 48.486500 3.495952
0.002807 -0.090344 -0.003552
-4.376228 17.677263 2.136532
-4.611966 18.650137 2.709057
-1.802193 7.251664 1.238661
-4.642323 18.835047 3.668123
-0.136047 0.476153 -0.349387
-3.859192 15.689447 -9.131135
-0.151118 0.539291 -0.348138
-0.170124 0.618199 -0.369681
-0.222767 0.835345 -0.454478
-0.421226 1.651262 -0.801559
-0.981460 3.958937 -1.744108
-1.040218 4.207785 -1.730571
-1.111367 4.505147 -1.724585
-1.188717 4.832299 -1.714885
-1.276638 5.204345 -1.703215
-1.376511 5.622769 -1.688789
-1.492408 6.113091 -1.673991
-1.626070 6.673760 -1.652046
-1.786134 7.350769 -1.630250
-1.885229 7.776032 -1.527725
-1.812922 7.338552 -1.259949
-1.796251 7.276760 -1.069303
-1.797457 7.293839 -0.890979
-1.807995 7.349302 -0.717863
-1.834910 7.466522 -0.547346
-1.858118 7.574524 -0.371350
0.002809 -0.090243 -0.003548
0.002809 -0.090243 -0.003548
0.002809 -0.090243 -0.003548
0.002809 -0.090243 -0.003548
-4.972060 20.538551 1.480328
0.002809 -0.090243 -0.003548
-4.268276 17.679119 2.133622
-4.522482 18.753551 2.720063
-4.498034 18.682962 3.168163
0.002809 -0.090243 -0.003548
-0.135196 0.487091 -0.355507
-3.766616 15.704685 -9.127324
-0.149952 0.550578 -0.353771
-0.165645 0.617559 -0.368783
-0.217423 0.836716 -0.454481
-0.411716 1.657392 -0.803196
-0.477668 1.937254 -0.873837
-1.015445 4.213811 -1.730597
-1.084521 4.513603 -1.725297
-1.160346 4.839169 -1.714916
-1.246558 5.213571 -1.703844
-1.341712 5.627208 -1.687724
-1.455755 6.117908 -1.673019
-1.587255 6.689094 -1.653473
-1.742841 7.365152 -1.631132
-1.839851 7.792919 -1.528889
-1.726659 7.166609 -1.229193
-1.709858 7.108197 -1.043467
-1.711724 7.122519 -0.869221
-1.718701 7.164025 -0.699144
-1.735327 7.246382 -0.530792
-1.761022 7.361637 -0.360685
0.002811 -0.090143 -0.003544
0.002811 -0.090143 -0.003544
-1.972746 8.291887 0.196348
-4.236166 17.925779 0.859446
0.002811 -0.090143 -0.003544
-4.203890 17.849251 1.715392
-4.165450 17.701609 2.133271
-4.355591 18.544918 2.685975
-4.334982 18.488436 3.130746
-4.295943 18.338213 3.561593
-0.128243 0.472911 -0.346327
-3.669658 15.713226 -9.119596
-0.145765 0.549864 -0.352832
-0.160226 0.613415 -0.366092
-0.211518 0.836353 -0.453628
-0.401238 1.658073 -0.802390
-0.464391 1.934780 -0.871534
-0.990724 4.223497 -1.732079
-1.058842 4.523552 -1.726692
-1.129802 4.840533 -1.713026
-1.214652 5.219133 -1.703281
-1.308753 5.634940 -1.687760
-1.419771 6.130331 -1.674071
-1.547749 6.696327 -1.653055
-1.697712 7.365648 -1.629100
0.002789 -0.090023 -0.003538
0.002789 -0.090023 -0.003538
0.002789 -0.090023 -0.003538
0.002789 -0.090023 -0.003538
0.002789 -0.090023 -0.003538
0.002789 -0.090023 -0.003538
0.002789 -0.090023 -0.003538
0.002789 -0.090023 -0.003538
0.002789 -0.090023 -0.003538
0.002789 -0.090023 -0.003538
0.002789 -0.090023 -0.003538
-10.874676 47.446304 3.405800
-4.098746 17.865517 1.714528
-4.714779 20.598352 2.477609
-4.695203 20.531794 2.968621
-4.258130 18.646009 3.152990
-4.663007 20.462259 3.966916
-0.126908 0.482150 -0.351427
-3.577792 15.730752 -9.117743
-0.142081 0.550815 -0.352832
-0.158156 0.623176 -0.370579
-0.205791 0.835914 -0.452774
-0.390770 1.658692 -0.801584
-0.455560 1.950142 -0.876940
-0.966270 4.231058 -1.732832
-1.030198 4.520516 -1.723300
-1.101801 4.848915 -1.713697
-1.183222 5.222419 -1.702123
-1.276196 5.644380 -1.688346
-1.382650 6.132837 -1.672591
-1.509496 6.709042 -1.654020
-1.653896 7.371587 -1.628316
-1.817405 8.122737 -1.588617
-1.608202 7.038307 -1.204318
-1.601562 7.015608 -1.027412
-1.601066 7.025988 -0.855397
-1.600104 7.034249 -0.684932
-1.611338 7.090923 -0.518327
0.002791 -0.089922 -0.003534
0.002791 -0.089922 -0.003534
0.002791 -0.089922 -0.003534
0.002791 -0.089922 -0.003534
-10.933934 48.956940 2.338906
-4.183197 18.700483 1.342244
-3.994868 17.887016 1.714222
-3.983440 17.867662 2.147196
-7.697209 34.631123 4.993985
-4.800275 21.606964 3.646945
-4.053099 18.264650 3.537645
-0.122514 0.477958 -0.348365
-3.643389 16.462921 -9.527369
-0.140660 0.562081 -0.358466
-0.153276 0.620698 -0.368785
-0.196979 0.821315 -0.445074
-0.382348 1.670023 -0.805659
-0.442213 1.945620 -0.873867
-0.940990 4.234853 -1.732129
-1.004428 4.534002 -1.726065
-1.072533 4.851584 -1.712446
-1.153012 5.231122 -1.702751
-1.241338 5.648206 -1.687279
-1.347211 6.142707 -1.673136
-1.469532 6.719886 -1.654526
-1.609190 7.379473 -1.627948
-1.769895 8.139261 -1.589781
-1.567563 7.049497 -1.204687
-1.558095 7.019290 -1.026623
-1.558376 7.027452 -0.854513
-1.556497 7.031789 -0.683862
-1.566142 7.088769 -0.517537
0.002793 -0.089822 -0.003530
-1.590513 7.220551 -0.177428
0.002793 -0.089822 -0.003530
0.002793 -0.089822 -0.003530
-10.679707 49.150036 2.344809
0.002793 -0.089822 -0.003530
-3.894443 17.939718 1.716883
-12.120982 56.052830 6.711654
-7.497334 34.705353 4.997914
-5.029305 23.298347 3.926242
-4.178653 19.363897 3.744862
-0.119848 0.482145 -0.350407
-3.540351 16.462141 -9.514746
-0.134567 0.552657 -0.352833
-0.149433 0.623457 -0.369683
-0.197372 0.849061 -0.457913
-0.372579 1.674092 -0.806481
-0.431286 1.953748 -0.876190
-0.915682 4.238485 -1.731427
-0.976988 4.536131 -1.724725
-1.044844 4.861500 -1.713756
-1.122745 5.239648 -1.703379
-1.209442 5.660997 -1.688970
-1.312109 6.154266 -1.674187
-1.429103 6.722640 -1.653184
-1.567443 7.388439 -1.627995
-1.724330 8.151054 -1.590202
-1.526396 7.064559 -1.205708
-1.516301 7.024380 -1.026112
-1.515713 7.034750 -0.854326
-1.515060 7.044922 -0.684279
-1.524369 7.095839 -0.517443
-1.530783 7.139378 -0.348384
-1.540513 7.192542 -0.176591
0.002796 -0.089721 -0.003526
-1.561043 7.316960 0.171978
-10.414136 49.296867 2.348571
0.002796 -0.089721 -0.003526
-3.954380 18.725214 1.789568
0.002796 -0.089721 -0.003526
-4.365567 20.758324 2.989351
-3.955314 18.819580 3.169796
-4.761551 22.714188 4.384869
-0.114198 0.471137 -0.343264
-3.445713 16.471481 -9.508974
-0.128844 0.543160 -0.347198
-0.145805 0.626144 -0.370582
-0.190880 0.845000 -0.455347
-0.363913 1.683491 -0.809742
-0.419135 1.952631 -0.874656
-0.889220 4.236485 -1.728544
-0.950731 4.543648 -1.725435
-1.016709 4.869411 -1.714425
-1.092028 5.246130 -1.703412
-1.175922 5.666091 -1.688454
-1.274949 6.156133 -1.672707
-1.391005 6.736579 -1.654611
-1.524601 7.405381 -1.629708
-1.676565 8.167015 -1.591368
-1.486837 7.075029 -1.206074
-1.475718 7.035054 -1.026434
-1.479126 7.058775 -0.856226
-1.475608 7.055341 -0.684508
-1.484575 7.112425 -0.518047
0.002774 -0.089602 -0.003521
0.002774 -0.089602 -0.003521
0.002774 -0.089602 -0.003521
0.002774 -0.089602 -0.003521
-10.602445 51.663651 2.457987
0.002774 -0.089602 -0.003521
-3.839108 18.730921 1.787768
-8.050643 39.403149 4.708225
-3.846897 18.825031 2.708443
0.002774 -0.089602 -0.003521
-4.505087 22.125000 4.266245
-0.114969 0.492159 -0.355507
-3.346669 16.488266 -9.507128
-0.128214 0.559594 -0.355651
