# This PCD file was generated using the MATLAB® pcwrite function
# from Computer Vision Toolbox®.
# .PCD v.7 - Point Cloud Data file format
VERSION .7
FIELDS x y z
SIZE 4 4 4
TYPE F F F
COUNT 1 1 1
WIDTH 1639
HEIGHT 1
VIEWPOINT 0 0 0 1 0 0 0
POINTS 1639
DATA ascii
5.354916 0.456942 -1.679114
5.759881 0.493924 -1.659502
7.152716 0.626428 -1.880877
7.952273 0.700260 -1.892364
8.934786 0.790931 -1.906960
10.207493 0.908415 -1.930638
11.769344 1.108275 -1.941435
13.959782 1.320624 -1.969091
16.813251 1.599656 -1.969437
14.169334 1.333726 -1.325855
13.592951 1.272217 -0.952789
13.587631 1.269239 -0.634388
-0.000920 -0.059453 -0.001986
-0.000920 -0.059453 -0.001986
13.617521 1.259998 0.319984
13.610747 1.254492 0.640045
13.614541 1.250022 0.958820
19.829155 1.840634 1.862864
18.612040 1.720652 2.190549
-0.000920 -0.059453 -0.001986
16.442854 1.501475 2.717105
-0.000920 -0.059453 -0.001986
0.471880 -0.015144 -0.283404
3.293076 0.247362 -1.859394
3.475849 0.263760 -1.857177
3.671300 0.280611 -1.852142
3.887811 0.299280 -1.848987
4.136969 0.321496 -1.850518
4.382745 0.342547 -1.839070
4.704650 0.370383 -1.845386
5.099838 0.405557 -1.864387
5.347396 0.426204 -1.814723
5.344565 0.424060 -1.674952
5.766790 0.461199 -1.660607
7.158570 0.584260 -1.881389
7.964275 0.655244 -1.894214
8.943419 0.739908 -1.907799
10.210942 0.849526 -1.930280
11.778030 1.038697 -1.941772
13.969478 1.240469 -1.969386
13.895220 1.228608 -1.627087
13.879902 1.222261 -1.298097
-0.000915 -0.059349 -0.001983
13.597256 1.188878 -0.634496
13.602736 1.184531 -0.314852
13.608514 1.182615 0.002302
13.611182 1.177997 0.319638
13.608356 1.172901 0.639560
13.619881 1.171497 0.958663
18.614103 1.616172 1.747639
18.606436 1.608862 2.188663
18.365662 1.583963 2.595474
17.762648 1.523693 2.933768
17.147724 1.462779 3.247271
0.473857 -0.017621 -0.284421
3.296522 0.228648 -1.860374
3.479403 0.243996 -1.858117
3.673198 0.259560 -1.852144
3.889760 0.277654 -1.848990
4.142727 0.298086 -1.852145
4.390497 0.317878 -1.841383
4.706966 0.344206 -1.845388
5.106170 0.376604 -1.865757
5.348115 0.396287 -1.814086
5.343393 0.393970 -1.673767
5.765866 0.427745 -1.659511
7.163982 0.544534 -1.881901
7.964376 0.609141 -1.893301
8.951636 0.690377 -1.908638
10.227614 0.793569 -1.932509
11.801851 0.972489 -1.944698
13.988573 1.161119 -1.971069
-0.000935 -0.059227 -0.001978
13.710495 1.127100 -1.281636
15.106174 1.245151 -1.057544
-0.000935 -0.059227 -0.001978
-0.000935 -0.059227 -0.001978
-0.000935 -0.059227 -0.001978
-0.000935 -0.059227 -0.001978
-0.000935 -0.059227 -0.001978
-0.000935 -0.059227 -0.001978
18.518017 1.503406 1.737737
18.524414 1.497364 2.177926
18.161678 1.460426 2.565323
-0.000935 -0.059227 -0.001978
16.946381 1.349665 3.207564
0.475783 -0.020014 -0.285437
3.305016 0.210912 -1.864291
3.484577 0.224937 -1.859996
3.680269 0.239573 -1.854836
3.891587 0.256021 -1.848992
4.139202 0.274596 -1.849709
4.403576 0.294335 -1.846008
4.714726 0.318454 -1.847573
5.106664 0.348020 -1.865078
5.348701 0.366349 -1.813452
5.345838 0.364221 -1.673771
5.774248 0.396090 -1.661168
7.167245 0.504610 -1.881908
7.971869 0.565047 -1.894230
8.965447 0.641224 -1.910725
10.236134 0.736840 -1.933259
11.805467 0.906492 -1.944388
14.010947 1.084378 -1.973306
13.972300 1.076241 -1.634523
13.786376 1.056235 -1.288132
13.876252 1.061012 -0.971171
13.777833 1.048176 -0.642302
-0.000930 -0.059123 -0.001974
-0.000930 -0.059123 -0.001974
19.528080 1.492890 0.458946
15.069120 1.135825 0.707713
18.454058 1.397664 1.298312
-0.000930 -0.059123 -0.001974
19.788353 1.492403 2.325573
18.732624 1.402966 2.644804
17.832361 1.329512 2.942496
-0.000930 -0.059123 -0.001974
0.481165 -0.022435 -0.288494
3.299659 0.190285 -1.860377
3.488004 0.203884 -1.860936
3.678457 0.216925 -1.853045
3.895236 0.232488 -1.849849
4.150271 0.250092 -1.853776
4.400130 0.267124 -1.843700
4.726238 0.290437 -1.851211
5.107167 0.316794 -1.864398
5.351202 0.333770 -1.813457
5.348319 0.331667 -1.673775
5.780755 0.361190 -1.662275
7.180213 0.461613 -1.884446
7.965821 0.515741 -1.891936
8.973466 0.586822 -1.911566
10.256492 0.675518 -1.936229
11.830822 0.835956 -1.947638
14.041387 1.000643 -1.976657
14.238475 1.010467 -1.664845
13.685682 0.964087 -1.278149
-0.000926 -0.059019 -0.001971
-0.000926 -0.059019 -0.001971
-0.000926 -0.059019 -0.001971
14.068941 0.977681 0.002388
23.760698 1.683359 0.558549
18.535078 1.296867 0.870503
20.985701 1.468669 1.475972
18.906420 1.313916 1.772547
-0.000926 -0.059019 -0.001971
17.749569 1.217306 2.504743
18.462521 1.265259 3.045125
16.299133 1.104297 3.082152
-0.000921 -0.058916 -0.001968
3.306214 0.172326 -1.863315
3.491178 0.184626 -1.861876
3.685272 0.196863 -1.855736
3.900468 0.210390 -1.851563
4.159269 0.226786 -1.857030
4.405560 0.242901 -1.845243
4.733728 0.263705 -1.853394
5.114867 0.287858 -1.866452
5.353353 0.303061 -1.813459
5.348575 0.300826 -1.673184
5.786908 0.328251 -1.663381
7.181146 0.420232 -1.883946
7.984531 0.470988 -1.895628
8.984935 0.534190 -1.913235
10.278304 0.615914 -1.939567
11.841542 0.770374 -1.948623
14.055139 0.920413 -1.977784
13.740840 0.896049 -1.606100
13.728930 0.890347 -1.281683
-0.000921 -0.058916 -0.001968
-0.000921 -0.058916 -0.001968
-0.000921 -0.058916 -0.001968
-0.000921 -0.058916 -0.001968
23.740133 1.548698 0.557814
-0.000921 -0.058916 -0.001968
18.838318 1.203417 1.324188
25.373606 1.632317 2.378496
18.796530 1.190570 2.206969
17.845575 1.121018 2.517272
20.041489 1.259096 3.304328
17.352804 1.079160 3.280196
-0.000917 -0.058812 -0.001964
3.297091 0.152130 -1.857442
3.492562 0.164008 -1.861877
3.692086 0.175424 -1.858429
3.910997 0.187928 -1.855839
4.157197 0.202697 -1.855407
4.405416 0.216749 -1.844475
4.731859 0.235465 -1.851945
5.120544 0.258719 -1.867824
5.355429 0.271374 -1.813465
5.352527 0.269296 -1.673784
5.792889 0.295244 -1.664487
7.189656 0.378064 -1.885471
7.991330 0.425332 -1.896556
8.992110 0.482758 -1.914076
10.291832 0.557388 -1.941427
11.856094 0.700832 -1.950254
14.066476 0.839919 -1.978634
13.748267 0.814705 -1.606350
14.239139 0.840850 -1.328735
13.666838 0.802243 -0.955386
13.653646 0.796564 -0.635782
13.704925 0.794912 -0.316584
-0.000917 -0.058812 -0.001964
23.741270 1.407395 0.557594
23.754137 1.399769 1.115215
18.976706 1.103039 1.333413
-0.000917 -0.058812 -0.001964
18.718369 1.073940 2.196929
-0.000917 -0.058812 -0.001964
-0.000917 -0.058812 -0.001964
16.205700 0.907480 3.062082
3.159474 0.126307 -1.878135
3.306950 0.133748 -1.862339
3.492026 0.143883 -1.860941
3.696932 0.154468 -1.860224
3.915927 0.166383 -1.857551
4.162273 0.179067 -1.857035
4.416146 0.191994 -1.848330
4.744577 0.209772 -1.856309
5.114783 0.228899 -1.865094
5.353387 0.241360 -1.812189
5.352359 0.239396 -1.673193
5.815936 0.263153 -1.670549
7.197786 0.338317 -1.886996
7.992034 0.379294 -1.896104
9.006721 0.433272 -1.916577
10.301017 0.500306 -1.942549
11.864202 0.632864 -1.950915
13.737265 0.739570 -1.931713
13.776855 0.736992 -1.609142
13.804698 0.733702 -1.287828
13.661622 0.723032 -0.954709
13.664331 0.718342 -0.636076
-0.000912 -0.058709 -0.001961
13.781245 0.717633 0.002244
23.759300 1.271291 0.557798
23.769892 1.267618 1.115560
19.160387 1.003634 1.345858
-0.000912 -0.058709 -0.001961
17.443140 0.899110 2.046448
-0.000912 -0.058709 -0.001961
-0.000912 -0.058709 -0.001961
-0.000912 -0.058709 -0.001961
3.174221 0.109473 -1.886295
3.302745 0.115106 -1.859402
3.486048 0.124111 -1.857189
3.698060 0.133921 -1.860225
3.922588 0.144199 -1.860120
4.178189 0.155931 -1.863542
4.417478 0.167428 -1.848332
4.744172 0.182460 -1.855585
5.125736 0.200010 -1.868515
5.356914 0.210723 -1.812833
5.353986 0.208666 -1.673197
5.804261 0.229076 -1.666700
7.199948 0.296958 -1.887002
8.009977 0.334118 -1.899796
9.013383 0.380114 -1.917417
10.315909 0.439847 -1.944778
11.875771 0.567104 -1.952223
13.729772 0.659908 -1.930064
13.723551 0.657131 -1.602449
13.761197 0.654207 -1.283401
13.663883 0.644341 -0.954585
13.660474 0.641707 -0.635722
14.107103 0.659606 -0.325642
13.787477 0.638448 0.002229
23.778347 1.139263 0.558049
23.783133 1.131083 1.115810
-0.000908 -0.058605 -0.001958
17.041782 0.781812 1.595195
-0.000908 -0.058605 -0.001958
17.770330 0.808251 2.504094
17.967951 0.811516 2.959271
17.786041 0.799530 3.358762
3.154531 0.089771 -1.874060
3.305445 0.095697 -1.860382
3.494116 0.103858 -1.860943
3.695577 0.111903 -1.858435
3.916477 0.120703 -1.856701
4.175695 0.131802 -1.861918
4.422431 0.141474 -1.849877
4.745532 0.154392 -1.855589
5.129006 0.170677 -1.869202
5.358429 0.179019 -1.812838
5.363110 0.177328 -1.675582
5.832714 0.196918 -1.674415
7.209676 0.254650 -1.889035
8.010177 0.287985 -1.899346
9.027499 0.328779 -1.919919
10.320580 0.380602 -1.945160
11.889127 0.497186 -1.953856
13.719826 0.580276 -1.928136
13.697790 0.574405 -1.598996
13.767158 0.572733 -1.283603
13.663729 0.565544 -0.954325
13.662399 0.560632 -0.635647
14.119102 0.576345 -0.325842
13.793251 0.559227 0.002213
23.775051 0.997790 0.557782
23.799742 0.990466 1.116247
21.800346 0.898431 1.530620
18.359362 0.740902 1.718186
19.642099 0.789797 2.303292
17.830437 0.708361 2.511882
17.907604 0.705335 2.948529
17.739779 0.691903 3.349095
3.165635 0.072139 -1.880178
3.308027 0.076827 -1.861363
3.498521 0.083978 -1.862822
3.703647 0.091000 -1.862024
3.921064 0.098383 -1.858414
4.182195 0.108075 -1.864359
4.434565 0.116543 -1.854501
4.754126 0.127450 -1.858501
5.134006 0.141373 -1.870574
5.355914 0.148115 -1.811563
5.362457 0.146474 -1.674990
5.820631 0.162917 -1.670565
7.211357 0.213226 -1.889042
8.025648 0.242454 -1.902577
9.033483 0.277027 -1.920759
10.322937 0.321256 -1.945171
11.907916 0.429432 -1.956460
13.739100 0.501992 -1.930375
13.725024 0.496559 -1.601789
13.768565 0.493454 -1.283433
13.671075 0.487100 -0.954619
13.667718 0.482124 -0.635755
-0.000923 -0.058379 -0.001949
13.800594 0.480016 0.002196
23.800726 0.861703 0.558220
23.795420 0.853081 1.115746
-0.000923 -0.058379 -0.001949
18.355705 0.634942 1.717418
19.628807 0.676067 2.301170
-0.000923 -0.058379 -0.001949
-0.000923 -0.058379 -0.001949
17.773277 0.590878 3.354635
3.143982 0.053212 -1.866923
3.312240 0.057991 -1.863323
3.497522 0.063860 -1.861885
3.697285 0.069531 -1.858438
3.932743 0.076270 -1.863547
4.192243 0.083661 -1.868427
4.431815 0.090971 -1.852964
4.766275 0.100549 -1.862865
5.135101 0.111007 -1.870578
5.358897 0.117432 -1.812206
5.361645 0.115615 -1.674400
5.846816 0.129278 -1.677729
7.222456 0.172104 -1.891577
8.025352 0.194863 -1.902126
9.037260 0.223588 -1.921184
10.340721 0.260576 -1.948141
11.916425 0.361165 -1.957444
13.763948 0.421317 -1.933447
13.765719 0.418903 -1.606202
13.809344 0.415526 -1.286970
13.672078 0.405989 -0.954497
13.672602 0.403562 -0.635864
-0.000918 -0.058275 -0.001946
13.805539 0.398277 0.002180
23.781660 0.723902 0.557623
79.569344 2.530571 3.734526
-0.000918 -0.058275 -0.001946
-0.000918 -0.058275 -0.001946
19.454020 0.557445 2.280185
-0.000918 -0.058275 -0.001946
-0.000918 -0.058275 -0.001946
17.829775 0.490220 3.364626
3.135982 0.034403 -1.861826
3.304142 0.038193 -1.858428
3.501710 0.043313 -1.863764
3.701549 0.047795 -1.860234
3.926234 0.053503 -1.860130
4.189339 0.059508 -1.866804
4.434479 0.064814 -1.853738
4.767110 0.073195 -1.862868
5.141630 0.081677 -1.872633
5.357926 0.086616 -1.811571
5.360653 0.084777 -1.673810
5.836269 0.095396 -1.674430
7.225600 0.130652 -1.892091
8.038331 0.149051 -1.904896
9.054343 0.173608 -1.924516
10.340382 0.202866 -1.947784
11.940422 0.291162 -1.961020
14.178289 0.354104 -1.991238
13.760358 0.337079 -1.605294
14.196100 0.344576 -1.322729
13.676531 0.327379 -0.954654
13.677110 0.322560 -0.635975
-0.000914 -0.058172 -0.001943
13.803952 0.318736 0.002161
18.031553 0.427786 0.422233
18.058731 0.425287 0.845933
-0.000914 -0.058172 -0.001943
79.743019 2.034107 7.464251
19.365911 0.443105 2.269445
-0.000914 -0.058172 -0.001943
-0.000914 -0.058172 -0.001943
18.541885 0.405349 3.498494
3.139896 0.017066 -1.863867
3.304629 0.019838 -1.858429
3.502221 0.023857 -1.863765
3.703871 0.027264 -1.861133
3.932228 0.031118 -1.862697
4.191772 0.035522 -1.867620
4.451704 0.040516 -1.860674
4.769666 0.045867 -1.863600
5.147965 0.052301 -1.874686
5.362461 0.055933 -1.812855
5.365192 0.054091 -1.675004
5.835142 0.061836 -1.673885
7.234317 0.089284 -1.894123
8.039406 0.102836 -1.904906
9.069241 0.120250 -1.927432
10.333869 0.141457 -1.946316
11.950076 0.224761 -1.962328
14.212114 0.273263 -1.995701
13.760374 0.260271 -1.605080
14.108523 0.263346 -1.314412
13.674529 0.248617 -0.954393
-0.000909 -0.058068 -0.001939
-0.000909 -0.058068 -0.001939
13.807890 0.239367 0.002145
18.008005 0.326610 0.421599
18.025257 0.320615 0.844222
-0.000909 -0.058068 -0.001939
18.048464 0.308335 1.687712
18.103405 0.306198 2.121070
18.106802 0.299868 2.548887
17.636402 0.284334 2.901661
18.489244 0.297577 3.488084
3.142019 -0.001444 -1.864889
3.306792 0.000344 -1.859411
3.499114 0.003110 -1.861890
3.700742 0.005317 -1.859342
3.930874 0.007857 -1.861844
4.201375 0.011629 -1.871687
4.448512 0.014140 -1.859136
4.770185 0.017674 -1.863603
5.148530 0.022741 -1.874691
5.361166 0.024168 -1.812222
5.369596 0.022400 -1.676200
5.841496 0.028416 -1.675542
7.238916 0.046519 -1.895141
8.036302 0.056580 -1.903993
9.074029 0.068171 -1.928273
10.346657 0.082183 -1.948548
11.965357 0.154182 -1.964609
14.241507 0.191997 -1.999607
14.264540 0.187355 -1.663633
13.702003 0.172845 -1.276465
13.676064 0.169958 -0.954409
13.742526 0.166190 -0.638879
-0.000905 -0.057964 -0.001936
13.819366 0.160098 0.002131
23.803669 0.309210 0.557809
-0.000905 -0.057964 -0.001936
-0.000905 -0.057964 -0.001936
-0.000905 -0.057964 -0.001936
-0.000905 -0.057964 -0.001936
-0.000905 -0.057964 -0.001936
17.683477 0.183456 2.909109
21.100733 0.222649 3.980590
3.149160 -0.019343 -1.868968
3.322746 -0.018398 -1.868224
3.495868 -0.016977 -1.860015
3.704628 -0.015863 -1.861138
3.931195 -0.014688 -1.861847
4.199881 -0.012491 -1.870878
4.456224 -0.011292 -1.862220
4.779859 -0.009610 -1.867242
5.150782 -0.006792 -1.875379
5.369110 -0.006526 -1.814784
5.369973 -0.008428 -1.676205
5.843824 -0.005113 -1.676098
7.245193 0.004980 -1.896666
8.046550 0.010482 -1.906304
9.080472 0.016054 -1.929529
9.476588 0.015910 -1.784770
11.984120 0.085591 -1.967535
14.258544 0.110258 -2.001846
13.763152 0.099539 -1.605114
13.693151 0.093902 -1.275557
13.681149 0.091323 -0.954705
13.879434 0.088571 -0.645192
-0.000900 -0.057861 -0.001933
13.844397 0.080836 0.002120
23.807413 0.172198 0.557822
23.849800 0.164193 1.117365
79.883057 0.671533 5.607812
79.799278 0.642557 7.466879
-0.000900 -0.057861 -0.001933
-0.000900 -0.057861 -0.001933
17.635239 0.081307 2.900965
18.338869 0.080363 3.459105
3.142441 -0.037966 -1.864890
3.312469 -0.038082 -1.862351
3.497826 -0.037618 -1.860956
3.711956 -0.037700 -1.864727
3.942204 -0.037152 -1.866979
4.198252 -0.037322 -1.870068
4.450875 -0.037654 -1.859912
4.780052 -0.037033 -1.867245
5.156626 -0.037228 -1.877434
5.367426 -0.037354 -1.814149
5.379693 -0.039207 -1.679184
5.847870 -0.039672 -1.677205
7.253177 -0.036624 -1.898697
8.050714 -0.037164 -1.907235
9.086619 -0.036140 -1.930786
9.447376 -0.038630 -1.779235
-0.000917 -0.057735 -0.001927
14.273148 0.025824 -2.003809
13.837335 0.018379 -1.613692
13.697800 0.012759 -1.275945
13.685782 0.010250 -0.955001
13.975938 0.006758 -0.649653
13.841320 0.003652 -0.319274
-0.000917 -0.057735 -0.001927
23.824354 0.031074 0.558164
23.848707 0.026904 1.117238
-0.000917 -0.057735 -0.001927
79.829880 0.183081 7.469369
-0.000917 -0.057735 -0.001927
-0.000917 -0.057735 -0.001927
21.227417 -0.012513 3.492105
20.968935 -0.020482 3.955313
3.145952 -0.055417 -1.866931
3.317746 -0.056468 -1.865289
3.503181 -0.057049 -1.863773
3.712004 -0.058329 -1.864729
3.936846 -0.059765 -1.864417
4.203772 -0.061397 -1.872509
4.452773 -0.062417 -1.860686
4.774508 -0.064463 -1.865069
5.154789 -0.066829 -1.876755
5.369357 -0.068181 -1.814794
5.372087 -0.070086 -1.676809
5.855564 -0.073269 -1.679413
7.257061 -0.078323 -1.899718
8.052646 -0.083436 -1.907704
9.090488 -0.089964 -1.931626
9.447309 -0.094588 -1.779245
-0.000913 -0.057631 -0.001924
-0.000913 -0.057631 -0.001924
16.847193 -0.059059 -1.964248
13.694003 -0.063651 -1.275592
13.687950 -0.068483 -0.955158
13.764321 -0.071013 -0.639857
-0.000913 -0.057631 -0.001924
23.793053 -0.097554 0.004966
23.818470 -0.101872 0.557992
23.838802 -0.110333 1.116736
-0.000913 -0.057631 -0.001924
79.837883 -0.290606 7.469993
-0.000913 -0.057631 -0.001924
-0.000913 -0.057631 -0.001924
17.677105 -0.124884 2.907739
78.498955 -0.370349 14.811832
3.145915 -0.073990 -1.866933
3.319439 -0.076065 -1.866270
3.504870 -0.077734 -1.864712
3.713719 -0.080262 -1.865628
3.940364 -0.083038 -1.866128
4.203672 -0.085503 -1.872511
4.456357 -0.088768 -1.862230
4.785546 -0.092762 -1.869433
5.150888 -0.096389 -1.875392
-0.000908 -0.057528 -0.001921
5.387187 -0.101982 -1.681575
5.857296 -0.106910 -1.679969
7.260664 -0.121309 -1.900737
8.058181 -0.129755 -1.909093
9.096031 -0.142282 -1.932883
9.484284 -0.149255 -1.786281
9.498060 -0.109647 -1.559754
-0.000908 -0.057528 -0.001921
16.850870 -0.158958 -1.964734
13.705669 -0.144884 -1.276721
13.689641 -0.147227 -0.955313
13.704065 -0.152172 -0.637097
-0.000908 -0.057528 -0.001921
23.784433 -0.234447 0.004930
23.823784 -0.243160 0.558100
23.834087 -0.251681 1.116514
-0.000908 -0.057528 -0.001921
79.863113 -0.750606 7.472483
-0.000908 -0.057528 -0.001921
-0.000908 -0.057528 -0.001921
20.772646 -0.256232 3.417339
-0.000908 -0.057528 -0.001921
3.142325 -0.091970 -1.864895
3.314045 -0.095024 -1.863334
3.508224 -0.097857 -1.866591
3.711731 -0.101523 -1.864733
3.938346 -0.105611 -1.865276
4.203448 -0.109618 -1.872515
4.465334 -0.114450 -1.866085
4.785275 -0.120230 -1.869437
5.156204 -0.126017 -1.877446
5.376442 -0.130865 -1.817362
5.384934 -0.132885 -1.680985
5.860773 -0.140611 -1.681077
7.264055 -0.163088 -1.901757
8.063484 -0.176168 -1.910485
9.093430 -0.194540 -1.932478
10.397460 -0.217885 -1.958223
9.550884 -0.164843 -1.568504
-0.000904 -0.057424 -0.001917
13.737275 -0.219262 -1.602177
13.734798 -0.224080 -1.279516
13.694884 -0.226045 -0.955747
-0.000904 -0.057424 -0.001917
13.462409 -0.232710 -0.310662
23.801035 -0.371589 0.004901
23.832335 -0.380432 0.558300
23.860533 -0.389238 1.117795
-0.000904 -0.057424 -0.001917
79.861778 -1.210557 7.472737
-0.000904 -0.057424 -0.001917
-0.000904 -0.057424 -0.001917
78.402916 -1.259029 12.903909
78.489975 -1.288143 14.811596
3.152386 -0.110128 -1.871014
3.319008 -0.114101 -1.866274
3.504417 -0.117912 -1.864717
3.709635 -0.122772 -1.863839
3.939827 -0.128236 -1.866135
4.206724 -0.134531 -1.874144
4.463072 -0.140025 -1.865317
4.779244 -0.147585 -1.867261
5.163233 -0.156665 -1.880186
5.377813 -0.161758 -1.818006
5.378677 -0.163680 -1.679204
5.858247 -0.175244 -1.680531
7.267189 -0.204897 -1.902776
8.068463 -0.224023 -1.911875
9.102242 -0.248609 -1.934566
10.404186 -0.279649 -1.959715
12.060219 -0.262455 -1.980235
14.310863 -0.305794 -2.009440
16.862495 -0.353117 -1.966400
-0.000899 -0.057321 -0.001914
13.725572 -0.307804 -0.957989
-0.000899 -0.057321 -0.001914
23.764668 -0.503668 -0.547001
23.808737 -0.512904 0.004871
23.828070 -0.517541 0.558222
23.850246 -0.526424 1.117386
-0.000899 -0.057321 -0.001914
79.861526 -1.684556 7.473359
-0.000899 -0.057321 -0.001914
-0.000899 -0.057321 -0.001914
78.451653 -1.725420 12.913208
-0.000899 -0.057321 -0.001914
3.148587 -0.128665 -1.868977
3.318622 -0.133703 -1.866276
3.509295 -0.138729 -1.867534
3.714534 -0.144804 -1.866531
3.944775 -0.150955 -1.868703
4.208035 -0.158701 -1.874960
4.466203 -0.166504 -1.866862
4.793543 -0.175377 -1.873080
5.164437 -0.186339 -1.880873
5.373332 -0.192532 -1.816731
5.383691 -0.194696 -1.680994
5.867078 -0.209127 -1.683290
7.275899 -0.246913 -1.905315
8.071258 -0.270493 -1.912805
9.108848 -0.299549 -1.936237
10.406693 -0.337751 -1.960465
12.070624 -0.334189 -1.982192
14.321058 -0.388383 -2.011124
-0.000895 -0.057217 -0.001911
-0.000895 -0.057217 -0.001911
13.853549 -0.389866 -0.967039
14.033853 -0.399153 -0.652614
23.763689 -0.640473 -0.547079
23.797737 -0.649747 0.004834
23.832933 -0.659056 0.558374
23.853140 -0.663841 1.117633
76.407547 -2.027381 5.364615
79.885025 -2.131359 7.476410
-0.000895 -0.057217 -0.001911
-0.000895 -0.057217 -0.001911
78.441124 -2.163489 12.913092
78.511894 -2.193195 14.819147
3.151573 -0.146239 -1.871017
3.312911 -0.151981 -1.863340
3.507003 -0.158165 -1.866597
3.713986 -0.165446 -1.866533
3.940540 -0.173451 -1.866994
4.205534 -0.182761 -1.874149
4.461825 -0.191226 -1.865324
4.794633 -0.202929 -1.873810
5.157994 -0.215822 -1.878828
5.368686 -0.223267 -1.815457
5.386631 -0.225724 -1.682189
5.871867 -0.242993 -1.684948
7.272733 -0.288638 -1.904815
8.075731 -0.317065 -1.914196
9.113104 -0.353681 -1.937493
10.412713 -0.399666 -1.961958
12.082691 -0.401884 -1.984472
14.352563 -0.471726 -2.015865
-0.000890 -0.057113 -0.001907
21.970713 -0.703508 -2.046389
23.627375 -0.760624 -1.648191
23.742950 -0.768327 -1.102964
23.781929 -0.777913 -0.547617
23.803905 -0.786997 0.004805
23.835194 -0.792246 0.558483
23.849251 -0.801120 1.117600
73.651054 -2.380769 5.171758
-0.000890 -0.057113 -0.001907
-0.000890 -0.057113 -0.001907
-0.000890 -0.057113 -0.001907
78.427254 -2.628865 12.912971
-0.000890 -0.057113 -0.001907
3.152689 -0.164885 -1.872037
3.322732 -0.171888 -1.869216
3.506331 -0.178865 -1.866598
3.711504 -0.187328 -1.865640
3.941597 -0.196806 -1.867853
4.206585 -0.206964 -1.874966
4.472022 -0.218004 -1.869950
4.795546 -0.231343 -1.874541
5.164505 -0.245698 -1.881567
5.382736 -0.255567 -1.820579
5.387449 -0.257659 -1.682790
5.874547 -0.276861 -1.686056
7.278975 -0.331991 -1.906848
8.077990 -0.363621 -1.915127
9.126898 -0.406669 -1.940827
10.412531 -0.459615 -1.962341
12.092257 -0.473886 -1.986429
14.377656 -0.555257 -2.019774
16.872625 -0.647693 -1.968551
22.030195 -0.836046 -2.052349
23.622921 -0.896598 -1.648224
23.736309 -0.909031 -1.102905
23.769226 -0.918635 -0.547467
23.807306 -0.924291 0.004774
23.826401 -0.933426 0.558355
23.860397 -0.943135 1.118315
-0.000886 -0.057010 -0.001904
79.958801 -3.069111 7.485856
74.915588 -2.905689 8.786604
-0.000886 -0.057010 -0.001904
78.426956 -3.081085 12.915451
-0.000886 -0.057010 -0.001904
3.150304 -0.182873 -1.871019
3.323759 -0.190995 -1.870197
3.507340 -0.199029 -1.867539
3.717812 -0.208877 -1.869228
3.942532 -0.219479 -1.868711
4.211114 -0.231304 -1.877407
4.474709 -0.243813 -1.871495
4.798195 -0.259027 -1.876000
5.163329 -0.275336 -1.881571
5.379613 -0.286388 -1.819945
5.393832 -0.288910 -1.685176
5.878938 -0.310836 -1.687713
7.288857 -0.374304 -1.909891
8.083875 -0.410389 -1.916979
9.136465 -0.459651 -1.943330
10.412001 -0.519561 -1.962723
12.099512 -0.543818 -1.988063
14.396322 -0.638846 -2.022849
16.870924 -0.744849 -1.968805
22.081049 -0.965117 -2.057566
23.631657 -1.033130 -1.649230
23.750965 -1.046469 -1.103864
23.785847 -1.056346 -0.548005
23.805916 -1.061471 0.004741
23.812973 -1.070210 0.558133
23.844915 -1.080022 1.117813
-0.000905 -0.056887 -0.001899
76.353210 -3.373707 7.149765
75.277000 -3.353651 8.830965
-0.000905 -0.056887 -0.001899
78.473312 -3.535564 12.926049
-0.000905 -0.056887 -0.001899
3.151248 -0.200998 -1.872041
3.326426 -0.210205 -1.872158
3.509996 -0.219293 -1.869418
3.716884 -0.230192 -1.869231
3.945130 -0.242240 -1.870423
4.208182 -0.256103 -1.876598
4.475394 -0.269562 -1.872268
4.791374 -0.286295 -1.873824
5.161920 -0.305857 -1.881575
5.381979 -0.317442 -1.821228
-0.000901 -0.056784 -0.001896
5.879256 -0.345715 -1.688270
7.294641 -0.416562 -1.911923
8.091334 -0.458719 -1.919290
9.137813 -0.513946 -1.944171
10.418882 -0.581733 -1.964585
12.108340 -0.613948 -1.990021
14.416352 -0.725263 -2.026202
16.876600 -0.842362 -1.969985
22.145063 -1.095438 -2.064080
23.633413 -1.173619 -1.649820
23.738894 -1.182869 -1.103621
23.795683 -1.194007 -0.548407
23.809532 -1.203115 0.004708
23.844696 -1.209095 0.558991
23.860590 -1.218328 1.118809
-0.000901 -0.056784 -0.001896
-0.000901 -0.056784 -0.001896
-0.000901 -0.056784 -0.001896
-0.000901 -0.056784 -0.001896
78.500580 -4.003589 12.934047
-0.000901 -0.056784 -0.001896
3.153759 -0.219759 -1.874080
3.314992 -0.229281 -1.866283
3.507215 -0.239934 -1.868483
3.715797 -0.252150 -1.869234
3.938585 -0.264578 -1.867861
4.206966 -0.280238 -1.876601
4.466677 -0.295616 -1.869190
4.797394 -0.314168 -1.876734
5.166048 -0.335799 -1.883631
5.382286 -0.348445 -1.821873
5.396528 -0.351146 -1.686972
5.885165 -0.379888 -1.690479
7.290514 -0.458366 -1.911425
8.096663 -0.505648 -1.921142
9.133153 -0.564764 -1.943766
10.411858 -0.639588 -1.963858
12.118614 -0.686406 -1.992303
14.428087 -0.809007 -2.028443
16.881546 -0.942908 -1.971164
22.172310 -1.228516 -2.067261
23.636545 -1.310153 -1.650548
23.753727 -1.324793 -1.104674
23.806696 -1.331902 -0.548853
23.816504 -1.340878 0.004679
23.849426 -1.351129 0.559237
23.893396 -1.357810 1.120650
79.866386 -4.434072 5.613482
75.789024 -4.224226 7.100712
-0.000896 -0.056680 -0.001892
-0.000896 -0.056680 -0.001892
78.504913 -4.443438 12.938475
78.609467 -4.477201 14.854889
3.151085 -0.237177 -1.873062
3.322674 -0.248190 -1.871181
3.509641 -0.259602 -1.870360
3.721786 -0.273216 -1.872824
3.940967 -0.286676 -1.869573
4.212944 -0.304053 -1.879856
4.480019 -0.321336 -1.875357
4.803332 -0.341309 -1.879647
5.168152 -0.364765 -1.885002
5.378687 -0.378293 -1.821239
5.400499 -0.381508 -1.688761
5.883265 -0.412649 -1.690484
7.295873 -0.499439 -1.913456
8.101801 -0.551242 -1.922993
9.147754 -0.616747 -1.947514
10.418252 -0.698244 -1.965720
12.134605 -0.755114 -1.995555
14.443429 -0.890616 -2.031240
16.882290 -1.037436 -1.971882
22.231016 -1.356069 -2.073404
23.643122 -1.442866 -1.651555
23.758253 -1.458061 -1.105264
23.799215 -1.464758 -0.548887
23.822952 -1.474630 0.004648
23.841808 -1.484207 0.559205
79.811394 -4.849874 3.748730
-0.000892 -0.056576 -0.001889
-0.000892 -0.056576 -0.001889
80.297318 -4.950561 9.428100
-0.000892 -0.056576 -0.001889
78.500877 -4.883103 12.941928
-0.000892 -0.056576 -0.001889
3.148275 -0.255110 -1.872044
3.319778 -0.267113 -1.870203
3.501368 -0.279265 -1.866608
3.713329 -0.294078 -1.869238
3.937732 -0.309846 -1.868722
4.213232 -0.329068 -1.880672
4.478421 -0.347034 -1.875361
4.801549 -0.369695 -1.879650
5.168094 -0.395438 -1.885689
5.382342 -0.410465 -1.823163
5.398473 -0.413444 -1.688766
5.888730 -0.447970 -1.692694
7.298926 -0.543021 -1.914983
8.106483 -0.599720 -1.924845
9.144164 -0.672518 -1.947526
10.416101 -0.761901 -1.966104
12.152062 -0.826272 -1.999132
14.454031 -0.977211 -2.033482
16.882311 -1.134937 -1.972600
22.248997 -1.485644 -2.075844
23.646437 -1.583824 -1.652424
23.765730 -1.595806 -1.106039
23.816366 -1.607540 -0.549518
23.828077 -1.616781 0.004618
23.863136 -1.623379 0.559874
23.914698 -1.635253 1.122362
-0.000887 -0.056473 -0.001886
-0.000887 -0.056473 -0.001886
-0.000887 -0.056473 -0.001886
-0.000887 -0.056473 -0.001886
78.513283 -5.365421 12.948946
-0.000887 -0.056473 -0.001886
3.150471 -0.273923 -1.874085
3.315004 -0.286477 -1.868248
3.501752 -0.300068 -1.867550
3.715412 -0.316250 -1.871034
3.943356 -0.333599 -1.872144
4.213401 -0.353349 -1.881488
4.472940 -0.373242 -1.873824
4.794034 -0.397689 -1.877474
5.166070 -0.425110 -1.885695
5.380158 -0.442305 -1.823169
5.398169 -0.445515 -1.689367
5.884442 -0.481626 -1.692147
7.297833 -0.586363 -1.915497
8.103235 -0.646315 -1.924856
9.142404 -0.725211 -1.947952
10.425586 -0.822789 -1.968705
12.155152 -0.898820 -2.000443
14.466261 -1.061581 -2.036001
16.887505 -1.235836 -1.974012
22.303707 -1.622028 -2.081806
23.657131 -1.721290 -1.653847
23.780100 -1.738404 -1.107185
23.804747 -1.748606 -0.549507
23.846630 -1.755891 0.004591
23.869364 -1.765997 0.560216
-0.000883 -0.056369 -0.001882
-0.000883 -0.056369 -0.001882
74.080162 -5.428284 6.947947
-0.000883 -0.056369 -0.001882
-0.000883 -0.056369 -0.001882
78.540451 -5.821795 12.958569
-0.000883 -0.056369 -0.001882
3.152605 -0.292223 -1.876127
3.320570 -0.305980 -1.872166
3.503812 -0.320395 -1.869429
3.719205 -0.337954 -1.873727
3.945307 -0.356485 -1.873858
4.217081 -0.377921 -1.883930
4.476540 -0.399304 -1.876137
4.801282 -0.425914 -1.881114
5.173232 -0.455479 -1.889118
5.381615 -0.473471 -1.824453
5.393938 -0.476352 -1.688777
5.891472 -0.516153 -1.694907
7.298522 -0.628594 -1.916518
8.101624 -0.693017 -1.925324
9.142290 -0.778053 -1.948793
10.420993 -0.882722 -1.968718
12.163875 -0.969742 -2.002725
14.481971 -1.146436 -2.039078
16.908165 -1.335081 -1.977276
22.341972 -1.753990 -2.086284
23.665047 -1.858779 -1.655132
23.779974 -1.876013 -1.107683
23.816542 -1.887278 -0.550047
23.848412 -1.894043 0.004559
23.885029 -1.905357 0.560792
23.936432 -1.917867 1.124260
76.482323 -6.018181 5.383307
-0.000878 -0.056265 -0.001879
-0.000878 -0.056265 -0.001879
-0.000878 -0.056265 -0.001879
-0.000878 -0.056265 -0.001879
78.644478 -6.313010 14.884436
3.149465 -0.310129 -1.875108
3.315595 -0.324712 -1.870209
3.511032 -0.341182 -1.874123
3.717530 -0.359275 -1.873730
3.943505 -0.379098 -1.873860
4.216976 -0.402252 -1.884746
4.472667 -0.424842 -1.875372
4.799073 -0.453461 -1.881118
5.170846 -0.485165 -1.889123
5.379129 -0.504364 -1.824458
5.395235 -0.507629 -1.689973
5.890658 -0.550148 -1.695465
7.298938 -0.670825 -1.917536
8.103650 -0.740065 -1.926717
9.139928 -0.830765 -1.949219
10.427800 -0.943626 -1.970949
12.166270 -1.040315 -2.004035
14.487292 -1.230686 -2.040764
16.906441 -1.432812 -1.977992
22.395315 -1.887720 -2.092243
23.662247 -1.995618 -1.655723
23.798948 -2.015294 -1.109106
23.825537 -2.025987 -0.550541
23.857355 -2.032913 0.004530
23.874008 -2.042816 0.560755
-0.000898 -0.056143 -0.001874
76.498405 -6.462851 5.386827
-0.000898 -0.056143 -0.001874
-0.000898 -0.056143 -0.001874
-0.000898 -0.056143 -0.001874
78.580948 -6.735538 12.976835
-0.000898 -0.056143 -0.001874
3.147947 -0.328158 -1.875109
3.308778 -0.343252 -1.867273
3.502298 -0.360689 -1.870372
3.706802 -0.379789 -1.869247
3.937985 -0.401392 -1.872153
4.214932 -0.426446 -1.884750
4.470450 -0.450482 -1.875374
4.796690 -0.480981 -1.881121
5.170159 -0.515007 -1.889811
5.382125 -0.535744 -1.826383
5.398244 -0.539103 -1.691764
5.910692 -0.586028 -1.702080
7.297220 -0.712940 -1.918052
8.093762 -0.786106 -1.925344
9.143112 -0.883996 -1.950892
10.432305 -1.004465 -1.972812
12.176128 -1.111644 -2.006641
14.505927 -1.316229 -2.044395
16.906157 -1.530773 -1.978943
22.453848 -2.022679 -2.098761
23.662607 -2.132825 -1.656592
23.789272 -2.152427 -1.109235
23.827740 -2.164316 -0.550897
23.855530 -2.171083 0.004499
23.886051 -2.182309 0.561285
23.929323 -2.194701 1.124940
-0.000893 -0.056039 -0.001871
-0.000893 -0.056039 -0.001871
-0.000893 -0.056039 -0.001871
-0.000893 -0.056039 -0.001871
-0.000893 -0.056039 -0.001871
-0.000893 -0.056039 -0.001871
3.149766 -0.346510 -1.877151
3.324429 -0.363805 -1.877067
3.507504 -0.381397 -1.874127
3.710213 -0.401530 -1.871940
3.943120 -0.424630 -1.875576
4.214472 -0.451518 -1.885566
4.468112 -0.476128 -1.875378
4.801579 -0.509197 -1.884033
5.167345 -0.545576 -1.889816
5.390574 -0.567695 -1.830225
5.402976 -0.570810 -1.694150
5.909355 -0.621172 -1.702636
7.295239 -0.755041 -1.918566
8.102837 -0.835314 -1.928578
9.139998 -0.938342 -1.951320
10.434315 -1.067004 -1.974304
12.177699 -1.182370 -2.007951
14.494257 -1.401829 -2.043861
16.913206 -1.629492 -1.980818
22.515509 -2.158730 -2.105648
23.669710 -2.274960 -1.658016
23.808628 -2.292302 -1.110752
23.823147 -2.302167 -0.551115
23.860497 -2.314219 0.004466
23.901289 -2.322410 0.561907
23.932537 -2.333922 1.125653
-0.000889 -0.055936 -0.001867
78.094231 -7.544829 7.338359
-0.000889 -0.055936 -0.001867
-0.000889 -0.055936 -0.001867
-0.000889 -0.055936 -0.001867
-0.000889 -0.055936 -0.001867
3.147971 -0.365085 -1.877152
3.312129 -0.382398 -1.871193
3.505503 -0.402097 -1.874128
3.716991 -0.424320 -1.876428
3.944461 -0.448283 -1.877289
4.215754 -0.476041 -1.887195
4.467381 -0.502725 -1.876153
4.793255 -0.537030 -1.881858
5.171914 -0.575980 -1.892555
5.383677 -0.599200 -1.828952
5.397930 -0.602573 -1.693560
5.907902 -0.655283 -1.703193
7.298657 -0.799001 -1.920599
8.102085 -0.882266 -1.929509
9.144486 -0.991859 -1.953408
10.436151 -1.127797 -1.975798
12.178658 -1.255291 -2.009263
14.498082 -1.486342 -2.045547
16.935198 -1.732864 -1.984545
22.566042 -2.298501 -2.111610
23.676403 -2.413136 -1.659442
23.798916 -2.433843 -1.110973
23.843227 -2.446799 -0.551932
23.866993 -2.453514 0.004436
23.887413 -2.464100 0.561871
23.924564 -2.476415 1.125898
77.403168 -7.900973 5.459003
-0.000884 -0.055832 -0.001864
-0.000884 -0.055832 -0.001864
-0.000884 -0.055832 -0.001864
-0.000884 -0.055832 -0.001864
-0.000884 -0.055832 -0.001864
3.154697 -0.383999 -1.882252
3.320613 -0.402465 -1.877072
3.499937 -0.421812 -1.872254
3.714818 -0.445629 -1.876431
3.942146 -0.470903 -1.877293
4.213262 -0.500210 -1.887198
4.475740 -0.529504 -1.880779
4.797814 -0.565316 -1.884770
5.165080 -0.605250 -1.891192
5.382345 -0.630299 -1.829597
5.404183 -0.634568 -1.696542
5.915835 -0.690440 -1.706504
7.300031 -0.841551 -1.922125
8.099133 -0.929033 -1.929980
9.142827 -1.044827 -1.954249
10.441509 -1.189050 -1.978029
12.181355 -1.326338 -2.010898
14.517175 -1.572608 -2.049456
16.919331 -1.829657 -1.983875
22.653751 -2.438966 -2.121091
23.680275 -2.551241 -1.660726
23.812626 -2.573715 -1.112304
23.846960 -2.585895 -0.552380
23.864717 -2.592105 0.004405
23.900986 -2.604526 0.562493
23.947958 -2.618104 1.127643
-0.000880 -0.055728 -0.001861
-0.000880 -0.055728 -0.001861
-0.000880 -0.055728 -0.001861
-0.000880 -0.055728 -0.001861
-0.000880 -0.055728 -0.001861
-0.000880 -0.055728 -0.001861
3.147621 -0.401500 -1.879195
3.315092 -0.421099 -1.875115
3.504806 -0.442650 -1.876011
3.708943 -0.466511 -1.874639
3.934283 -0.492885 -1.874729
4.216082 -0.524980 -1.889641
4.469261 -0.554759 -1.879241
4.802204 -0.593668 -1.887682
5.169311 -0.635736 -1.893932
5.384597 -0.661829 -1.831522
5.396956 -0.665153 -1.695356
5.925438 -0.725901 -1.710365
7.295377 -0.883477 -1.922133
8.105573 -0.976884 -1.932753
9.140875 -1.097820 -1.955092
10.440675 -1.249749 -1.979153
12.179730 -1.397039 -2.011886
14.531831 -1.658712 -2.052811
16.924623 -1.928717 -1.985750
22.685169 -2.574354 -2.125386
23.689302 -2.690141 -1.662429
23.813614 -2.712502 -1.113081
23.849869 -2.725097 -0.552828
23.891445 -2.734096 0.004380
23.903780 -2.744047 0.562881
23.932806 -2.755896 1.127608
-0.000875 -0.055625 -0.001857
-0.000875 -0.055625 -0.001857
-0.000875 -0.055625 -0.001857
-0.000875 -0.055625 -0.001857
-0.000875 -0.055625 -0.001857
-0.000875 -0.055625 -0.001857
3.148997 -0.419919 -1.881236
3.316380 -0.440472 -1.877074
3.504277 -0.462932 -1.876952
3.710062 -0.488176 -1.876435
3.935300 -0.515866 -1.876444
4.207847 -0.548499 -1.887204
4.469986 -0.580826 -1.880786
4.800865 -0.621428 -1.888412
5.164011 -0.665173 -1.893253
5.379132 -0.692503 -1.830887
5.400935 -0.697021 -1.697742
5.890942 -0.756295 -1.701559
7.290475 -0.925371 -1.922141
8.103985 -1.023906 -1.933683
9.148309 -1.151973 -1.958010
10.441419 -1.310688 -1.980645
12.183550 -1.468412 -2.013844
14.526287 -1.742738 -2.053387
16.935261 -2.028602 -1.988321
22.735540 -2.712495 -2.131532
23.689589 -2.828301 -1.663577
23.821722 -2.852316 -1.114228
23.849974 -2.864195 -0.553230
23.887539 -2.872969 0.004348
23.923643 -2.885815 0.563690
23.934719 -2.895730 1.128414
-0.000871 -0.055521 -0.001854
-0.000871 -0.055521 -0.001854
-0.000871 -0.055521 -0.001854
-0.000871 -0.055521 -0.001854
-0.000871 -0.055521 -0.001854
-0.000871 -0.055521 -0.001854
3.143432 -0.437534 -1.879198
3.312381 -0.459259 -1.876097
3.496594 -0.482353 -1.874137
3.714614 -0.510313 -1.880026
3.943350 -0.539745 -1.881578
4.210398 -0.573314 -1.889648
4.474205 -0.607362 -1.883871
4.803069 -0.649651 -1.890598
5.156677 -0.694338 -1.891890
5.388536 -0.725009 -1.835371
5.397154 -0.728021 -1.697748
5.890628 -0.790590 -1.702667
7.291108 -0.967970 -1.923668
8.104065 -1.071192 -1.935075
9.147672 -1.205285 -1.959268
10.439870 -1.371451 -1.981768
12.169332 -1.537750 -2.012889
14.541887 -1.829396 -2.057019
-0.000866 -0.055418 -0.001851
22.822643 -2.855918 -2.141201
23.693026 -2.967037 -1.665002
23.815153 -2.990614 -1.114728
23.843334 -3.002651 -0.553496
23.892765 -3.013126 0.004317
23.897028 -3.022237 0.563419
23.941759 -3.036413 1.129502
-0.000866 -0.055418 -0.001851
-0.000866 -0.055418 -0.001851
-0.000866 -0.055418 -0.001851
-0.000866 -0.055418 -0.001851
-0.000866 -0.055418 -0.001851
-0.000866 -0.055418 -0.001851
3.142872 -0.455735 -1.880219
3.313447 -0.478665 -1.878057
3.494075 -0.502379 -1.874139
3.706609 -0.530914 -1.877337
3.935114 -0.561655 -1.879015
4.210957 -0.597910 -1.891277
4.469130 -0.632791 -1.883105
4.797708 -0.676958 -1.889874
5.162241 -0.725143 -1.895314
5.390221 -0.756663 -1.837295
5.404555 -0.760480 -1.701325
5.895829 -0.825652 -1.705428
7.289570 -1.010350 -1.924688
8.100019 -1.118011 -1.935546
9.146710 -1.258613 -1.960525
10.447698 -1.433507 -1.984740
12.170374 -1.608963 -2.014524
14.543200 -1.914515 -2.058706
-0.000886 -0.055295 -0.001846
22.873289 -2.995856 -2.147534
23.697634 -3.106156 -1.666567
23.821609 -3.130687 -1.115874
23.853720 -3.143428 -0.554174
23.893175 -3.152906 0.004286
23.911264 -3.163852 0.564135
23.938063 -3.175969 1.130122
-0.000886 -0.055295 -0.001846
-0.000886 -0.055295 -0.001846
-0.000886 -0.055295 -0.001846
-0.000886 -0.055295 -0.001846
-0.000886 -0.055295 -0.001846
-0.000886 -0.055295 -0.001846
3.143940 -0.474197 -1.882261
3.309241 -0.497418 -1.877081
3.496691 -0.523095 -1.876957
3.700275 -0.551685 -1.875547
3.935704 -0.584682 -1.880728
4.207666 -0.622789 -1.891281
4.467539 -0.658651 -1.883878
4.797746 -0.704980 -1.891333
5.160036 -0.755913 -1.896002
-0.000879 -0.055188 -0.001842
5.392828 -0.790453 -1.698949
5.902565 -0.862070 -1.708738
7.285855 -1.052472 -1.925202
8.101278 -1.167013 -1.937399
9.143291 -1.313306 -1.961368
10.439333 -1.495385 -1.984754
12.174924 -1.680761 -2.016807
14.543703 -2.002275 -2.060395
16.920292 -2.323515 -1.990939
22.909273 -3.134618 -2.152572
23.700865 -3.249561 -1.668133
23.821312 -3.270148 -1.116744
23.845453 -3.282015 -0.554440
23.904102 -3.298566 0.004257
23.944494 -3.308437 0.565317
23.941458 -3.316659 1.131117
-0.000879 -0.055188 -0.001842
-0.000879 -0.055188 -0.001842
-0.000879 -0.055188 -0.001842
-0.000879 -0.055188 -0.001842
46.619377 -6.481735 7.742211
42.925606 -5.980419 8.173930
3.141391 -0.492737 -1.882262
3.309995 -0.517414 -1.879040
3.495604 -0.543981 -1.877898
3.707882 -0.575016 -1.880931
3.934274 -0.608170 -1.881585
4.202512 -0.646651 -1.890471
4.465706 -0.685308 -1.884653
4.788264 -0.732550 -1.889156
5.157770 -0.785777 -1.896690
5.398526 -0.821832 -1.843063
5.397823 -0.823689 -1.701931
5.903530 -0.896767 -1.710396
7.285570 -1.096422 -1.926730
8.098586 -1.214098 -1.938329
9.137812 -1.366109 -1.961794
10.448372 -1.557896 -1.988096
12.176803 -1.754529 -2.018768
14.547933 -2.088093 -2.062638
16.932085 -2.427357 -1.993972
22.953697 -3.279279 -2.158536
23.713682 -3.390371 -1.670393
23.813704 -3.413038 -1.117338
23.863487 -3.428674 -0.555349
23.898882 -3.438062 0.004225
23.938616 -3.452331 0.565610
23.979055 -3.466751 1.133796
19.233173 -2.795076 1.361614
-0.000874 -0.055085 -0.001839
-0.000874 -0.055085 -0.001839
47.047310 -6.799971 6.690114
-0.000874 -0.055085 -0.001839
36.573517 -5.324901 6.969882
3.137103 -0.510467 -1.881244
3.312461 -0.537128 -1.881980
3.499722 -0.565027 -1.881655
3.703037 -0.595991 -1.880035
3.929239 -0.630461 -1.880733
4.206257 -0.671801 -1.893726
4.460186 -0.710657 -1.883887
4.787987 -0.760575 -1.890616
5.160904 -0.816463 -1.899429
5.409013 -0.855028 -1.848187
5.402754 -0.856070 -1.704913
5.906191 -0.931784 -1.712606
7.277536 -1.137981 -1.926233
8.097539 -1.261477 -1.939720
9.132055 -1.418916 -1.962222
10.449258 -1.619406 -1.989959
12.170701 -1.825094 -2.019431
14.553616 -2.174316 -2.065158
16.933874 -2.527043 -1.995849
23.017479 -3.423428 -2.166351
23.709871 -3.529116 -1.671541
23.835466 -3.556130 -1.119319
23.893116 -3.573243 -0.556533
23.910671 -3.580228 0.004196
21.479834 -3.229637 0.507719
19.204184 -2.900266 0.908402
-0.000870 -0.054981 -0.001836
-0.000870 -0.054981 -0.001836
-0.000870 -0.054981 -0.001836
47.037086 -7.075150 6.694221
44.896965 -6.772008 7.468314
36.383183 -5.511477 6.939420
3.139550 -0.529210 -1.884306
3.304447 -0.555306 -1.879044
3.489752 -0.584024 -1.877904
3.703409 -0.617759 -1.881833
3.929442 -0.653531 -1.882448
4.199021 -0.695362 -1.892103
4.458143 -0.736498 -1.884660
4.781991 -0.787748 -1.889893
5.152724 -0.845511 -1.898068
5.394951 -0.884626 -1.844993
5.398040 -0.887064 -1.704918
5.908648 -0.966862 -1.714816
7.278812 -1.180950 -1.928265
8.094312 -1.308596 -1.940652
9.131770 -1.472582 -1.963894
10.449787 -1.680974 -1.991822
12.172008 -1.896829 -2.021390
14.552925 -2.259793 -2.066847
16.937044 -2.627133 -1.997958
23.131580 -3.576229 -2.178986
23.719059 -3.670033 -1.673663
23.832674 -3.695978 -1.120189
23.868513 -3.710113 -0.556478
23.909731 -3.720824 0.004165
21.660791 -3.383874 0.512426
19.270399 -3.023497 0.912308
18.200626 -2.862056 1.290575
46.176617 -7.193511 4.369157
-0.000865 -0.054877 -0.001832
-0.000865 -0.054877 -0.001832
44.886787 -7.034957 7.473113
-0.000865 -0.054877 -0.001832
3.131652 -0.546370 -1.881247
3.301513 -0.574233 -1.879046
3.490126 -0.604556 -1.879783
3.703627 -0.639526 -1.883629
3.933076 -0.677184 -1.885872
4.198874 -0.720012 -1.893733
4.463254 -0.763508 -1.888516
4.786880 -0.816632 -1.893532
5.153644 -0.875953 -1.900123
5.405048 -0.917970 -1.850117
5.395047 -0.918343 -1.705519
5.895689 -0.999548 -1.712618
7.272216 -1.222766 -1.928274
8.088870 -1.355401 -1.941123
9.125375 -1.525358 -1.964321
10.444138 -1.741675 -1.992577
12.172894 -1.968649 -2.023349
14.563451 -2.347165 -2.070202
16.939592 -2.727315 -2.000065
23.173859 -3.719264 -2.184951
23.711634 -3.808673 -1.674672
23.854721 -3.839979 -1.122265
23.884581 -3.853397 -0.557387
23.911922 -3.862146 0.004134
20.950188 -3.398190 0.495974
18.848564 -3.069658 0.893079
-0.000861 -0.054774 -0.001829
46.063946 -7.447891 4.362379
-0.000861 -0.054774 -0.001829
44.782761 -7.266825 6.384565
46.081043 -7.492663 7.678918
35.607857 -5.815181 6.803597
3.125377 -0.563748 -1.879210
3.300202 -0.593431 -1.880029
3.488633 -0.624822 -1.880723
3.698429 -0.660454 -1.882735
3.931197 -0.700009 -1.886729
4.200260 -0.745703 -1.896176
4.455457 -0.788505 -1.886979
4.780580 -0.843793 -1.892810
5.146831 -0.906117 -1.899445
5.398113 -0.948675 -1.849482
5.408822 -0.952432 -1.711478
5.901365 -1.036318 -1.715930
7.272982 -1.265787 -1.930306
8.086777 -1.404244 -1.942516
9.120361 -1.580041 -1.965165
10.430056 -1.802859 -1.991850
12.177266 -2.041182 -2.025958
14.561308 -2.435355 -2.071890
16.943525 -2.827944 -2.002404
23.352793 -3.885449 -2.203886
23.718445 -3.954056 -1.676793
23.869970 -3.983374 -1.124062
23.899786 -3.996981 -0.558296
23.928360 -4.010403 0.004107
20.281605 -3.411311 0.480508
18.757982 -3.165982 0.889585
18.762905 -3.173639 1.332939
18.842070 -3.193657 1.785066
-0.000856 -0.054670 -0.001826
44.862247 -7.552934 6.402058
40.761497 -6.882400 6.798843
34.948021 -5.915098 6.683779
3.120600 -0.581897 -1.878192
3.293503 -0.612318 -1.878072
3.483463 -0.645129 -1.879788
3.694780 -0.682296 -1.882738
3.920291 -0.721332 -1.883312
4.192599 -0.769161 -1.894553
4.454663 -0.815452 -1.888524
4.777785 -0.871518 -1.893541
5.149251 -0.936914 -1.902185
-0.000876 -0.054548 -0.001821
-0.000876 -0.054548 -0.001821
5.893724 -1.069868 -1.715386
7.275426 -1.309203 -1.932845
8.078850 -1.450683 -1.942525
9.111693 -1.630852 -1.965176
10.431759 -1.863011 -1.994084
12.176932 -2.115277 -2.027917
14.559064 -2.521068 -2.073577
16.950260 -2.932328 -2.005207
23.412102 -4.037883 -2.211705
23.736895 -4.097538 -1.679749
23.861992 -4.127548 -1.124841
23.888512 -4.136500 -0.558609
21.368128 -3.713645 0.003444
20.316505 -3.540979 0.481790
18.859867 -3.294518 0.895269
-0.000876 -0.054548 -0.001821
-0.000876 -0.054548 -0.001821
48.584541 -8.445173 5.776092
43.848446 -7.643264 6.263410
41.156353 -7.184981 6.871193
34.898216 -6.113516 6.680758
3.120984 -0.599796 -1.880232
3.297209 -0.631804 -1.881991
3.485316 -0.665380 -1.882605
3.694721 -0.703428 -1.884534
3.928835 -0.745983 -1.889301
4.192008 -0.793828 -1.896182
4.450360 -0.840228 -1.888529
4.774830 -0.899246 -1.894272
5.144088 -0.966459 -1.902190
5.404249 -1.013577 -1.855252
-0.000871 -0.054444 -0.001817
5.889659 -1.104023 -1.715943
7.266163 -1.350638 -1.932347
8.080260 -1.498812 -1.944839
9.104100 -1.685137 -1.965604
10.422759 -1.925114 -1.994467
12.188541 -2.187227 -2.031817
14.558278 -2.607180 -2.075544
16.943708 -3.028572 -2.006389
23.377722 -4.166419 -2.210628
23.732872 -4.237556 -1.681176
23.872332 -4.266573 -1.126453
23.900045 -4.280188 -0.559472
21.703142 -3.899703 0.003499
19.812403 -3.568402 0.470223
20.241381 -3.651887 0.961919
18.706102 -3.385878 1.331483
18.677246 -3.387558 1.772903
-0.000871 -0.054444 -0.001817
42.530994 -7.667731 6.081268
36.632069 -6.625222 6.122005
35.245758 -6.383105 6.754116
3.109237 -0.616685 -1.875136
3.291997 -0.650938 -1.881013
3.478162 -0.685323 -1.880731
3.687286 -0.724601 -1.882743
3.919329 -0.768214 -1.886739
4.187700 -0.817875 -1.896187
4.454689 -0.868175 -1.892385
4.767912 -0.927138 -1.893551
5.140588 -0.996303 -1.902879
5.411520 -1.047931 -1.859737
5.401695 -1.048098 -1.714470
5.883526 -1.137836 -1.715950
7.258351 -1.393641 -1.932357
8.066073 -1.544169 -1.943467
9.100328 -1.738512 -1.966862
10.425338 -1.987520 -1.997070
12.183449 -2.260835 -2.033131
14.551119 -2.692301 -2.076676
-0.000867 -0.054340 -0.001814
23.401892 -4.313890 -2.215298
23.741749 -4.380166 -1.683576
23.872463 -4.412730 -1.127696
23.896172 -4.425801 -0.560015
21.839987 -4.053727 0.003505
18.719395 -3.489152 0.444631
18.590784 -3.472368 0.884257
-0.000867 -0.054340 -0.001814
18.066338 -3.385937 1.716624
-0.000867 -0.054340 -0.001814
42.513710 -7.917525 6.085103
36.224949 -6.767699 6.060249
34.830803 -6.522104 6.681756
3.107625 -0.634785 -1.876157
3.290207 -0.670101 -1.881994
3.467518 -0.703941 -1.876979
3.683378 -0.745736 -1.882746
3.918705 -0.791344 -1.888452
4.186802 -0.842536 -1.897815
4.444482 -0.892690 -1.890078
4.768282 -0.955507 -1.895736
5.136931 -1.026148 -1.903568
5.413146 -1.080386 -1.862301
5.397774 -1.079463 -1.715072
5.879062 -1.171952 -1.716506
7.250525 -1.435332 -1.932367
8.061176 -1.591228 -1.944399
9.100081 -1.792632 -1.968950
10.408245 -2.046336 -1.995975
12.180239 -2.332683 -2.034767
14.553217 -2.779252 -2.079199
16.958534 -3.235829 -2.012459
23.437632 -4.459915 -2.221079
23.739969 -4.521168 -1.685282
23.880331 -4.556340 -1.129308
23.921696 -4.572927 -0.561248
21.598442 -4.138102 0.003419
19.459566 -3.740840 0.462752
18.515852 -3.568879 0.881605
-0.000862 -0.054237 -0.001811
18.011648 -3.483145 1.713243
39.019932 -7.496664 4.653188
42.747856 -8.215656 6.125184
36.579174 -7.051407 6.126109
32.376366 -6.259376 6.217496
3.105921 -0.652901 -1.877179
3.290029 -0.689599 -1.883954
3.472389 -0.725473 -1.881674
3.689854 -0.768870 -1.888130
3.910838 -0.813103 -1.886744
4.183864 -0.867632 -1.898634
4.441388 -0.918525 -1.890852
4.755707 -0.981438 -1.892833
5.134746 -1.057222 -1.904939
5.407135 -1.111440 -1.862306
5.403015 -1.112628 -1.718649
5.876103 -1.207463 -1.717615
7.246228 -1.477697 -1.933386
8.055720 -1.639678 -1.945330
9.104953 -1.849527 -1.972285
10.403953 -2.109486 -1.997469
12.166899 -2.402690 -2.034783
14.548442 -2.867709 -2.080887
16.978941 -3.340913 -2.017114
23.529161 -4.617477 -2.232234
23.752209 -4.669480 -1.688100
23.893236 -4.701350 -1.131200
23.930599 -4.717418 -0.562112
-0.000858 -0.054133 -0.001807
-0.000858 -0.054133 -0.001807
17.895363 -3.557909 0.852924
-0.000858 -0.054133 -0.001807
-0.000858 -0.054133 -0.001807
40.364143 -7.994166 4.818858
37.714645 -7.486881 5.409956
35.491524 -7.061850 5.950706
35.207104 -7.012279 6.768775
3.104015 -0.671567 -1.878201
3.281068 -0.707985 -1.881019
3.476993 -0.747686 -1.886368
3.690801 -0.791698 -1.890824
3.911591 -0.837268 -1.889314
4.184321 -0.893409 -1.901076
4.437995 -0.945131 -1.891627
4.761086 -1.011749 -1.897200
5.130546 -1.087946 -1.905629
5.410065 -1.145287 -1.865512
5.404127 -1.146088 -1.721037
5.876707 -1.243744 -1.719826
7.245253 -1.522122 -1.935421
8.053796 -1.688904 -1.947183
9.088378 -1.902250 -1.971051
10.399283 -2.172667 -1.998964
12.164380 -2.477077 -2.036745
