# This PCD file was generated using the MATLAB® pcwrite function
# from Computer Vision Toolbox®.
# .PCD v.7 - Point Cloud Data file format
VERSION .7
FIELDS x y z
SIZE 4 4 4
TYPE F F F
COUNT 1 1 1
WIDTH 1610
HEIGHT 1
VIEWPOINT 0 0 0 1 0 0 0
POINTS 1610
DATA ascii
8.631376 -7.065482 -2.098524
10.183650 -8.260392 -2.152073
12.283548 -9.958029 -2.220977
10.607694 -8.612022 -1.594536
-0.000505 -0.045446 -0.001379
-0.000505 -0.045446 -0.001379
13.864584 -11.262891 -0.834421
13.873858 -11.274660 -0.417130
13.893771 -11.299063 -0.002729
13.895324 -11.308619 0.412554
13.909830 -11.324662 0.832412
18.968540 -15.437860 1.704963
19.042690 -15.503901 2.285056
17.385353 -14.168947 2.616344
18.868286 -15.384913 3.414300
17.892426 -14.597111 3.785938
17.895899 -14.610667 4.344224
0.452796 -0.414899 -0.348284
0.477755 -0.435533 -0.348231
2.777923 -2.313051 -1.908646
2.947943 -2.453605 -1.913114
3.141566 -2.613655 -1.922653
3.373715 -2.805456 -1.942663
3.585672 -2.979964 -1.937331
3.853591 -3.201537 -1.947041
4.156691 -3.452268 -1.958151
4.491917 -3.728399 -1.964790
4.892353 -4.059650 -1.976782
5.367808 -4.452981 -1.993678
5.492462 -4.557047 -1.862827
5.861229 -4.863482 -1.799876
7.481031 -6.199428 -2.061299
8.589551 -7.116463 -2.098550
10.146783 -8.324519 -2.154049
12.218578 -10.022243 -2.219622
10.598144 -8.702443 -1.600371
10.627074 -8.732461 -1.283049
-0.000501 -0.045342 -0.001376
13.865111 -11.391914 -0.838290
13.878563 -11.411276 -0.419269
13.899881 -11.437104 -0.002780
13.898702 -11.440456 0.414501
13.911077 -11.458986 0.836367
18.416998 -15.166943 1.663094
18.044384 -14.871900 2.175659
-0.000501 -0.045342 -0.001376
17.635532 -14.552120 3.206152
17.929178 -14.804502 3.812131
17.914911 -14.798359 4.369337
0.457250 -0.422966 -0.353386
0.478105 -0.440466 -0.350188
2.775321 -2.338400 -1.916167
2.933577 -2.470937 -1.913120
3.129046 -2.634450 -1.924372
3.357739 -2.824720 -1.942670
3.572463 -3.004621 -1.939654
3.837653 -3.226619 -1.948507
4.142795 -3.480853 -1.960900
4.467051 -3.752454 -1.963520
4.871387 -4.090950 -1.977988
5.334937 -4.477578 -1.990936
5.507253 -4.624089 -1.877030
5.834877 -4.898298 -1.800354
7.448463 -6.244806 -2.062153
8.538100 -7.156900 -2.095982
10.108130 -8.393279 -2.156353
10.652390 -8.846086 -1.944499
10.589456 -8.800517 -1.606904
10.599887 -8.815577 -1.286057
-0.000497 -0.045238 -0.001373
13.872927 -11.536327 -0.842908
13.878618 -11.549478 -0.421365
13.900248 -11.571763 -0.002830
13.909301 -11.587727 0.416816
13.915335 -11.601208 0.840694
18.470795 -15.389942 1.675856
-0.000497 -0.045238 -0.001373
17.903172 -14.940230 2.720231
18.340248 -15.309626 3.350196
-0.000497 -0.045238 -0.001373
17.698732 -14.797337 4.337815
0.449777 -0.421069 -0.349302
0.465118 -0.434170 -0.342348
0.495381 -0.459611 -0.345076
2.919556 -2.487687 -1.913126
3.114554 -2.651794 -1.924381
3.345896 -2.847446 -1.945121
3.552530 -3.022676 -1.938121
3.822679 -3.250288 -1.949971
4.124365 -3.505754 -1.961594
4.452080 -3.782115 -1.966093
4.851626 -4.120435 -1.979192
5.310789 -4.509361 -1.991503
5.508245 -4.677083 -1.886165
5.803845 -4.929210 -1.799448
7.419709 -6.291248 -2.063838
8.492253 -7.199318 -2.094526
10.085618 -8.472764 -2.161898
10.695724 -8.985927 -1.961798
10.578472 -8.894397 -1.612971
10.598048 -8.917269 -1.292040
-0.000490 -0.045132 -0.001370
13.875413 -11.673671 -0.847151
13.895340 -11.694766 -0.423874
13.907189 -11.713235 -0.002883
13.909973 -11.724113 0.418808
13.922493 -11.739034 0.845022
18.679937 -15.746286 1.702970
-0.000490 -0.045132 -0.001370
-0.000490 -0.045132 -0.001370
17.912680 -15.129131 3.287825
17.997620 -15.206376 3.862897
17.808424 -15.057985 4.385140
0.448982 -0.424583 -0.350320
0.465615 -0.438917 -0.344307
0.482269 -0.453146 -0.337562
2.908598 -2.506160 -1.914928
3.096706 -2.667234 -1.922675
3.328279 -2.865364 -1.944314
3.540046 -3.045927 -1.940441
3.808407 -3.275758 -1.952163
4.102930 -3.528131 -1.960921
4.430480 -3.807586 -1.966105
4.830986 -4.150684 -1.980397
5.292305 -4.545993 -1.994274
5.513896 -4.736208 -1.897327
5.774122 -4.961182 -1.799002
7.388470 -6.340135 -2.065525
8.469069 -7.266040 -2.099367
10.053468 -8.541595 -2.165172
10.588110 -8.999965 -1.951527
10.571328 -8.989147 -1.619501
10.590898 -9.012249 -1.297278
10.775202 -9.174960 -0.990186
13.852932 -11.787052 -0.849807
13.875287 -11.814595 -0.425362
13.887020 -11.833150 -0.002931
13.893319 -11.842933 0.420245
13.892960 -11.851250 0.847304
18.374908 -15.671271 1.683263
18.034275 -15.392798 2.205927
17.931223 -15.310845 2.750528
17.626516 -15.062404 3.251050
17.548403 -15.006772 3.785386
17.742632 -15.178070 4.390264
0.455869 -0.434950 -0.357460
0.457965 -0.437031 -0.340386
0.486563 -0.461652 -0.342257
2.896644 -2.525593 -1.916729
3.083844 -2.687821 -1.924395
3.313365 -2.885573 -1.945135
3.519372 -3.064374 -1.938908
3.787764 -3.296991 -1.951447
4.085664 -3.554058 -1.962301
4.408061 -3.833698 -1.966117
4.807987 -4.180423 -1.981007
5.261910 -4.572529 -1.992634
5.506485 -4.786412 -1.904436
5.744253 -4.992995 -1.798558
7.355040 -6.385024 -2.066378
8.433294 -7.319730 -2.100874
10.007353 -8.604833 -2.166176
10.578483 -9.096738 -1.959357
10.610120 -9.130435 -1.633695
10.582871 -9.113709 -1.302891
10.751226 -9.261437 -0.992873
14.149972 -12.183736 -0.872441
14.158689 -12.200072 -0.436264
14.217943 -12.255526 -0.003021
-0.000481 -0.044924 -0.001365
18.718199 -16.143728 1.147800
-0.000481 -0.044924 -0.001365
17.845982 -15.410543 2.193620
-0.000481 -0.044924 -0.001365
17.776791 -15.367887 3.294943
17.808661 -15.406549 3.860514
17.607897 -15.244451 4.379102
0.445826 -0.430731 -0.351338
0.457013 -0.440697 -0.341363
0.492164 -0.471274 -0.347890
2.880970 -2.540971 -1.915840
3.068559 -2.705427 -1.924402
3.294203 -2.902122 -1.943517
3.501932 -3.084502 -1.938918
3.771783 -3.321094 -1.952912
4.065382 -3.577425 -1.962311
4.386181 -3.858932 -1.966130
4.786950 -4.210435 -1.982211
5.238637 -4.605174 -1.993751
5.503888 -4.839551 -1.913066
5.717122 -5.027170 -1.799035
7.319868 -6.428461 -2.066815
8.395701 -7.371960 -2.102011
9.960879 -8.664813 -2.166856
10.601036 -9.222215 -1.973315
10.593657 -9.222511 -1.639299
10.580104 -9.217441 -1.309059
10.743182 -9.362315 -0.997097
14.106977 -12.288488 -0.874165
-0.000477 -0.044821 -0.001362
14.186648 -12.371217 -0.003071
18.271990 -15.932288 0.558598
18.120262 -15.811832 1.116591
18.455553 -16.109594 1.707391
-0.000477 -0.044821 -0.001362
20.208775 -17.661268 3.131321
17.673323 -15.456887 3.292106
17.325869 -15.164890 3.774581
18.095943 -15.848404 4.523025
0.437102 -0.427507 -0.346233
0.456052 -0.444375 -0.342343
0.495009 -0.478646 -0.351645
2.865191 -2.556233 -1.914948
3.051816 -2.721755 -1.923552
3.279920 -2.923919 -1.945152
3.485746 -3.105729 -1.939697
3.752849 -3.342662 -1.952921
4.045748 -3.602616 -1.963006
4.366976 -3.886527 -1.967422
4.757152 -4.232794 -1.979841
5.211483 -4.636076 -1.993766
5.496481 -4.888961 -1.920173
5.688901 -5.062179 -1.799512
7.287727 -6.476861 -2.068502
8.352063 -7.421537 -2.102037
9.922948 -8.732337 -2.169482
10.677483 -9.399710 -1.997860
10.600372 -9.335633 -1.648616
10.585490 -9.329332 -1.316345
10.731186 -9.463960 -1.001182
14.109802 -12.434027 -0.878784
14.133409 -12.463773 -0.439942
14.195850 -12.527700 -0.003126
18.202694 -16.056955 0.559235
21.793146 -19.229187 1.349912
17.933235 -15.842856 1.667623
17.599392 -15.560023 2.185339
19.199667 -16.977104 2.989898
17.385553 -15.388395 3.255331
17.468088 -15.472430 3.825402
19.175625 -16.986830 4.817211
0.438699 -0.433419 -0.349293
0.449753 -0.443497 -0.339401
0.491111 -0.480306 -0.350705
2.851565 -2.574269 -1.915852
3.034531 -2.738519 -1.922705
3.261416 -2.942020 -1.944347
3.470266 -3.128699 -1.941247
3.737372 -3.368470 -1.955113
4.025960 -3.627706 -1.963701
4.346931 -3.914788 -1.968714
4.739335 -4.267187 -1.982833
5.187023 -4.669381 -1.994884
5.503744 -4.953588 -1.932857
5.657575 -5.094452 -1.799068
-0.000492 -0.044595 -0.001354
8.321336 -7.482659 -2.105398
9.874158 -8.793567 -2.170161
10.581762 -9.427317 -1.990373
10.628267 -9.472075 -1.661649
-0.000492 -0.044595 -0.001354
-0.000492 -0.044595 -0.001354
14.104712 -12.578458 -0.883122
14.134174 -12.613749 -0.442318
14.206707 -12.687409 -0.003184
21.551222 -19.230379 0.665779
18.201687 -16.260307 1.133118
17.822817 -15.934297 1.666030
17.579834 -15.729043 2.194375
18.955091 -16.962313 2.967322
-0.000492 -0.044595 -0.001354
17.413027 -15.608585 3.833446
17.836700 -15.993225 4.504402
0.439085 -0.438054 -0.351332
0.452718 -0.450554 -0.343319
0.493911 -0.487636 -0.354458
2.832069 -2.585275 -1.912268
3.022130 -2.757738 -1.924423
3.251976 -2.966187 -1.948423
3.451612 -3.146690 -1.940484
3.714596 -3.385448 -1.952939
4.005883 -3.650027 -1.963710
4.326648 -3.940161 -1.969365
4.715676 -4.293485 -1.982845
5.151113 -4.689158 -1.991037
5.515038 -5.019134 -1.946553
5.629279 -5.125860 -1.799083
-0.000485 -0.044488 -0.001351
8.294231 -7.542081 -2.109125
9.829558 -8.852431 -2.171163
10.657475 -9.601188 -2.014636
-0.000485 -0.044488 -0.001351
10.588980 -9.550200 -1.330357
-0.000485 -0.044488 -0.001351
14.110286 -12.725041 -0.887927
14.141059 -12.761903 -0.444784
14.219123 -12.841364 -0.003237
18.999285 -17.149633 0.589675
-0.000485 -0.044488 -0.001351
17.684893 -15.989378 1.661380
17.901533 -16.196390 2.245729
19.721537 -17.845110 3.102812
17.021025 -15.418820 3.219897
17.513266 -15.874887 3.874871
20.861332 -18.908201 5.294900
0.438023 -0.441706 -0.352351
0.452884 -0.455473 -0.345277
0.499135 -0.497587 -0.360092
2.822232 -2.606739 -1.915865
3.001954 -2.771866 -1.921862
3.229686 -2.979848 -1.945176
3.439963 -3.173220 -1.944348
3.697454 -3.409833 -1.954404
3.986434 -3.674197 -1.964405
4.304858 -3.966944 -1.970018
4.691786 -4.322575 -1.983454
5.121416 -4.716041 -1.989947
5.525426 -5.088185 -1.960756
5.609972 -5.167274 -1.802327
6.389882 -5.883634 -1.842248
8.248009 -7.586967 -2.108409
9.784425 -8.917126 -2.172816
-0.000481 -0.044384 -0.001348
10.586639 -9.655094 -1.672394
10.595767 -9.670342 -1.338388
-0.000481 -0.044384 -0.001348
14.119048 -12.885067 -0.893295
-0.000481 -0.044384 -0.001348
14.245749 -13.014497 -0.003294
18.758530 -17.135393 0.585268
18.021107 -16.475416 1.133468
-0.000481 -0.044384 -0.001348
17.728792 -16.226620 2.235651
18.889536 -17.298555 2.987859
18.560995 -17.004787 3.529697
19.345816 -17.734697 4.302872
17.511194 -16.068705 4.468390
0.431927 -0.440634 -0.349289
0.447931 -0.455609 -0.343315
0.487411 -0.491989 -0.353517
2.807431 -2.622849 -1.915871
2.986184 -2.789001 -1.921869
3.216743 -3.001994 -1.947623
3.425954 -3.196624 -1.946669
3.676638 -3.429711 -1.953686
3.966837 -3.698259 -1.965099
4.284966 -3.994125 -1.971309
4.667066 -4.349423 -1.983467
5.094426 -4.745359 -1.989962
5.519018 -5.140816 -1.968878
5.570376 -5.190163 -1.799114
6.366191 -5.929524 -1.845178
8.210201 -7.639580 -2.109915
9.738973 -8.978561 -2.174143
11.681951 -10.764908 -2.231412
10.589617 -9.769536 -1.681711
10.600252 -9.786338 -1.346044
-0.000477 -0.044281 -0.001345
14.125725 -13.040459 -0.898474
-0.000477 -0.044281 -0.001345
14.263486 -13.181572 -0.003351
18.339289 -16.947645 0.575133
17.390150 -16.084423 1.099482
19.102762 -17.670605 1.813530
21.263691 -19.678642 2.695827
19.064148 -17.660408 3.031433
17.446407 -16.171576 3.335218
-0.000477 -0.044281 -0.001345
18.904226 -17.544415 4.849538
0.424582 -0.438328 -0.345205
0.445549 -0.458072 -0.343313
0.491283 -0.500682 -0.358210
2.791204 -2.637644 -1.914979
2.975635 -2.810985 -1.925300
3.198308 -3.019122 -1.946817
3.406381 -3.214937 -1.945906
3.661163 -3.454533 -1.955878
3.945729 -3.720946 -1.965109
4.263526 -4.019925 -1.971960
4.642190 -4.376123 -1.983479
5.065866 -4.773215 -1.989425
5.526333 -5.206754 -1.982068
5.544910 -5.226038 -1.800513
6.329324 -5.963310 -1.844364
8.170625 -7.690670 -2.111051
9.688786 -9.035728 -2.174495
11.611299 -10.823818 -2.229776
10.601840 -9.893811 -1.692655
10.597940 -9.897297 -1.352959
-0.000470 -0.044174 -0.001342
14.138365 -13.203144 -0.904119
-0.000470 -0.044174 -0.001342
14.290030 -13.358845 -0.003410
18.270868 -17.080135 0.576001
18.372574 -17.187334 1.167842
17.463671 -16.345331 1.666647
17.931232 -16.793837 2.285275
-0.000470 -0.044174 -0.001342
16.930834 -15.876686 3.253948
17.611851 -16.525400 3.958955
18.912174 -17.755001 4.877605
0.429825 -0.447717 -0.351325
0.439358 -0.456959 -0.340373
0.491234 -0.505830 -0.360088
2.781438 -2.658477 -1.918576
2.955679 -2.824246 -1.922738
3.183784 -3.039895 -1.948452
3.386734 -3.233148 -1.945145
3.642808 -3.476728 -1.956614
3.925840 -3.744786 -1.965802
4.239183 -4.043014 -1.971331
4.619938 -4.405307 -1.984683
5.037144 -4.800883 -1.988886
5.531657 -5.271611 -1.994750
5.531929 -5.273819 -1.806064
6.293715 -5.998224 -1.843966
8.130716 -7.741540 -2.112185
9.635410 -9.089941 -2.174201
11.557670 -10.898533 -2.231482
10.605726 -10.011737 -1.702438
10.599026 -10.012627 -1.360430
-0.000465 -0.044070 -0.001339
14.159815 -13.376014 -0.910420
-0.000465 -0.044070 -0.001339
14.329544 -13.550561 -0.003471
21.055359 -19.904165 0.667520
18.219791 -17.242023 1.164345
18.431377 -17.448198 1.768557
-0.000465 -0.044070 -0.001339
-0.000465 -0.044070 -0.001339
17.229284 -16.342667 3.329269
-0.000465 -0.044070 -0.001339
17.158985 -16.299601 4.449354
0.423744 -0.446525 -0.348262
0.440763 -0.462977 -0.343310
0.486004 -0.506111 -0.358208
2.766325 -2.674340 -1.918581
2.944847 -2.846095 -1.926167
3.164612 -3.057363 -1.947645
3.368311 -3.252497 -1.945153
3.624327 -3.498837 -1.957351
3.907891 -3.771805 -1.967865
4.222926 -4.073793 -1.974544
4.591989 -4.429108 -1.983504
5.006036 -4.827923 -1.987797
-0.000485 -0.043948 -0.001335
5.524708 -5.329321 -1.813923
6.251215 -6.028604 -1.841905
8.089147 -7.793619 -2.113321
9.588858 -9.150600 -2.175526
11.498800 -10.972283 -2.232633
10.605719 -10.127287 -1.711756
10.597700 -10.126932 -1.367715
10.936411 -10.456676 -1.058975
14.188384 -13.557809 -0.917279
-0.000485 -0.043948 -0.001335
26.744690 -25.553501 -0.005429
21.133022 -20.208569 0.673599
18.074194 -17.302410 1.161315
20.451139 -19.586084 1.973533
20.860281 -19.991394 2.688201
-0.000485 -0.043948 -0.001335
19.128136 -18.355072 3.717198
17.105841 -16.431011 3.887883
-0.000485 -0.043948 -0.001335
0.418882 -0.446554 -0.346220
0.438271 -0.465481 -0.343309
0.479437 -0.505214 -0.355389
2.748081 -2.688123 -1.916792
2.924260 -2.859658 -1.923607
3.148517 -3.076699 -1.948466
3.349202 -3.272319 -1.945161
3.601068 -3.517584 -1.955904
3.889058 -3.796757 -1.969244
4.197576 -4.097364 -1.973915
4.567251 -4.457497 -1.984112
4.989457 -4.867260 -1.992222
-0.000481 -0.043844 -0.001332
-0.000481 -0.043844 -0.001332
6.213820 -6.061675 -1.841090
8.048620 -7.844087 -2.114457
9.543187 -9.215447 -2.177503
11.444233 -11.046459 -2.234339
10.602957 -10.245030 -1.721076
10.603673 -10.253067 -1.376305
-0.000481 -0.043844 -0.001332
14.221604 -13.751203 -0.924704
-0.000481 -0.043844 -0.001332
-0.000481 -0.043844 -0.001332
20.592978 -19.927959 0.660042
18.034710 -17.470354 1.165344
18.338511 -17.770473 1.779305
17.487379 -16.959934 2.265807
17.128668 -16.624891 2.783803
19.749413 -19.168867 3.859259
17.169928 -16.682976 3.924120
18.095129 -17.592192 4.744938
0.420257 -0.452451 -0.349279
0.435822 -0.467881 -0.343306
0.476760 -0.507853 -0.355387
2.741787 -2.712540 -1.923082
2.914475 -2.882664 -1.927894
3.127088 -3.090870 -1.946034
3.333197 -3.294031 -1.946711
3.585002 -3.542069 -1.958096
3.868733 -3.820310 -1.969939
4.175501 -4.122685 -1.974565
4.544483 -4.486297 -1.985317
4.962973 -4.897166 -1.992788
5.492119 -5.418455 -2.014051
-0.000476 -0.043741 -0.001329
6.179053 -6.097260 -1.841107
8.013387 -7.899842 -2.117074
9.493026 -9.272896 -2.178179
11.393439 -11.124506 -2.236880
10.602398 -10.362631 -1.730627
10.600330 -10.368047 -1.383591
-0.000476 -0.043741 -0.001329
25.886435 -25.282949 -1.691538
-0.000476 -0.043741 -0.001329
21.320913 -20.854336 -0.004770
20.762770 -20.324156 0.669169
20.268534 -19.855667 1.317146
19.293179 -18.909294 1.882455
17.372583 -17.043543 2.263527
17.918573 -17.590435 2.928560
16.749855 -16.452084 3.291283
16.983629 -16.693069 3.903330
16.872734 -16.596277 4.449192
0.421572 -0.458373 -0.352338
0.434624 -0.471513 -0.344285
0.467795 -0.504304 -0.350690
2.719989 -2.721909 -1.918599
2.890350 -2.891685 -1.922765
3.106865 -3.106150 -1.944412
3.314405 -3.313058 -1.946718
3.562132 -3.559932 -1.956648
3.846911 -3.842421 -1.969948
4.150580 -4.145223 -1.973935
4.520160 -4.513622 -1.985923
4.933548 -4.924195 -1.992248
5.459691 -5.448529 -2.013559
5.512764 -5.503091 -1.840726
6.141306 -6.129890 -1.840292
7.963816 -7.941607 -2.115986
9.446760 -9.334244 -2.179831
9.941601 -9.824512 -1.963072
9.994955 -9.884080 -1.640802
10.600281 -10.487529 -1.391436
10.787569 -10.675985 -1.062288
-0.000472 -0.043637 -0.001326
-0.000472 -0.043637 -0.001326
-0.000472 -0.043637 -0.001326
19.817841 -19.625391 0.642226
23.494024 -23.274401 1.535563
19.347338 -19.181345 1.898413
17.263081 -17.132013 2.261989
17.855330 -17.730980 2.934771
-0.000472 -0.043637 -0.001326
16.646450 -16.551491 3.847548
16.752035 -16.668163 4.442478
0.414294 -0.455837 -0.348255
0.425963 -0.467748 -0.339383
0.468892 -0.510624 -0.353506
2.712121 -2.744999 -1.923991
2.875178 -2.909460 -1.923627
3.093058 -3.127761 -1.946861
3.292912 -3.329390 -1.945184
3.544459 -3.582922 -1.958113
3.824955 -3.864406 -1.969957
4.129578 -4.171640 -1.975227
4.494348 -4.539487 -1.985935
4.910809 -4.957881 -1.994468
5.422989 -5.474297 -2.011546
5.521087 -5.574579 -1.854119
6.104766 -6.163666 -1.839893
7.919569 -7.988620 -2.116378
9.395883 -9.391169 -2.180506
-0.000467 -0.043533 -0.001323
-0.000467 -0.043533 -0.001323
10.609050 -10.617169 -1.400581
10.792537 -10.804021 -1.068886
-0.000467 -0.043533 -0.001323
25.304396 -25.308477 -0.835820
23.036827 -23.053001 -0.005234
19.795261 -19.829575 0.645119
20.208508 -20.257156 1.328172
17.203062 -17.257393 1.697522
-0.000467 -0.043533 -0.001323
17.539885 -17.619688 2.899444
16.650667 -16.734842 3.309259
16.485628 -16.581297 3.832269
16.644928 -16.753124 4.439467
0.416773 -0.463000 -0.352335
0.427216 -0.473811 -0.342322
0.462462 -0.509456 -0.350687
2.700276 -2.764260 -1.926689
2.862437 -2.929715 -1.926201
3.074693 -3.145954 -1.946867
3.279118 -3.353433 -1.948275
3.531879 -3.611117 -1.962487
3.807493 -3.892271 -1.972703
4.108391 -4.197945 -1.976518
4.468360 -4.565178 -1.985945
4.880206 -4.985461 -1.993930
5.388899 -5.502579 -2.010547
5.522336 -5.641779 -1.865669
6.065580 -6.196883 -1.839077
7.875037 -8.038172 -2.117142
9.350238 -9.453426 -2.182481
9.841897 -9.955337 -1.966195
10.603059 -10.725835 -1.760674
10.608273 -10.738782 -1.408611
10.794527 -10.934382 -1.075489
24.574682 -24.846228 -1.633864
24.941824 -25.234880 -0.828712
-0.000461 -0.043427 -0.001320
21.015284 -21.292253 0.688880
21.820541 -22.122318 1.442495
19.200760 -19.485552 1.906091
17.125042 -17.396273 2.270232
17.021233 -17.297476 2.830005
16.708473 -16.992640 3.340631
16.334572 -16.625290 3.819906
17.322086 -17.634249 4.647021
0.413067 -0.464131 -0.351313
0.420986 -0.472501 -0.339380
0.455977 -0.508308 -0.347868
0.488893 -0.542200 -0.352283
2.842725 -2.943964 -1.924495
3.054941 -3.162727 -1.946060
3.264587 -3.378011 -1.951368
3.506720 -3.627903 -1.960312
3.788542 -3.918734 -1.974766
4.082332 -4.220787 -1.975887
4.444127 -4.594252 -1.987150
4.856153 -5.019722 -1.996148
5.367214 -5.545439 -2.014616
5.525681 -5.711957 -1.878140
6.024871 -6.228467 -1.837846
7.828839 -8.086072 -2.117537
9.299755 -9.514269 -2.183806
11.161719 -11.418595 -2.243146
10.610421 -10.860779 -1.772548
10.612917 -10.871116 -1.417759
10.793923 -11.063701 -1.081951
24.352993 -24.915852 -1.628992
24.263338 -24.842113 -0.811152
24.216286 -24.811834 -0.005643
20.761650 -21.286350 0.684611
19.458477 -19.967319 1.293945
19.078085 -19.591890 1.905334
16.981466 -17.456142 2.264796
17.121019 -17.605745 2.863831
16.792820 -17.281490 3.377843
17.514816 -18.035561 4.120843
18.797867 -19.360716 5.073643
0.408320 -0.463866 -0.349271
0.427084 -0.483495 -0.346238
0.457064 -0.514543 -0.350683
0.474894 -0.533267 -0.344203
2.826475 -2.959686 -1.924501
3.036198 -3.178325 -1.945253
3.243323 -3.393415 -1.949831
3.486666 -3.647340 -1.960321
3.761607 -3.934318 -1.972038
4.061582 -4.246148 -1.977179
4.425252 -4.625747 -1.990139
4.826954 -5.045284 -1.995610
5.340441 -5.579406 -2.016150
5.520944 -5.770641 -1.887381
5.990236 -6.261916 -1.837862
7.786518 -8.132392 -2.118299
9.249463 -9.568781 -2.184481
11.100757 -11.483477 -2.243734
10.616229 -10.988204 -1.783724
10.618807 -10.998746 -1.426718
10.827970 -11.222575 -1.091624
24.237324 -25.075762 -1.630652
23.954823 -24.801807 -0.805528
-0.000476 -0.043200 -0.001312
20.873356 -21.640520 0.692214
-0.000476 -0.043200 -0.001312
19.024040 -19.755455 1.910848
16.908844 -17.576401 2.268086
17.789265 -18.496147 2.992799
16.718260 -17.397703 3.382246
17.419567 -18.138695 4.122087
18.567047 -19.337831 5.040282
0.405799 -0.466161 -0.349267
0.416010 -0.477104 -0.339376
0.453016 -0.515850 -0.349741
0.476929 -0.541135 -0.347792
2.807855 -2.974987 -1.923650
3.021896 -3.199626 -1.947702
3.222121 -3.411176 -1.949069
3.462622 -3.665159 -1.958873
3.744310 -3.961237 -1.974783
4.040472 -4.274165 -1.979109
4.394030 -4.647680 -1.988364
4.798048 -5.072887 -1.995621
5.306140 -5.609480 -2.015657
5.530846 -5.847338 -1.902161
5.952966 -6.294792 -1.837462
7.741143 -8.178418 -2.118691
9.198234 -9.629090 -2.185807
11.048392 -11.561411 -2.246553
10.615688 -11.118296 -1.794670
10.614228 -11.124743 -1.434937
10.791002 -11.313466 -1.094451
24.189175 -25.324404 -1.637549
23.296238 -24.408703 -0.788334
23.356119 -24.480375 -0.005681
20.707563 -21.724871 0.690900
19.336678 -20.304098 1.301166
18.948782 -19.905024 1.914688
19.182024 -20.163984 2.588624
18.459112 -19.419653 3.124776
17.254545 -18.161963 3.511784
17.855186 -18.806185 4.250657
18.632404 -19.637009 5.089439
0.396261 -0.460912 -0.343144
0.412306 -0.478130 -0.338394
0.447860 -0.515791 -0.347861
0.490016 -0.560621 -0.359458
2.793408 -2.993635 -1.925368
3.004898 -3.218183 -1.948521
3.207734 -3.434934 -1.952160
3.450665 -3.694419 -1.963976
3.721685 -3.982639 -1.974792
4.014747 -4.295896 -1.978480
4.367436 -4.672808 -1.988375
4.772954 -5.104528 -1.997288
5.276662 -5.642677 -2.016686
5.531993 -5.915804 -1.914170
5.914158 -6.326006 -1.836645
7.695501 -8.224189 -2.119083
9.152379 -9.691827 -2.188105
10.983238 -11.626192 -2.246865
10.621416 -11.252694 -1.806544
10.621408 -11.260764 -1.444641
10.782156 -11.434745 -1.100215
24.214764 -25.644619 -1.649302
23.090979 -24.474073 -0.786212
21.492588 -22.791378 -0.005423
22.991333 -24.395187 0.771845
-0.000465 -0.042990 -0.001306
17.941557 -19.067356 1.823840
-0.000465 -0.042990 -0.001306
18.502485 -19.690409 3.151171
16.849884 -17.942226 3.450275
17.040958 -18.158239 4.081485
18.513866 -19.738153 5.087903
0.397376 -0.466841 -0.346203
0.410989 -0.481667 -0.339373
0.445128 -0.518254 -0.347859
0.490712 -0.567262 -0.362151
2.778831 -3.012204 -1.927086
2.980315 -3.228663 -1.944459
3.186885 -3.451904 -1.951396
3.429575 -3.714130 -1.963984
3.698934 -4.003905 -1.974801
3.992773 -4.321620 -1.979771
4.345911 -4.703372 -1.990770
4.745037 -5.133240 -1.997852
5.248272 -5.677110 -2.018219
5.527271 -5.978809 -1.924336
5.875213 -6.356999 -1.835829
7.652276 -8.272599 -2.120217
9.102042 -9.750025 -2.189428
10.927160 -11.700695 -2.249124
10.623216 -11.384611 -1.817954
10.624664 -11.394339 -1.453975
15.033359 -16.110353 -1.542926
38.928421 -41.678307 -2.667056
22.848877 -24.498442 -0.782828
22.977535 -24.645260 -0.005805
21.504179 -23.084345 0.726221
19.070683 -20.491667 1.298913
18.609900 -20.004997 1.903435
18.107435 -19.480030 2.473486
18.460775 -19.873602 3.163413
16.700666 -17.989584 3.440769
20.223728 -21.791071 4.873877
19.352749 -20.869480 5.351315
0.398432 -0.472796 -0.349262
0.408458 -0.483924 -0.339371
0.443598 -0.522013 -0.348798
0.491327 -0.573906 -0.364842
2.759216 -3.025395 -1.925379
2.966889 -3.251045 -1.947721
3.165922 -3.468725 -1.950631
3.410882 -3.736438 -1.965446
3.677327 -4.026417 -1.975494
3.966756 -4.343030 -1.979138
4.315101 -4.724000 -1.988992
4.711720 -5.156130 -1.996209
5.213105 -5.704289 -2.017219
5.532525 -6.053387 -1.938192
5.837429 -6.389195 -1.835429
7.603410 -8.314979 -2.119868
9.050000 -9.806518 -2.190428
10.862541 -11.766251 -2.249715
10.623846 -11.516921 -1.829363
10.628095 -11.529793 -1.463495
14.866037 -16.115993 -1.535282
-0.000456 -0.042783 -0.001300
22.775465 -24.702955 -0.785231
22.771690 -24.708014 -0.005862
-0.000456 -0.042783 -0.001300
21.201887 -23.040852 1.453153
17.769915 -19.325357 1.828745
18.511858 -20.144926 2.544482
18.440420 -20.081804 3.179600
18.747818 -20.423405 3.886751
18.397903 -20.057463 4.461400
19.193939 -20.938511 5.340525
0.397129 -0.476262 -0.350281
0.405905 -0.486160 -0.339369
0.434855 -0.517938 -0.344099
0.491880 -0.580580 -0.367533
2.740786 -3.039815 -1.924530
2.946551 -3.267130 -1.946913
3.138677 -3.478630 -1.946012
3.389548 -3.755916 -1.965453
3.652348 -4.046670 -1.974818
3.944475 -4.368501 -1.980429
4.290637 -4.751493 -1.990195
4.686473 -5.189585 -1.998428
5.170000 -5.722679 -2.013180
5.539955 -6.133502 -1.953432
5.803604 -6.427950 -1.836693
7.559455 -8.365651 -2.121371
8.993625 -9.858383 -2.190454
10.800792 -11.839151 -2.251418
10.667569 -11.697977 -1.848437
10.639697 -11.675924 -1.474317
14.695041 -16.121363 -1.527501
-0.000452 -0.042679 -0.001298
22.712606 -24.920738 -0.788057
22.867556 -25.108541 -0.005984
22.709990 -24.945066 0.776526
18.926741 -20.811657 1.305207
-0.000452 -0.042679 -0.001298
18.140278 -19.977419 2.509550
21.312286 -23.471825 3.698122
17.840570 -19.669521 3.722630
16.679794 -18.405815 4.070963
18.528946 -20.449116 5.188013
0.389915 -0.473398 -0.346197
0.404433 -0.489745 -0.340346
0.436772 -0.525644 -0.347855
0.486278 -0.580731 -0.365736
2.725372 -3.058602 -1.926248
2.923045 -3.278537 -1.943666
3.120700 -3.499829 -1.947561
3.359965 -3.767563 -1.961095
3.627957 -4.066133 -1.974142
3.920012 -4.393144 -1.981080
4.262608 -4.776759 -1.990205
4.656755 -5.216389 -1.998440
5.129730 -5.745959 -2.010659
5.546431 -6.211517 -1.968212
5.768043 -6.462626 -1.837125
7.514017 -8.411869 -2.122133
8.939198 -9.915866 -2.191455
10.688805 -11.852598 -2.242254
10.640837 -11.808094 -1.855899
10.637242 -11.812618 -1.483652
14.535304 -16.131594 -1.520554
-0.000471 -0.042557 -0.001293
-0.000471 -0.042557 -0.001293
22.863476 -25.395691 -0.006085
22.730484 -25.266438 0.782268
20.506395 -22.814878 1.423484
17.926352 -19.957201 1.868595
17.869362 -19.908243 2.487790
18.242037 -20.337214 3.185984
17.741802 -19.788038 3.725636
17.479620 -19.510328 4.293475
18.142397 -20.263086 5.113210
0.385139 -0.472974 -0.344155
0.392548 -0.481566 -0.332505
0.433975 -0.528041 -0.347852
0.491500 -0.592737 -0.372017
2.710888 -3.076364 -1.927964
2.903129 -3.293843 -1.942858
3.098270 -3.514882 -1.946025
3.339120 -3.786179 -1.961103
3.605983 -4.088271 -1.974836
3.896905 -4.416274 -1.981729
4.238636 -4.803240 -1.991407
4.630701 -5.247322 -2.000106
5.102915 -5.780178 -2.012697
5.550879 -6.288346 -1.982529
5.730790 -6.493168 -1.836723
7.468462 -8.455070 -2.122524
8.892700 -9.978841 -2.194076
10.624567 -11.918284 -2.243121
10.652339 -11.957941 -1.869865
10.640911 -11.953771 -1.493730
14.410514 -16.179232 -1.517243
-0.000467 -0.042453 -0.001290
-0.000467 -0.042453 -0.001290
22.827528 -25.650747 -0.006177
22.954552 -25.811872 0.795026
18.087078 -20.355173 1.263202
17.869728 -20.125599 1.874667
17.645655 -19.881157 2.471970
17.898802 -20.180328 3.145559
17.730400 -20.005299 3.747271
17.366699 -19.603107 4.292453
18.056601 -20.394871 5.120927
0.391860 -0.485322 -0.352317
0.395879 -0.490185 -0.337403
0.428917 -0.527710 -0.345972
0.484878 -0.591358 -0.369323
2.689765 -3.087749 -1.925401
2.881923 -3.307656 -1.941235
3.076378 -3.529256 -1.944489
3.324879 -3.813616 -1.965477
3.582603 -4.108854 -1.974843
3.870396 -4.437123 -1.981098
4.213669 -4.830335 -1.992610
4.600653 -5.273805 -2.000118
5.068511 -5.807922 -2.012204
5.552054 -6.362501 -1.995924
5.702734 -6.538719 -1.840068
7.431364 -8.513908 -2.126251
8.838371 -10.029718 -2.194424
10.620275 -12.051865 -2.256805
10.684290 -12.128757 -1.887312
10.650703 -12.099480 -1.504553
14.325238 -16.270815 -1.518123
-0.000462 -0.042349 -0.001287
-0.000462 -0.042349 -0.001287
56.830101 -64.538521 -0.013715
20.209400 -22.986755 0.704169
20.150404 -22.936356 1.416582
18.182003 -20.714962 1.919861
17.513163 -19.968948 2.469876
17.713041 -20.203880 3.133209
18.115591 -20.677010 3.853715
17.376602 -19.849632 4.323822
18.145145 -20.733376 5.179707
0.388088 -0.486240 -0.351294
0.397802 -0.497671 -0.341321
0.427192 -0.531469 -0.346909
0.476895 -0.588728 -0.365730
2.679958 -3.113082 -1.931398
2.861880 -3.322729 -1.940429
3.056851 -3.548743 -1.945268
3.297545 -3.827555 -1.962573
3.559122 -4.129317 -1.974851
3.846733 -4.462764 -1.982389
4.183939 -4.853718 -1.992025
4.576732 -5.307355 -2.002886
5.035478 -5.839255 -2.012725
5.562767 -6.448633 -2.013011
5.663940 -6.569875 -1.839667
7.386319 -8.560924 -2.127384
8.777650 -10.080403 -2.194126
10.563964 -12.127642 -2.259622
10.651604 -12.236734 -1.894312
10.670630 -12.267376 -1.517610
14.256466 -16.381512 -1.520822
-0.000456 -0.042243 -0.001284
-0.000456 -0.042243 -0.001284
19.889484 -22.878868 -0.005726
19.900923 -22.908575 0.698064
18.564167 -21.388145 1.313801
17.548210 -20.227499 1.865094
17.967527 -20.724821 2.550698
17.481119 -20.179525 3.113200
18.180796 -20.993315 3.893144
17.656609 -20.404043 4.422575
18.094151 -20.923767 5.200370
0.375394 -0.476652 -0.342108
0.387182 -0.490609 -0.334459
0.426690 -0.536501 -0.348787
0.469069 -0.585950 -0.362138
2.662225 -3.128362 -1.931404
2.846514 -3.343206 -1.942876
3.032986 -3.561990 -1.942961
3.282984 -3.854855 -1.966947
3.536751 -4.151072 -1.975544
3.821199 -4.484735 -1.982397
4.157392 -4.879075 -1.992631
4.545084 -5.332070 -2.002346
5.008309 -5.875396 -2.015272
5.559994 -6.520327 -2.025483
5.627519 -6.603766 -1.840097
7.339678 -8.606197 -2.128145
8.720973 -10.132175 -2.194474
10.516200 -12.213661 -2.264390
10.652590 -12.380469 -1.907116
-0.000451 -0.042139 -0.001281
14.239008 -16.552385 -1.529113
-0.000451 -0.042139 -0.001281
20.339703 -23.660250 -0.729581
20.303047 -23.626486 -0.005909
18.183289 -21.179535 0.641917
18.112736 -21.112823 1.290342
17.815252 -20.774511 1.906110
17.854605 -20.835403 2.551572
17.996134 -21.015459 3.226367
18.041800 -21.076534 3.889196
18.480503 -21.603668 4.659975
18.398079 -21.523121 5.323160
0.368401 -0.473461 -0.338023
0.387984 -0.496699 -0.337396
0.418103 -0.532131 -0.344089
0.458979 -0.580392 -0.356751
2.639714 -3.138037 -1.927985
2.829805 -3.362207 -1.944508
3.009080 -3.575091 -1.940655
3.256143 -3.867925 -1.964044
3.515446 -4.174123 -1.976920
3.796769 -4.508007 -1.983046
4.131942 -4.905747 -1.993834
4.513285 -5.356583 -2.001805
4.977134 -5.906994 -2.016299
-0.000447 -0.042035 -0.001278
5.603541 -6.652371 -1.844689
6.486102 -7.698990 -1.893575
8.660151 -10.179131 -2.193850
10.458776 -12.288974 -2.267205
13.316422 -15.646399 -2.399756
14.179346 -16.669643 -2.043355
14.223923 -16.728148 -1.537823
-0.000447 -0.042035 -0.001278
20.323877 -23.918499 -0.733988
20.340565 -23.947037 -0.006011
18.216681 -21.466599 0.647397
18.104935 -21.350676 1.298460
18.253531 -21.533598 1.966197
17.721687 -20.922615 2.549663
17.959866 -21.218647 3.241625
17.957518 -21.223806 3.897205
18.367533 -21.723207 4.662833
18.393454 -21.769636 5.357885
0.378138 -0.489931 -0.349247
0.388753 -0.502831 -0.340336
0.417552 -0.537125 -0.345966
0.458181 -0.585657 -0.358545
2.631147 -3.164135 -1.934837
2.807101 -3.374149 -1.942072
2.987485 -3.590837 -1.939889
3.231649 -3.883653 -1.962595
3.496436 -4.199956 -1.979665
3.773429 -4.532599 -1.984337
4.105078 -4.930815 -1.994439
4.486313 -5.386803 -2.003471
4.943260 -5.935448 -2.016310
5.517518 -6.622509 -2.037509
5.585480 -6.708421 -1.851361
6.462077 -7.760221 -1.899521
8.604155 -10.231736 -2.194522
10.395739 -12.357989 -2.268908
13.217340 -15.712080 -2.398167
-0.000464 -0.041910 -0.001273
14.230430 -16.931746 -1.549050
-0.000464 -0.041910 -0.001273
20.120377 -23.957016 -0.731665
-0.000464 -0.041910 -0.001273
19.361403 -23.080318 0.692812
19.627754 -23.414282 1.417362
17.816467 -21.265425 1.932174
17.634422 -21.063892 2.554433
19.828413 -23.696529 3.603486
17.826315 -21.316132 3.895207
18.147341 -21.715038 4.638484
18.159555 -21.745466 5.326011
0.376660 -0.493322 -0.350266
0.387191 -0.506282 -0.341312
0.416954 -0.542129 -0.347842
0.452732 -0.585418 -0.356746
0.483167 -0.622344 -0.359055
2.796636 -3.401884 -1.948589
2.969346 -3.610715 -1.941437
3.208271 -3.900662 -1.961874
3.471698 -4.220528 -1.979674
3.747490 -4.554146 -1.984345
4.081722 -4.960145 -1.996832
4.455731 -5.414695 -2.004034
4.911701 -5.966692 -2.017336
5.484571 -6.662516 -2.039830
5.574517 -6.776008 -1.860948
6.419912 -7.802865 -1.900651
8.526351 -10.258292 -2.189678
10.337677 -12.437594 -2.272281
13.117983 -15.777175 -2.396581
-0.000460 -0.041806 -0.001270
14.233357 -17.139994 -1.560420
14.580492 -17.563557 -1.067831
-0.000460 -0.041806 -0.001270
-0.000460 -0.041806 -0.001270
19.223280 -23.185179 0.692571
17.983335 -21.708237 1.307454
17.765358 -21.461266 1.940333
17.604668 -21.283041 2.568290
20.074585 -24.272182 3.673490
17.827356 -21.575529 3.923233
17.798279 -21.556126 4.581739
19.514835 -23.639896 5.763293
0.371776 -0.492787 -0.348222
0.378901 -0.501754 -0.336412
0.415103 -0.545851 -0.348779
0.446096 -0.583858 -0.354052
0.482107 -0.627800 -0.360765
2.771435 -3.410782 -1.944526
2.948104 -3.628159 -1.941443
3.180073 -3.911773 -1.958242
3.447563 -4.240341 -1.979681
3.721433 -4.575547 -1.984353
4.054530 -4.984937 -1.997438
4.424721 -5.440177 -2.004045
4.877494 -5.994780 -2.017349
5.446352 -6.693892 -2.039845
5.583889 -6.864443 -1.876774
6.377711 -7.840016 -1.901038
8.474368 -10.319262 -2.191975
10.274941 -12.507530 -2.274262
13.019303 -15.848484 -2.395690
14.291953 -17.406250 -2.103030
14.236040 -17.344824 -1.571646
14.533356 -17.719103 -1.072081
-0.000455 -0.041703 -0.001267
-0.000455 -0.041703 -0.001267
-0.000455 -0.041703 -0.001267
18.510818 -22.606810 1.355220
17.771992 -21.722048 1.954618
17.523651 -21.427139 2.573804
17.557360 -21.483969 3.235202
17.680470 -21.650143 3.918176
17.610376 -21.572584 4.564197
18.362398 -22.508465 5.460950
0.367070 -0.492078 -0.346179
0.377420 -0.505103 -0.337389
0.408939 -0.543955 -0.345960
0.445314 -0.589004 -0.355845
0.486708 -0.640274 -0.366755
2.754278 -3.429414 -1.946159
2.926880 -3.643045 -1.940679
3.151841 -3.922681 -1.954609
3.423331 -4.260030 -1.979689
3.696456 -4.598279 -1.985003
4.024784 -5.006618 -1.996851
4.395975 -5.468456 -2.005159
4.844329 -6.024163 -2.017867
5.410378 -6.728057 -2.040781
5.578981 -6.941475 -1.888857
6.321426 -7.865378 -1.898089
8.430548 -10.383148 -2.195567
10.226719 -12.595553 -2.279584
12.928318 -15.917769 -2.395262
14.212358 -17.507328 -2.105677
14.240619 -17.554899 -1.583294
14.511257 -17.894447 -1.077824
-0.000451 -0.041599 -0.001265
-0.000451 -0.041599 -0.001265
-0.000451 -0.041599 -0.001265
17.301020 -21.381430 1.275501
17.591579 -21.755730 1.948441
18.076851 -22.371084 2.674457
18.469543 -22.864758 3.427467
17.420000 -21.583652 3.887818
17.445118 -21.630556 4.554424
19.155291 -23.755867 5.737281
0.365466 -0.495480 -0.347197
0.373567 -0.505874 -0.336407
0.408148 -0.549006 -0.347835
0.443186 -0.592931 -0.356742
0.487669 -0.648675 -0.370176
2.724416 -3.432297 -1.938840
2.905445 -3.660239 -1.940685
3.124102 -3.935409 -1.951706
3.397785 -4.278095 -1.979012
3.668150 -4.618541 -1.984370
3.994070 -5.028831 -1.996266
4.365827 -5.495062 -2.005720
4.807531 -6.051187 -2.017372
5.369355 -6.755972 -2.039872
-0.000447 -0.041495 -0.001262
6.272571 -7.896941 -1.896994
8.370278 -10.434431 -2.195916
10.154245 -12.654141 -2.279613
12.837615 -15.998743 -2.395998
14.224492 -17.735577 -2.123027
14.255750 -17.781155 -1.596340
14.543932 -18.153053 -1.088246
-0.000447 -0.041495 -0.001262
-0.000447 -0.041495 -0.001262
38.722622 -48.351032 1.426211
17.162865 -21.469589 1.274611
-0.000447 -0.041495 -0.001262
18.750393 -23.477659 2.794027
18.063377 -22.635605 3.376838
17.379738 -21.788727 3.906672
19.156776 -24.029930 5.037341
18.935795 -23.770693 5.713542
0.363939 -0.498836 -0.348217
0.371970 -0.509272 -0.337385
0.403013 -0.548477 -0.345955
0.433331 -0.586979 -0.351354
0.487654 -0.655536 -0.372743
2.712788 -3.457837 -1.944541
2.886853 -3.679704 -1.942234
3.106924 -3.958521 -1.954623
3.377997 -4.303383 -1.981757
3.643716 -4.640344 -1.985019
3.968524 -5.053952 -1.997467
4.336737 -5.523036 -2.006835
4.782307 -6.088471 -2.020933
5.326972 -6.782104 -2.038502
5.602206 -7.133044 -1.923841
6.221305 -7.922497 -1.894786
8.311490 -10.483896 -2.196263
10.083896 -12.715410 -2.280199
12.755390 -16.084757 -2.397894
14.223923 -17.944958 -2.138329
14.261287 -17.998775 -1.608547
-0.000442 -0.041392 -0.001259
-0.000442 -0.041392 -0.001259
-0.000442 -0.041392 -0.001259
-0.000442 -0.041392 -0.001259
-0.000442 -0.041392 -0.001259
-0.000442 -0.041392 -0.001259
18.684700 -23.664688 2.803803
18.228874 -23.105400 3.431764
18.301313 -23.214149 4.143775
18.787718 -23.839027 4.975095
-0.000442 -0.041392 -0.001259
0.360296 -0.499394 -0.347193
0.372585 -0.515351 -0.340323
0.395816 -0.545069 -0.342196
0.429174 -0.587879 -0.350454
0.485224 -0.659652 -0.373597
2.689688 -3.468998 -1.942106
2.861916 -3.689849 -1.939154
3.075132 -3.964532 -1.948808
3.352233 -4.321183 -1.981080
3.620676 -4.665628 -1.986950
3.945463 -5.084133 -2.000456
4.308642 -5.552361 -2.008500
4.746197 -6.114282 -2.020437
5.290451 -6.815630 -2.039438
5.591302 -7.206145 -1.934675
6.169592 -7.952974 -1.893321
8.244504 -10.519197 -2.194013
10.002173 -12.762280 -2.278278
12.663126 -16.152506 -2.397464
14.249157 -18.183737 -2.157351
14.266024 -18.218624 -1.620894
32.952114 -42.043060 -2.499643
39.766190 -50.765842 -1.508314
-0.000438 -0.041288 -0.001256
39.058475 -49.918846 1.459122
-0.000438 -0.041288 -0.001256
-0.000438 -0.041288 -0.001256
18.001041 -23.079895 2.721590
17.909870 -22.971928 3.396451
-0.000438 -0.041288 -0.001256
-0.000438 -0.041288 -0.001256
-0.000438 -0.041288 -0.001256
0.349116 -0.490554 -0.339027
0.364420 -0.510567 -0.335421
0.394999 -0.550104 -0.344074
0.430301 -0.595958 -0.354043
0.490421 -0.673851 -0.380444
2.671021 -3.485774 -1.942925
2.841354 -3.708131 -1.939932
3.058625 -3.991432 -1.953181
3.330987 -4.344783 -1.983141
3.589677 -4.682422 -1.985036
3.910799 -5.101313 -1.998082
4.275658 -5.575465 -2.007959
4.708898 -6.140708 -2.019943
5.246593 -6.839728 -2.037606
5.584586 -7.283048 -1.946757
6.117919 -7.980484 -1.891484
8.190654 -10.578732 -2.196308
9.926308 -12.816442 -2.277748
12.569733 -16.230398 -2.397966
14.245017 -18.401602 -2.173214
14.282139 -18.456450 -1.634779
32.550522 -42.041927 -2.488151
-0.000455 -0.041163 -0.001251
-0.000455 -0.041163 -0.001251
37.617943 -48.670921 1.415907
-0.000455 -0.041163 -0.001251
-0.000455 -0.041163 -0.001251
17.760962 -23.044374 2.705218
17.746794 -23.043087 3.391294
-0.000455 -0.041163 -0.001251
-0.000455 -0.041163 -0.001251
-0.000455 -0.041163 -0.001251
0.353862 -0.501998 -0.346168
0.367020 -0.519468 -0.340319
0.395285 -0.556463 -0.346889
0.426023 -0.596912 -0.353144
0.485659 -0.675117 -0.379586
2.650518 -3.501447 -1.942930
2.825778 -3.731643 -1.943792
3.036964 -4.010367 -1.953916
3.298530 -4.355405 -1.979042
3.564034 -4.704421 -1.985684
3.880416 -5.122123 -1.997494
4.247386 -5.606731 -2.010175
4.679554 -6.175314 -2.022488
5.193173 -6.853608 -2.032543
-0.000451 -0.041059 -0.001248
6.069498 -8.014973 -1.891129
8.125020 -10.619370 -2.195033
9.844296 -12.867165 -2.276384
12.477497 -16.304001 -2.398235
-0.000451 -0.041059 -0.001248
14.300023 -18.707073 -1.649507
32.169617 -42.047783 -2.477590
-0.000451 -0.041059 -0.001248
-0.000451 -0.041059 -0.001248
37.382195 -48.945450 1.417498
-0.000451 -0.041059 -0.001248
38.485439 -50.463654 4.423563
-0.000451 -0.041059 -0.001248
-0.000451 -0.041059 -0.001248
-0.000451 -0.041059 -0.001248
-0.000451 -0.041059 -0.001248
-0.000451 -0.041059 -0.001248
0.350089 -0.502622 -0.345146
0.362072 -0.518760 -0.338357
0.386884 -0.551661 -0.342191
0.421638 -0.597903 -0.352245
0.489529 -0.687970 -0.385576
2.632752 -3.519469 -1.944563
2.799376 -3.742355 -1.940714
3.009976 -4.023750 -1.951738
3.262302 -4.359236 -1.972206
3.538592 -4.728416 -1.986975
3.859391 -5.157144 -2.002272
4.216425 -5.632541 -2.010737
4.646551 -6.207495 -2.024020
5.150336 -6.878639 -2.031172
-0.000446 -0.040955 -0.001245
6.018741 -8.043407 -1.889662
8.065690 -10.672014 -2.196030
9.764260 -12.915642 -2.275017
12.395146 -16.396629 -2.401057
-0.000446 -0.040955 -0.001245
14.313894 -18.949671 -1.663673
31.771542 -42.041862 -2.466189
-0.000446 -0.040955 -0.001245
-0.000446 -0.040955 -0.001245
37.228683 -49.348206 1.422635
37.792034 -50.131660 2.914219
38.009411 -50.439056 4.402015
-0.000446 -0.040955 -0.001245
-0.000446 -0.040955 -0.001245
-0.000446 -0.040955 -0.001245
-0.000446 -0.040955 -0.001245
-0.000446 -0.040955 -0.001245
0.351555 -0.510029 -0.349226
0.357216 -0.517937 -0.336394
0.386059 -0.556607 -0.344068
0.420563 -0.603074 -0.354038
0.481463 -0.684889 -0.382151
2.608277 -3.528604 -1.941311
2.782427 -3.764227 -1.943804
2.988105 -4.042410 -1.952473
3.232868 -4.371821 -1.969475
3.510383 -4.747080 -1.986341
3.826427 -5.174583 -2.000492
4.187602 -5.661259 -2.012402
4.610950 -6.234043 -2.024031
5.113180 -6.911195 -2.032107
5.603278 -7.575305 -1.998821
5.970206 -8.074677 -1.888936
8.004314 -10.718181 -2.196051
9.692324 -12.974730 -2.275601
12.310274 -16.480373 -2.402952
-0.000442 -0.040852 -0.001242
14.330231 -19.199442 -1.678399
31.397549 -42.048019 -2.455998
35.789734 -47.960125 -1.400160
38.840599 -52.064873 -0.012437
-0.000442 -0.040852 -0.001242
-0.000442 -0.040852 -0.001242
-0.000442 -0.040852 -0.001242
-0.000442 -0.040852 -0.001242
-0.000442 -0.040852 -0.001242
-0.000442 -0.040852 -0.001242
-0.000442 -0.040852 -0.001242
-0.000442 -0.040852 -0.001242
0.348860 -0.511952 -0.349225
0.353427 -0.518480 -0.335412
0.383069 -0.558706 -0.344065
0.414126 -0.601067 -0.351342
0.476671 -0.686093 -0.381293
2.593591 -3.550825 -1.945387
2.759848 -3.778607 -1.943039
2.965000 -4.059447 -1.952479
3.204520 -4.385726 -1.967428
3.482097 -4.765596 -1.985708
3.799074 -5.199522 -2.001694
4.156294 -5.686720 -2.012963
4.576341 -6.261950 -2.024548
5.076993 -6.945141 -2.033505
5.607275 -7.671974 -2.015897
5.914539 -8.096162 -1.885987
7.948552 -10.771923 -2.197695
9.610600 -13.020688 -2.273956
12.239025 -16.582836 -2.407633
14.296827 -19.378540 -2.249131
14.363131 -19.475691 -1.695363
31.004345 -42.023937 -2.444214
35.440731 -48.067207 -1.397414
-0.000438 -0.040748 -0.001239
-0.000438 -0.040748 -0.001239
37.730350 -51.266399 2.954553
47.878811 -65.069611 5.631445
-0.000438 -0.040748 -0.001239
47.943707 -65.255630 9.449956
-0.000438 -0.040748 -0.001239
-0.000438 -0.040748 -0.001239
-0.000438 -0.040748 -0.001239
0.340029 -0.505516 -0.343099
0.347585 -0.516188 -0.332471
0.381135 -0.562236 -0.345003
0.407726 -0.599013 -0.348647
0.462273 -0.674118 -0.372730
2.572234 -3.564111 -1.944576
2.739353 -3.795822 -1.943815
2.939590 -4.073329 -1.951028
3.177215 -4.400958 -1.966065
3.463737 -4.797713 -1.990839
3.771538 -5.224298 -2.002894
4.122562 -5.708897 -2.012420
4.539295 -6.286532 -2.024052
5.039413 -6.977297 -2.034439
5.612643 -7.772103 -2.033806
5.862261 -8.122025 -1.884148
7.911085 -10.850861 -2.204532
9.536851 -13.077318 -2.274261
12.155261 -16.668976 -2.409990
14.342626 -19.675943 -2.274115
14.394490 -19.754559 -1.712467
20.351265 -27.933369 -1.617512
-0.000433 -0.040644 -0.001236
35.077122 -48.170479 -0.011723
-0.000433 -0.040644 -0.001236
-0.000433 -0.040644 -0.001236
47.302818 -65.068275 5.607504
-0.000433 -0.040644 -0.001236
47.386387 -65.281448 9.413860
-0.000433 -0.040644 -0.001236
-0.000433 -0.040644 -0.001236
-0.000433 -0.040644 -0.001236
0.344413 -0.517121 -0.350241
0.346870 -0.520889 -0.334427
0.377075 -0.562871 -0.344061
0.408695 -0.607044 -0.352237
0.450165 -0.664945 -0.365882
0.491094 -0.722181 -0.375579
2.716596 -3.809935 -1.943049
2.919579 -4.094622 -1.953217
3.150200 -4.418120 -1.965389
3.435173 -4.815940 -1.990206
3.739386 -5.242723 -2.001710
4.087744 -5.731608 -2.011880
4.503245 -6.312466 -2.024063
5.003828 -7.014875 -2.036759
5.614554 -7.871955 -2.051301
5.807335 -8.146980 -1.881940
7.844070 -10.889746 -2.203255
9.455832 -13.128753 -2.273452
12.065104 -16.746656 -2.411186
-0.000429 -0.040541 -0.001233
29.843273 -41.425045 -3.578201
36.204521 -50.265705 -2.899568
-0.000429 -0.040541 -0.001233
-0.000429 -0.040541 -0.001233
-0.000429 -0.040541 -0.001233
-0.000429 -0.040541 -0.001233
46.735695 -65.096558 5.585789
-0.000429 -0.040541 -0.001233
-0.000429 -0.040541 -0.001233
-0.000429 -0.040541 -0.001233
-0.000429 -0.040541 -0.001233
-0.000429 -0.040541 -0.001233
0.333572 -0.507853 -0.342074
0.346046 -0.525680 -0.336386
0.370900 -0.560693 -0.341241
0.401176 -0.603536 -0.348644
0.449702 -0.671830 -0.368447
0.493516 -0.733818 -0.380460
2.693106 -3.824382 -1.942283
2.896193 -4.111276 -1.953224
3.117312 -4.425366 -1.960605
3.405430 -4.832466 -1.988934
3.710457 -5.265622 -2.002314
4.058216 -5.759640 -2.013543
4.472648 -6.346093 -2.026609
4.966964 -7.048250 -2.038157
5.623879 -7.978103 -2.070875
5.751753 -8.164751 -1.878618
7.779546 -10.935995 -2.203277
9.380295 -13.182890 -2.273478
11.958833 -16.808149 -2.409827
14.329300 -20.146950 -2.309191
29.493269 -41.440117 -3.564859
-0.000448 -0.040418 -0.001229
-0.000448 -0.040418 -0.001229
-0.000448 -0.040418 -0.001229
37.578693 -52.930180 1.493432
-0.000448 -0.040418 -0.001229
-0.000448 -0.040418 -0.001229
-0.000448 -0.040418 -0.001229
-0.000448 -0.040418 -0.001229
-0.000448 -0.040418 -0.001229
-0.000448 -0.040418 -0.001229
-0.000448 -0.040418 -0.001229
0.328983 -0.506799 -0.340032
0.340325 -0.523235 -0.333445
0.373071 -0.569859 -0.345935
0.401115 -0.610049 -0.351335
0.442939 -0.669877 -0.365878
0.500034 -0.751493 -0.388597
2.670865 -3.837746 -1.941516
2.872692 -4.127779 -1.953229
3.094162 -4.446217 -1.961980
3.373411 -4.845687 -1.986378
3.683603 -5.291499 -2.004112
4.027424 -5.785972 -2.014656
4.432912 -6.366881 -2.025098
4.923157 -7.071846 -2.036783
5.582287 -8.019244 -2.072971
5.693298 -8.184128 -1.875296
7.717435 -10.977559 -2.202972
9.302168 -13.233359 -2.272946
11.868433 -16.879440 -2.410556
-0.000442 -0.040311 -0.001226
29.136091 -41.441151 -3.550541
35.415550 -50.383442 -2.882854
-0.000442 -0.040311 -0.001226
-0.000442 -0.040311 -0.001226
45.594425 -64.976662 1.826513
-0.000442 -0.040311 -0.001226
45.635109 -65.133728 5.543208
-0.000442 -0.040311 -0.001226
45.718929 -65.328560 9.304891
-0.000442 -0.040311 -0.001226
45.763363 -65.491791 13.104948
-0.000442 -0.040311 -0.001226
0.325214 -0.507222 -0.339008
0.339443 -0.527999 -0.335402
0.364893 -0.564727 -0.341238
0.393635 -0.606440 -0.347742
0.438169 -0.670907 -0.365020
-0.000437 -0.040208 -0.001223
2.650379 -3.856450 -1.943064
2.848388 -4.144655 -1.953236
3.071941 -4.468489 -1.964039
3.344822 -4.865508 -1.986385
3.653445 -5.314718 -2.004715
3.994255 -5.808961 -2.014664
4.399695 -6.399333 -2.027136
4.884788 -7.103176 -2.037718
5.527336 -8.038284 -2.069655
5.659715 -8.236100 -1.879760
7.649008 -11.018195 -2.202019
9.224895 -13.284987 -2.272693
11.778501 -16.964132 -2.412680
21.762140 -31.332487 -3.564282
28.849323 -41.539360 -3.544751
35.217621 -50.738628 -2.891287
-0.000437 -0.040208 -0.001223
-0.000437 -0.040208 -0.001223
45.037418 -64.999489 1.819464
-0.000437 -0.040208 -0.001223
45.078884 -65.134590 5.520947
45.117779 -65.240654 7.381377
-0.000437 -0.040208 -0.001223
-0.000437 -0.040208 -0.001223
-0.000437 -0.040208 -0.001223
-0.000437 -0.040208 -0.001223
0.325447 -0.513231 -0.342067
0.335643 -0.528408 -0.334420
0.364871 -0.571081 -0.344054
0.389346 -0.607113 -0.346841
0.437595 -0.677783 -0.367586
0.500094 -0.769054 -0.395105
2.629411 -3.873080 -1.943841
2.824683 -4.160875 -1.953240
3.039997 -4.476694 -1.959938
3.322321 -4.892402 -1.989595
3.620852 -5.332420 -2.003531
3.959880 -5.830179 -2.014122
4.367369 -6.430859 -2.029175
4.842935 -7.129486 -2.037269
5.484471 -8.074714 -2.070916
5.645638 -8.317161 -1.890894
7.586776 -11.063589 -2.202364
9.150683 -13.341041 -2.273274
-0.000433 -0.040104 -0.001220
21.685276 -31.608200 -3.581471
-0.000433 -0.040104 -0.001220
-0.000433 -0.040104 -0.001220
-0.000433 -0.040104 -0.001220
34.589703 -50.510384 -0.012540
35.136391 -51.347435 1.431024
