# This PCD file was generated using the MATLAB® pcwrite function
# from Computer Vision Toolbox®.
# .PCD v.7 - Point Cloud Data file format
VERSION .7
FIELDS x y z
SIZE 4 4 4
TYPE F F F
COUNT 1 1 1
WIDTH 1667
HEIGHT 1
VIEWPOINT 0 0 0 1 0 0 0
POINTS 1667
DATA ascii
-0.000086 -0.083258 -0.002878
-0.000086 -0.083258 -0.002878
-0.000086 -0.083258 -0.002878
-0.000086 -0.083258 -0.002878
7.803581 42.922073 7.205204
7.267297 39.887932 7.677024
0.104189 0.485571 -0.345307
0.107390 0.501825 -0.336586
0.118446 0.561392 -0.350827
0.130798 0.627199 -0.364984
0.177820 0.880630 -0.466050
0.327318 1.686984 -0.803057
0.384684 1.995127 -0.884215
0.804686 4.255466 -1.722873
0.862046 4.555699 -1.716962
0.921169 4.869176 -1.701569
0.997091 5.266988 -1.697467
1.082133 5.712143 -1.689515
1.163267 6.140732 -1.656320
1.267887 6.687435 -1.630604
1.400272 7.379951 -1.612090
1.556831 8.198479 -1.585269
1.706784 9.219711 -1.550917
1.947397 10.510395 -1.510006
2.265346 12.227981 -1.456850
2.699378 14.558270 -1.382788
3.360497 18.108652 -1.285247
4.437222 23.914213 -1.126143
5.800086 31.223949 -0.722828
-0.000082 -0.083155 -0.002875
-0.000082 -0.083155 -0.002875
-0.000082 -0.083155 -0.002875
-0.000082 -0.083155 -0.002875
-0.000082 -0.083155 -0.002875
-0.000082 -0.083155 -0.002875
-0.000082 -0.083155 -0.002875
8.376758 44.528072 7.482795
-0.000082 -0.083155 -0.002875
0.107564 0.485050 -0.345304
0.112156 0.508143 -0.340497
0.121599 0.557318 -0.348947
0.136004 0.631791 -0.367669
0.177777 0.849468 -0.451519
0.337143 1.683396 -0.802241
0.394573 1.980228 -0.878824
0.829710 4.247057 -1.721418
0.888025 4.547076 -1.715594
0.949457 4.858147 -1.699649
1.029894 5.266705 -1.699249
1.116204 5.709705 -1.690613
1.200535 6.135725 -1.656823
1.309450 6.693491 -1.633823
1.442099 7.366118 -1.610844
1.602985 8.181765 -1.583791
1.762689 9.213399 -1.551562
2.008371 10.499098 -1.510006
2.339084 12.218336 -1.457311
2.776507 14.491238 -1.377989
3.468195 18.104788 -1.286355
4.579535 23.887560 -1.126147
5.768833 30.055954 -0.696745
-0.000080 -0.083054 -0.002871
-0.000080 -0.083054 -0.002871
-0.000080 -0.083054 -0.002871
-0.000080 -0.083054 -0.002871
-0.000080 -0.083054 -0.002871
-0.000080 -0.083054 -0.002871
-0.000080 -0.083054 -0.002871
8.293104 42.722050 7.187616
7.607465 39.110359 7.544387
0.110824 0.484532 -0.345300
0.114543 0.502464 -0.337557
0.124933 0.554986 -0.348005
0.139439 0.627588 -0.365874
0.179660 0.830782 -0.442971
0.350810 1.697596 -0.809550
0.405726 1.974408 -0.877281
0.854617 4.242324 -1.721416
0.914740 4.538149 -1.714225
0.977897 4.852699 -1.699648
1.061049 5.262664 -1.699842
1.149051 5.695542 -1.688411
1.238209 6.138299 -1.659349
1.351511 6.695271 -1.636119
1.488570 7.369042 -1.613331
1.653902 8.181867 -1.585634
1.817328 9.209011 -1.552531
2.071104 10.487112 -1.510005
2.409496 12.202822 -1.457080
2.865378 14.500512 -1.380390
3.578730 18.097698 -1.287325
4.663402 23.586481 -1.113275
6.547876 33.090347 -0.767464
-0.000075 -0.082950 -0.002868
-0.000075 -0.082950 -0.002868
14.240831 71.737122 3.455963
13.862570 69.702751 5.015602
-0.000075 -0.082950 -0.002868
-0.000075 -0.082950 -0.002868
-0.000075 -0.082950 -0.002868
9.924068 49.561012 8.346153
7.969168 39.746243 7.675516
0.113180 0.478901 -0.342240
0.118713 0.505291 -0.339511
0.127680 0.549133 -0.345189
0.143281 0.625114 -0.364973
0.187061 0.840480 -0.448094
0.363605 1.708188 -0.815234
0.416806 1.966656 -0.874968
-0.000095 -0.082828 -0.002863
0.940957 4.531068 -1.713540
1.006668 4.848956 -1.700284
1.093725 5.265922 -1.702814
1.182701 5.690803 -1.688961
1.277897 6.150129 -1.664400
1.390533 6.687461 -1.636120
1.528566 7.353064 -1.611671
1.698043 8.162979 -1.583788
1.872414 9.198168 -1.552530
2.131947 10.475110 -1.510006
2.482336 12.188418 -1.457080
2.953834 14.493111 -1.381314
3.684959 18.084711 -1.287881
-0.000095 -0.082828 -0.002863
6.771866 33.214836 -0.771223
-0.000095 -0.082828 -0.002863
14.739562 72.135429 1.752958
-0.000095 -0.082828 -0.002863
14.301039 69.801659 5.028527
-0.000095 -0.082828 -0.002863
-0.000095 -0.082828 -0.002863
-0.000095 -0.082828 -0.002863
-0.000095 -0.082828 -0.002863
8.229761 39.851841 7.704854
0.117695 0.485116 -0.346312
0.120212 0.496196 -0.334614
0.131913 0.551983 -0.347061
0.147597 0.626156 -0.365866
0.192005 0.837724 -0.447237
0.372088 1.699093 -0.811980
0.424099 1.944514 -0.866500
0.903970 4.230587 -1.720684
0.966691 4.525852 -1.713538
1.034264 4.839476 -1.699004
1.123709 5.255917 -1.701622
1.216891 5.693634 -1.691709
1.314174 6.144663 -1.664905
1.425884 6.668288 -1.633358
1.568928 7.332752 -1.609182
1.744282 8.147389 -1.582681
1.924193 9.187685 -1.552529
2.192863 10.472858 -1.511391
2.550814 12.174474 -1.457081
3.039636 14.497951 -1.383346
3.787158 18.067860 -1.288161
4.684309 22.328699 -1.056729
6.984410 33.275185 -0.773539
-0.000090 -0.082724 -0.002860
-0.000090 -0.082724 -0.002860
14.376381 68.284149 3.297375
14.631489 69.437744 5.008100
-0.000090 -0.082724 -0.002860
-0.000090 -0.082724 -0.002860
-0.000090 -0.082724 -0.002860
-0.000090 -0.082724 -0.002860
8.438416 39.703926 7.685525
0.122061 0.489571 -0.349367
0.125013 0.502411 -0.338526
0.134833 0.547862 -0.345182
0.150943 0.621891 -0.364071
0.194263 0.822570 -0.440397
0.382270 1.695167 -0.811165
0.437302 1.949376 -0.869574
0.928007 4.221773 -1.719230
0.992836 4.514621 -1.711488
1.064595 4.842802 -1.702198
1.157248 5.262533 -1.705782
1.251145 5.686410 -1.691708
1.352051 6.146559 -1.667430
1.466323 6.661714 -1.633817
1.612479 7.321510 -1.608767
1.793907 8.140849 -1.583418
1.979609 9.186204 -1.554145
2.256272 10.463644 -1.511945
2.620929 12.157752 -1.456850
3.124808 14.486140 -1.383902
3.895604 18.049089 -1.288440
4.704084 21.793625 -1.032824
-0.000085 -0.082620 -0.002856
-0.000085 -0.082620 -0.002856
-0.000085 -0.082620 -0.002856
14.715371 67.948456 3.285179
15.038663 69.326408 5.006390
-0.000085 -0.082620 -0.002856
-0.000085 -0.082620 -0.002856
-0.000085 -0.082620 -0.002856
-0.000085 -0.082620 -0.002856
-0.000085 -0.082620 -0.002856
0.125073 0.487269 -0.348344
0.128105 0.500065 -0.337544
0.140095 0.554051 -0.348931
0.156264 0.626334 -0.366756
0.197293 0.810908 -0.435266
0.392414 1.691194 -0.810350
0.445367 1.928819 -0.861875
0.953530 4.216291 -1.719229
1.021303 4.514265 -1.713535
1.096253 4.847612 -1.706031
1.186868 5.246350 -1.702808
1.285329 5.679000 -1.691706
1.384771 6.119634 -1.662377
1.505885 6.651102 -1.633356
1.656802 7.313824 -1.609181
1.842231 8.128247 -1.583049
2.035420 9.178249 -1.554791
2.318375 10.448238 -1.511668
2.692649 12.138211 -1.456390
3.209888 14.461632 -1.383349
4.003962 18.029667 -1.288719
4.793652 21.584017 -1.024276
-0.000081 -0.082517 -0.002853
14.879239 66.947891 0.038557
-0.000081 -0.082517 -0.002853
15.116165 67.848343 3.284589
15.339112 68.737572 4.970344
-0.000081 -0.082517 -0.002853
-0.000081 -0.082517 -0.002853
-0.000081 -0.082517 -0.002853
12.494118 55.654758 9.417090
9.833990 43.752293 8.489406
0.129486 0.491686 -0.351398
0.130292 0.494331 -0.334604
0.144149 0.555063 -0.349865
0.159166 0.620295 -0.364065
0.201636 0.806333 -0.433554
0.400697 1.681946 -0.807098
0.454059 1.913741 -0.856483
0.977018 4.205389 -1.717048
1.046528 4.506773 -1.712850
1.124613 4.841326 -1.706029
1.219227 5.246990 -1.705185
1.317484 5.671838 -1.691705
1.417425 6.098468 -1.658838
1.543881 6.644599 -1.633815
1.695882 7.295033 -1.607108
1.887615 8.116024 -1.582681
2.089580 9.170331 -1.555438
2.378444 10.441039 -1.512501
2.764729 12.130358 -1.457315
3.299312 14.468262 -1.385752
4.113437 18.044094 -1.291352
-0.000076 -0.082413 -0.002850
-0.000076 -0.082413 -0.002850
-0.000076 -0.082413 -0.002850
-0.000076 -0.082413 -0.002850
15.477280 67.629784 3.278239
15.575472 68.005280 4.923598
-0.000076 -0.082413 -0.002850
-0.000076 -0.082413 -0.002850
-0.000076 -0.082413 -0.002850
-0.000076 -0.082413 -0.002850
-0.000076 -0.082413 -0.002850
0.133556 0.494395 -0.353433
0.135189 0.500470 -0.338515
0.147820 0.554325 -0.349862
0.164418 0.624700 -0.366750
0.210027 0.819356 -0.440387
0.410426 1.677942 -0.806283
0.465977 1.912984 -0.857251
1.003807 4.208871 -1.720677
1.071219 4.493451 -1.710117
1.152516 4.833030 -1.705389
1.250773 5.243695 -1.706374
1.351032 5.666136 -1.692254
1.451645 6.084671 -1.657320
1.580801 6.628124 -1.631975
1.736979 7.279547 -1.605863
1.936126 8.110870 -1.583787
2.143247 9.160191 -1.555760
2.439008 10.427260 -1.512502
2.839965 12.135614 -1.459856
3.385290 14.458825 -1.386677
4.216840 18.016325 -1.291080
4.962038 21.181269 -1.007918
8.690906 37.101772 -0.866410
-0.000072 -0.082310 -0.002847
-0.000072 -0.082310 -0.002847
-0.000072 -0.082310 -0.002847
13.702870 58.271481 4.224924
-0.000072 -0.082310 -0.002847
-0.000072 -0.082310 -0.002847
-0.000072 -0.082310 -0.002847
-0.000072 -0.082310 -0.002847
10.014428 42.267033 8.223388
0.134087 0.482002 -0.346295
0.137726 0.496400 -0.336554
0.151480 0.553573 -0.349859
0.169307 0.627335 -0.368538
0.213960 0.812956 -0.437821
0.420976 1.677435 -0.807092
0.476594 1.906785 -0.855709
1.027190 4.197691 -1.718497
1.099293 4.494632 -1.712847
1.183452 4.837473 -1.709222
1.280517 5.232798 -1.705183
1.383649 5.656507 -1.691703
1.486223 6.072551 -1.656309
1.623082 6.634146 -1.635655
1.779330 7.269536 -1.605862
1.982343 8.095877 -1.583049
2.196887 9.149720 -1.556084
2.499014 10.411232 -1.512226
2.911641 12.124970 -1.460550
3.472670 14.454693 -1.388157
4.316346 17.972452 -1.289701
5.052305 21.018381 -1.001579
-0.000093 -0.082190 -0.002842
-0.000093 -0.082190 -0.002842
-0.000093 -0.082190 -0.002842
16.288385 67.581261 3.284695
16.457224 68.230835 4.953233
13.935918 57.676987 5.576524
13.741420 56.784248 6.874345
13.996762 57.797134 8.402594
13.255550 54.648834 9.283922
13.458316 55.401760 10.789604
0.137336 0.481323 -0.346292
0.140241 0.492302 -0.334595
0.154699 0.551096 -0.348916
0.172121 0.621235 -0.365847
0.218678 0.810063 -0.436963
0.431423 1.675000 -0.807091
0.485837 1.895151 -0.851858
1.051366 4.190005 -1.717769
1.127319 4.491790 -1.714211
1.211318 4.828836 -1.708583
1.311562 5.227294 -1.705777
1.407058 5.605358 -1.679050
1.519771 6.056486 -1.654287
1.658203 6.605617 -1.631054
1.820084 7.247557 -1.603375
2.031786 8.087881 -1.583789
2.250475 9.138941 -1.556408
2.561704 10.398238 -1.512505
2.969606 12.057940 -1.454552
3.557279 14.438424 -1.388531
4.411489 17.898190 -1.286248
5.175622 20.996805 -1.001953
-0.000089 -0.082086 -0.002838
-0.000089 -0.082086 -0.002838
17.667648 71.603859 1.755720
16.680632 67.498093 3.285233
16.834013 68.017838 4.944902
-0.000089 -0.082086 -0.002838
14.085417 56.771755 6.882492
13.700906 55.137569 8.027989
-0.000089 -0.082086 -0.002838
-0.000089 -0.082086 -0.002838
0.141923 0.485615 -0.349346
0.144476 0.494966 -0.336547
0.159748 0.555406 -0.351727
0.176278 0.620321 -0.365843
0.225570 0.815912 -0.440378
0.440617 1.669067 -0.805461
0.499806 1.901296 -0.855704
1.078217 4.193024 -1.721399
1.153192 4.483490 -1.713528
1.240966 4.827398 -1.710499
1.341642 5.217908 -1.705182
1.435982 5.582366 -1.674648
1.557012 6.055226 -1.656309
1.698125 6.601723 -1.632434
1.861471 7.239273 -1.603791
2.077361 8.076523 -1.583789
2.306600 9.131265 -1.557379
2.623460 10.389182 -1.513339
3.037224 12.022873 -1.452477
3.641428 14.409438 -1.387797
4.500859 17.816467 -1.282244
5.262550 20.814709 -0.994788
-0.000084 -0.081983 -0.002835
-0.000084 -0.081983 -0.002835
-0.000084 -0.081983 -0.002835
-0.000084 -0.081983 -0.002835
17.200432 67.819305 4.937553
-0.000084 -0.081983 -0.002835
-0.000084 -0.081983 -0.002835
-0.000084 -0.081983 -0.002835
14.502519 56.919613 9.696840
14.049436 55.058563 10.753520
0.143400 0.478240 -0.345267
0.148140 0.495933 -0.337524
0.161232 0.546016 -0.347036
0.179314 0.615961 -0.364048
0.225322 0.793695 -0.430120
0.452065 1.671907 -0.807897
0.506138 1.878830 -0.847234
1.100950 4.179631 -1.718493
1.180383 4.480532 -1.714892
1.269106 4.816392 -1.709219
1.374486 5.215516 -1.706964
1.469549 5.577823 -1.675748
1.590940 6.036642 -1.653781
1.735290 6.582222 -1.630134
1.901687 7.210848 -1.600058
2.125224 8.062260 -1.583420
2.359455 9.124095 -1.558349
2.682229 10.368254 -1.512509
3.100820 11.990432 -1.450635
3.725759 14.402485 -1.389093
4.605335 17.796156 -1.282664
5.587391 21.577345 -1.032501
-0.000080 -0.081879 -0.002832
15.386262 59.433384 0.034068
-0.000080 -0.081879 -0.002832
-0.000080 -0.081879 -0.002832
17.995522 69.277626 5.051073
-0.000080 -0.081879 -0.002832
-0.000080 -0.081879 -0.002832
-0.000080 -0.081879 -0.002832
-0.000080 -0.081879 -0.002832
13.919081 53.223122 10.411359
0.145947 0.474126 -0.343226
0.151673 0.495120 -0.337521
0.165393 0.546869 -0.347970
0.184036 0.616680 -0.364941
0.235123 0.809931 -0.438663
0.459186 1.656937 -0.802207
0.520131 1.884809 -0.851081
1.125729 4.171328 -1.717765
1.208887 4.478996 -1.716941
1.297769 4.810942 -1.709857
1.403984 5.203918 -1.705775
1.502100 5.565405 -1.674647
1.625644 6.025614 -1.653275
1.772129 6.566574 -1.628755
1.940879 7.194538 -1.598816
2.175136 8.061380 -1.585637
2.416146 9.111519 -1.558674
2.744165 10.352271 -1.512510
3.174488 11.971373 -1.450638
3.810078 14.364163 -1.387620
4.714884 17.782129 -1.283639
5.738784 21.630821 -1.036649
7.444580 28.064882 -0.661313
15.564475 58.681889 0.033631
15.965986 60.113132 1.480416
18.163860 68.351730 3.341564
18.485670 69.466660 5.072707
15.522439 58.277504 5.667662
15.025818 56.331444 6.859762
14.066847 52.657375 7.701694
-0.000075 -0.081776 -0.002829
-0.000075 -0.081776 -0.002829
0.149480 0.475080 -0.344241
0.155346 0.496051 -0.338497
0.167985 0.542629 -0.346091
0.187462 0.614025 -0.364042
0.237428 0.798193 -0.433532
0.472222 1.666800 -0.807891
0.532053 1.885556 -0.852617
1.150206 4.164875 -1.717764
1.234327 4.472280 -1.716940
1.327419 4.808967 -1.711775
1.422874 5.153471 -1.692098
1.534105 5.558893 -1.675197
1.661290 6.018126 -1.653781
1.808187 6.552936 -1.627835
1.985834 7.194671 -1.601305
2.216290 8.027966 -1.581578
2.465908 9.092268 -1.557707
2.804969 10.346442 -1.513900
3.241735 11.953571 -1.450641
3.893264 14.352395 -1.388547
4.802093 17.709396 -1.280327
5.885987 21.694988 -1.041256
-0.000071 -0.081672 -0.002825
7.555318 27.813234 0.014491
16.282492 59.951752 1.478622
-0.000071 -0.081672 -0.002825
-0.000071 -0.081672 -0.002825
15.934095 58.465847 5.694742
14.894508 54.571037 6.655893
-0.000071 -0.081672 -0.002825
-0.000071 -0.081672 -0.002825
-0.000071 -0.081672 -0.002825
0.154049 0.479300 -0.347295
0.157738 0.491896 -0.336536
0.171559 0.541769 -0.346087
0.193369 0.619929 -0.367624
0.240575 0.789936 -0.430112
0.483580 1.667582 -0.809515
1.111439 3.935641 -1.740896
1.177620 4.169065 -1.722122
1.261306 4.464995 -1.716938
1.357569 4.808664 -1.714330
1.451972 5.141616 -1.690909
1.568064 5.551645 -1.675747
1.696913 6.010412 -1.654287
1.850130 6.551573 -1.630135
2.023695 7.164032 -1.597158
2.268063 8.028036 -1.584163
2.520775 9.085645 -1.559000
2.870449 10.343107 -1.515841
3.309930 11.930975 -1.450183
3.972615 14.316391 -1.387261
-0.000092 -0.081552 -0.002820
6.037907 21.757128 -1.045864
-0.000092 -0.081552 -0.002820
7.734045 27.816202 0.014507
16.661074 59.976562 1.481542
-0.000092 -0.081552 -0.002820
-0.000092 -0.081552 -0.002820
14.930474 53.521141 5.222036
14.895420 53.359390 6.518571
14.508342 51.900749 7.614981
14.581133 52.091522 8.930680
14.462696 51.633179 10.147895
0.155969 0.473514 -0.344234
0.162088 0.494410 -0.338490
0.175737 0.542545 -0.347022
0.197530 0.618874 -0.367621
0.247554 0.795600 -0.433527
0.493138 1.663119 -0.808700
1.133231 3.921981 -1.737816
1.201066 4.158722 -1.720669
1.289005 4.463183 -1.718986
1.385195 4.799037 -1.713691
1.481497 5.131434 -1.690315
1.599408 5.538939 -1.674646
1.728241 5.987628 -1.650749
1.890431 6.548395 -1.631976
2.068938 7.169658 -1.600891
2.311679 8.009688 -1.583057
2.576725 9.076324 -1.559972
2.930965 10.328412 -1.516122
3.383289 11.918885 -1.451110
4.060142 14.300338 -1.388005
4.830753 17.018633 -1.234695
6.158665 21.690266 -1.044402
-0.000088 -0.081449 -0.002817
7.907102 27.815580 0.014522
-0.000088 -0.081449 -0.002817
-0.000088 -0.081449 -0.002817
16.835787 59.120293 4.338104
14.748332 51.745903 5.056907
14.533405 50.923191 6.231349
14.773789 51.698368 7.597620
-0.000088 -0.081449 -0.002817
-0.000088 -0.081449 -0.002817
0.160968 0.479354 -0.348308
0.164325 0.490256 -0.336529
0.180696 0.546741 -0.349833
0.199946 0.612715 -0.364929
0.255605 0.804692 -0.438651
0.502659 1.658608 -0.807884
1.147877 3.889095 -1.726269
1.224934 4.150058 -1.719941
1.315678 4.457592 -1.719669
1.411673 4.785635 -1.711772
1.514145 5.132102 -1.693287
1.633359 5.535274 -1.676297
1.762629 5.975810 -1.650246
1.926943 6.531895 -1.630598
2.111369 7.155486 -1.600477
2.359643 7.995932 -1.583059
2.628349 9.063811 -1.560297
2.983192 10.284822 -1.512245
3.448606 11.894171 -1.450423
4.142017 14.283302 -1.388563
4.845565 16.701178 -1.213817
7.108638 24.523193 -1.181822
-0.000083 -0.081345 -0.002814
8.083768 27.825388 0.014541
-0.000083 -0.081345 -0.002814
-0.000083 -0.081345 -0.002814
-0.000083 -0.081345 -0.002814
14.630552 50.196857 4.914027
14.643099 50.207497 6.154035
-0.000083 -0.081345 -0.002814
15.125259 51.729012 8.897752
-0.000083 -0.081345 -0.002814
0.163322 0.475194 -0.346266
0.166734 0.486024 -0.334569
0.183421 0.542375 -0.347954
0.205068 0.615053 -0.366718
0.257270 0.791133 -0.432666
0.512452 1.653948 -0.807069
1.173507 3.889396 -1.729348
1.250005 4.142829 -1.719940
1.343102 4.451620 -1.720351
1.435129 4.759113 -1.705381
1.540692 5.108494 -1.688529
1.663363 5.514532 -1.672997
1.796312 5.957950 -1.648224
1.967812 6.526048 -1.631979
2.152034 7.135437 -1.598820
2.406963 7.980004 -1.582692
2.682569 9.048147 -1.560300
3.041282 10.255643 -1.510585
3.518473 11.869797 -1.449966
4.228293 14.262401 -1.388939
-0.000079 -0.081241 -0.002811
7.264124 24.513252 -1.183399
-0.000079 -0.081241 -0.002811
8.265651 27.832670 0.014562
16.254642 54.777031 1.359733
16.257391 54.716240 2.696895
-0.000079 -0.081241 -0.002811
17.352669 58.259014 5.712369
14.572927 48.882370 6.002238
14.813759 49.628220 7.318590
15.934038 53.319527 9.187016
-0.000079 -0.081241 -0.002811
0.167013 0.476003 -0.347282
0.172004 0.491847 -0.338480
0.185480 0.536344 -0.345137
0.209573 0.615696 -0.367610
0.264904 0.798391 -0.436937
0.521089 1.647658 -0.805443
1.194219 3.875607 -1.726268
1.276473 4.142793 -1.722846
1.366219 4.436958 -1.717619
1.465734 4.759935 -1.708577
1.572762 5.106955 -1.690908
1.697359 5.514466 -1.675747
1.832172 5.951319 -1.649235
2.000131 6.500175 -1.628299
2.194584 7.130895 -1.600481
2.458795 7.989119 -1.587123
2.735642 9.034559 -1.560625
3.096112 10.229119 -1.509204
3.590646 11.860877 -1.451354
4.307946 14.228382 -1.388022
4.881401 16.122938 -1.176070
7.410233 24.486431 -1.184148
8.356021 27.587200 -0.656604
8.420818 27.784262 0.014543
-0.000074 -0.081138 -0.002807
-0.000074 -0.081138 -0.002807
-0.000074 -0.081138 -0.002807
15.937373 52.426056 5.149548
14.787080 48.575394 5.974888
15.102062 49.580845 7.323869
-0.000074 -0.081138 -0.002807
15.525571 50.846027 10.061214
0.167705 0.466905 -0.342183
0.175285 0.490962 -0.338476
0.191617 0.543822 -0.349823
0.211488 0.607741 -0.364022
0.264627 0.779690 -0.428386
0.529170 1.637664 -0.802190
1.218602 3.874071 -1.728576
1.298571 4.128356 -1.719940
1.395772 4.437853 -1.721034
1.489093 4.737049 -1.703463
1.585673 5.043190 -1.673070
1.725408 5.487867 -1.670797
1.866896 5.940757 -1.649237
2.042615 6.499438 -1.631061
2.240233 7.127196 -1.602556
2.505477 7.970732 -1.586388
2.789259 9.022520 -1.561275
3.155470 10.205003 -1.508375
3.658789 11.838188 -1.451130
4.384435 14.184403 -1.386184
4.941661 15.977472 -1.167640
7.556273 24.458738 -1.184898
-0.000070 -0.081034 -0.002804
-0.000070 -0.081034 -0.002804
-0.000070 -0.081034 -0.002804
-0.000070 -0.081034 -0.002804
-0.000070 -0.081034 -0.002804
14.139498 45.527439 4.480724
-0.000070 -0.081034 -0.002804
15.385324 49.454525 7.318525
15.415357 49.490253 8.557916
-0.000070 -0.081034 -0.002804
0.174541 0.477510 -0.349314
0.178675 0.490019 -0.338473
0.194792 0.541093 -0.348882
0.215049 0.604862 -0.363124
0.272444 0.786833 -0.432657
0.535774 1.624233 -0.797314
1.242028 3.866885 -1.728575
1.321264 4.113585 -1.717033
1.422895 4.433434 -1.722399
1.519934 4.735455 -1.706021
-0.000089 -0.080912 -0.002799
1.759751 5.485288 -1.672998
1.899656 5.920460 -1.646711
2.079286 6.483967 -1.630142
2.282278 7.116155 -1.602972
2.553566 7.961905 -1.587497
2.844976 9.011581 -1.562247
3.215248 10.188643 -1.508657
3.729418 11.816388 -1.451134
4.476131 14.181053 -1.388405
5.048985 15.996446 -1.171106
7.711327 24.444071 -1.186384
-0.000089 -0.080912 -0.002799
-0.000089 -0.080912 -0.002799
-0.000089 -0.080912 -0.002799
-0.000089 -0.080912 -0.002799
-0.000089 -0.080912 -0.002799
-0.000089 -0.080912 -0.002799
16.179661 51.003101 6.295862
15.252148 48.045616 7.123105
14.003208 44.051407 7.632405
16.632284 52.273861 10.380985
0.179850 0.483152 -0.353388
0.180905 0.485759 -0.336513
0.201054 0.548482 -0.353568
0.220075 0.607130 -0.364913
0.278531 0.788806 -0.434362
0.545574 1.621231 -0.797311
1.267559 3.868561 -1.732423
1.349953 4.120207 -1.722844
1.445990 4.416322 -1.718985
1.547644 4.726731 -1.706021
1.633745 4.988155 -1.661179
1.792963 5.478824 -1.674099
-0.000085 -0.080808 -0.002796
2.117059 6.471983 -1.630145
2.324281 7.104864 -1.603388
2.597417 7.939692 -1.586024
2.900279 9.004555 -1.563865
3.274927 10.171961 -1.508938
3.799068 11.798609 -1.451601
4.569131 14.189272 -1.391737
5.167649 16.048923 -1.177063
7.859134 24.420296 -1.187411
-0.000085 -0.080808 -0.002796
16.694347 51.870720 0.029611
-0.000085 -0.080808 -0.002796
-0.000085 -0.080808 -0.002796
14.512600 44.946705 3.333572
16.359571 50.616673 4.999120
14.612308 45.148079 5.584176
14.226075 43.926456 6.525172
14.170857 43.703533 7.586165
15.916430 49.038425 9.757247
0.180442 0.474026 -0.348290
0.183631 0.483149 -0.335532
0.201934 0.539022 -0.348875
0.224574 0.607665 -0.365805
0.277372 0.768372 -0.424960
0.552251 1.607648 -0.792435
1.285693 3.847256 -1.726266
1.375862 4.117777 -1.725023
1.469110 4.397064 -1.714886
-0.000080 -0.080704 -0.002792
1.608034 4.811884 -1.606473
1.623971 4.854481 -1.489256
1.613986 4.821317 -1.350575
1.614772 4.817912 -1.221698
2.371153 7.104059 -1.606293
2.647410 7.931722 -1.587502
2.950106 8.980297 -1.562577
3.335081 10.150569 -1.508665
3.869874 11.784192 -1.452530
4.640085 14.128762 -1.388421
5.298602 16.126173 -1.184957
8.010030 24.405115 -1.188899
-0.000080 -0.080704 -0.002792
-0.000080 -0.080704 -0.002792
-0.000080 -0.080704 -0.002792
16.940588 51.491688 2.560936
17.036362 51.722389 3.843002
-0.000080 -0.080704 -0.002792
15.563066 47.159264 5.843538
14.864107 44.984848 6.695089
14.408154 43.551319 7.574418
16.300777 49.253937 9.818503
0.183728 0.473049 -0.348286
0.189174 0.488774 -0.339443
0.203945 0.532882 -0.346059
0.226396 0.599643 -0.362217
0.283388 0.770305 -0.426666
0.562542 1.606274 -0.793245
1.313648 3.853674 -1.732423
1.400015 4.109886 -1.725023
1.494277 4.386845 -1.714204
-0.000078 -0.080604 -0.002789
1.628909 4.780917 -1.599339
-0.000078 -0.080604 -0.002789
-0.000078 -0.080604 -0.002789
-0.000078 -0.080604 -0.002789
1.647367 4.819028 -1.098332
2.686461 7.900153 -1.584183
3.008158 8.975856 -1.564842
3.392677 10.127554 -1.508115
3.941453 11.764907 -1.452997
4.728093 14.112417 -1.389537
5.413911 16.161755 -1.189808
8.169713 24.400848 -1.191031
8.501610 25.380644 -0.610098
-0.000078 -0.080604 -0.002789
-0.000078 -0.080604 -0.002789
-0.000078 -0.080604 -0.002789
14.950559 44.513119 3.314090
-0.000078 -0.080604 -0.002789
-0.000078 -0.080604 -0.002789
15.206714 45.146385 6.731953
14.703184 43.623661 7.601069
16.499960 48.907928 9.768319
0.184049 0.463977 -0.343187
0.190102 0.481216 -0.335525
0.205668 0.526821 -0.343243
0.230766 0.600164 -0.363111
1.553386 4.494525 -2.286258
0.581945 1.632633 -0.807054
1.333812 3.841136 -1.730114
1.427103 4.110698 -1.728654
1.516757 4.371431 -1.711472
1.623090 4.678082 -1.698352
1.652548 4.758916 -1.595177
1.657443 4.770457 -1.469452
-0.000073 -0.080500 -0.002786
-0.000073 -0.080500 -0.002786
-0.000073 -0.080500 -0.002786
2.733006 7.886514 -1.584556
3.059319 8.960894 -1.565169
3.447719 10.102922 -1.507289
4.006268 11.739043 -1.452543
4.816212 14.112317 -1.392128
5.514789 16.161600 -1.192031
8.320446 24.396564 -1.193072
-0.000073 -0.080500 -0.002786
-0.000073 -0.080500 -0.002786
-0.000073 -0.080500 -0.002786
-0.000073 -0.080500 -0.002786
15.325714 44.799084 3.341632
15.167167 44.284271 4.399420
14.858930 43.333149 5.390756
14.889279 43.397160 6.483706
14.925851 43.454361 7.586391
16.548326 48.131897 9.632323
0.191099 0.474408 -0.350318
0.191047 0.473631 -0.331607
0.209147 0.525744 -0.343239
0.234095 0.597240 -0.362211
-0.000069 -0.080396 -0.002783
0.589713 1.622343 -0.803803
1.356344 3.833515 -1.730112
1.446950 4.090177 -1.723570
1.543137 4.362460 -1.711472
1.651707 4.672341 -1.699631
1.675982 4.736804 -1.591015
1.682394 4.749748 -1.466152
-0.000069 -0.080396 -0.002783
-0.000069 -0.080396 -0.002783
-0.000069 -0.080396 -0.002783
2.779571 7.868409 -1.584190
3.115834 8.956289 -1.567435
3.510660 10.089882 -1.508403
4.076844 11.723406 -1.453472
4.897215 14.082572 -1.391953
5.625407 16.170187 -1.195084
8.456676 24.335140 -1.192446
-0.000069 -0.080396 -0.002783
16.880806 48.546852 0.027627
16.398367 47.130577 1.187097
16.819170 48.287655 2.415616
15.874424 45.519547 3.402236
16.320080 46.747066 4.653276
15.067504 43.128799 5.376012
15.131993 43.265152 6.477243
15.013983 42.878933 7.501427
16.330116 46.618652 9.348485
0.193265 0.470109 -0.348278
0.196069 0.477524 -0.334540
0.215674 0.532927 -0.347925
0.239893 0.601006 -0.364897
1.597710 4.450701 -2.273438
0.589161 1.589728 -0.789989
1.380779 3.828974 -1.731653
1.469164 4.074608 -1.720664
1.571207 4.360689 -1.714205
1.683677 4.673271 -1.703467
1.705817 4.730474 -1.592206
1.710807 4.741912 -1.466701
1.716943 4.753783 -1.342492
1.725192 4.774352 -1.220320
-0.000088 -0.080274 -0.002778
2.827280 7.857925 -1.585301
3.166756 8.930313 -1.566146
3.570470 10.073343 -1.508962
4.150113 11.708474 -1.454633
-0.000088 -0.080274 -0.002778
-0.000088 -0.080274 -0.002778
8.517584 24.047264 -1.180873
8.567492 24.161705 -0.584547
-0.000088 -0.080274 -0.002778
-0.000088 -0.080274 -0.002778
-0.000088 -0.080274 -0.002778
16.680836 46.961826 3.517002
-0.000088 -0.080274 -0.002778
15.014977 42.170311 5.267648
15.046985 42.236969 6.336332
-0.000088 -0.080274 -0.002778
15.370025 43.050095 8.651953
0.195854 0.467471 -0.347256
0.196926 0.469926 -0.330622
0.218618 0.530104 -0.346986
0.246242 0.606435 -0.368481
1.629274 4.456843 -2.281131
0.590725 1.564062 -0.779426
1.403272 3.821058 -1.731653
1.493054 4.066190 -1.720664
1.596740 4.351684 -1.714204
1.710365 4.661826 -1.702828
1.734133 4.722472 -1.592801
1.741153 4.739316 -1.468903
1.751982 4.763944 -1.348052
1.760401 4.784579 -1.225381
-0.000084 -0.080170 -0.002774
2.874961 7.847161 -1.586413
3.220595 8.917602 -1.567121
3.631556 10.060180 -1.510077
4.227310 11.710665 -1.457872
4.930586 13.657178 -1.355787
5.773072 15.995618 -1.187083
8.669897 24.035521 -1.182731
-0.000084 -0.080170 -0.002774
-0.000084 -0.080170 -0.002774
17.023815 47.142746 1.192255
17.231607 47.666992 2.394404
15.484520 42.802559 3.212373
15.666265 43.258480 4.323967
15.325659 42.270023 5.290958
15.037604 41.451450 6.231480
15.227379 41.929741 7.365663
15.726746 43.260250 8.712093
0.197231 0.461591 -0.344195
0.204271 0.480358 -0.337470
0.220907 0.525632 -0.345106
0.245286 0.591677 -0.361308
1.656623 4.450875 -2.282842
0.601434 1.564175 -0.781048
1.430145 3.825158 -1.737041
1.516906 4.057626 -1.720664
1.622226 4.342522 -1.714205
1.738955 4.655560 -1.704108
1.769653 4.734026 -1.599937
1.776862 4.750960 -1.475507
1.787849 4.775684 -1.354116
-0.000079 -0.080067 -0.002771
2.628752 7.047853 -1.612946
2.917821 7.823211 -1.584939
3.271664 8.897160 -1.566802
3.689898 10.039188 -1.510084
4.295138 11.686228 -1.457879
4.935791 13.426650 -1.335858
6.604841 17.984121 -1.336363
8.859432 24.124147 -1.189557
-0.000079 -0.080067 -0.002771
16.576208 45.133049 0.025552
-0.000079 -0.080067 -0.002771
17.267914 46.918247 2.361720
15.870279 43.091022 3.240754
15.700314 42.582756 4.265415
15.646184 42.389942 5.317072
15.411476 41.730320 6.286509
15.509371 41.950703 7.384826
15.976774 43.170918 8.712429
0.199737 0.458946 -0.343172
0.206274 0.476009 -0.335509
0.225625 0.527765 -0.346979
0.249766 0.592042 -0.362200
-0.000077 -0.079966 -0.002768
0.608978 1.555648 -0.778609
1.448084 3.804861 -1.731653
1.542022 4.052410 -1.722119
1.645043 4.326157 -1.711475
1.766836 4.647359 -1.704746
1.805388 4.745312 -1.607075
1.818118 4.776776 -1.486510
-0.000077 -0.079966 -0.002768
-0.000077 -0.079966 -0.002768
2.663565 7.016221 -1.609217
2.967427 7.817427 -1.587158
3.323992 8.880128 -1.567130
3.749463 10.021605 -1.510643
4.369040 11.678171 -1.459963
4.942675 13.207723 -1.317037
6.718500 17.972065 -1.338314
8.557128 22.887751 -1.131344
-0.000077 -0.079966 -0.002768
-0.000077 -0.079966 -0.002768
16.832569 44.978977 1.142245
15.469049 41.284973 2.082716
16.770935 44.742363 3.371974
16.482868 43.925713 4.409144
-0.000077 -0.079966 -0.002768
15.622788 41.563118 6.274733
15.824710 42.056622 7.419283
15.661298 41.577255 8.409279
0.203455 0.459495 -0.344189
0.208867 0.473281 -0.334528
0.230360 0.529870 -0.348851
0.255529 0.595714 -0.364887
0.317584 0.758881 -0.426646
0.623212 1.564071 -0.784295
1.475016 3.808641 -1.737042
1.559821 4.027897 -1.715581
1.673143 4.321706 -1.713524
1.791333 4.630126 -1.702191
1.886820 4.875925 -1.654052
2.081801 5.382292 -1.675213
-0.000072 -0.079862 -0.002764
2.455855 6.353636 -1.630163
2.706307 7.002226 -1.609635
3.014241 7.799769 -1.587164
3.375529 8.860944 -1.567135
3.807943 9.995576 -1.510096
4.440888 11.664080 -1.461356
4.945789 12.985444 -1.297847
6.829725 17.943188 -1.339159
8.666572 22.778425 -1.128419
8.709193 22.866659 -0.558197
-0.000072 -0.079862 -0.002764
17.799402 46.742878 1.189608
15.561357 40.812538 2.063338
16.489704 43.206635 3.263609
16.206594 42.418800 4.267581
15.798688 41.327457 5.206333
15.914831 41.588196 6.292583
17.291561 45.145325 7.981206
15.855303 41.367184 8.385097
0.206025 0.456784 -0.343166
0.211507 0.470515 -0.333546
0.232073 0.523650 -0.346035
0.259520 0.594298 -0.364883
0.319306 0.748652 -0.422371
0.634649 1.565668 -0.786731
1.492068 3.784428 -1.730114
1.584830 4.020416 -1.716308
1.697791 4.310344 -1.712842
1.817186 4.614219 -1.700275
1.958271 4.973366 -1.690325
2.109027 5.359579 -1.671912
2.284721 5.806600 -1.651783
2.492873 6.339474 -1.630167
2.745606 6.982996 -1.608808
3.059561 7.782393 -1.587168
3.430639 8.846393 -1.568110
3.869454 9.982827 -1.511488
4.528311 11.683988 -1.467133
4.955887 12.781306 -1.280502
6.938421 17.916695 -1.340142
9.481123 24.486210 -1.215284
-0.000092 -0.079740 -0.002759
-0.000092 -0.079740 -0.002759
-0.000092 -0.079740 -0.002759
15.671658 40.378681 2.046037
17.310423 44.586227 3.375129
16.474117 42.384281 4.273524
16.036901 41.214592 5.203961
16.036192 41.191395 6.246428
16.060946 41.212368 7.303040
16.194372 41.512390 8.433721
0.207848 0.452496 -0.341124
0.220396 0.484008 -0.342351
0.236839 0.525697 -0.347908
0.263403 0.592894 -0.364881
0.326038 0.751960 -0.424931
0.646776 1.568901 -0.789978
1.514291 3.775879 -1.730115
1.613861 4.025206 -1.722119
1.723045 4.300596 -1.712844
1.843500 4.602009 -1.699638
1.981733 4.947894 -1.685570
2.142426 5.352813 -1.673565
2.317870 5.791652 -1.651280
2.527637 6.319696 -1.628790
2.787681 6.970803 -1.609642
3.110565 7.779373 -1.590126
3.481969 8.826604 -1.568115
3.929472 9.966036 -1.512325
-0.000087 -0.079636 -0.002756
4.987722 12.645117 -1.269804
7.052112 17.902567 -1.342092
9.633371 24.459215 -1.216685
-0.000087 -0.079636 -0.002756
-0.000087 -0.079636 -0.002756
15.794361 40.049763 1.023717
15.884603 40.237701 2.043453
16.224068 41.078205 3.116800
16.401175 41.484940 4.192349
16.463455 41.600143 5.264389
16.649921 42.050652 6.390891
16.313742 41.157822 7.309832
16.309200 41.104263 8.369789
0.211560 0.452987 -0.342141
0.216540 0.465014 -0.331582
0.238347 0.519514 -0.345091
0.261976 0.578183 -0.357707
0.326147 0.738410 -0.418947
-0.000083 -0.079533 -0.002753
1.532342 3.756926 -1.725496
1.634693 4.009030 -1.719214
1.748229 4.290709 -1.712845
1.869709 4.589668 -1.699000
2.013484 4.943595 -1.687950
2.175102 5.344055 -1.674668
2.350911 5.776518 -1.650777
2.570241 6.319592 -1.632473
2.828226 6.954741 -1.609646
3.160151 7.772386 -1.592344
3.533933 8.808331 -1.568445
3.992379 9.956226 -1.514272
4.653209 11.605413 -1.463920
5.034363 12.549691 -1.263167
7.158514 17.869171 -1.342661
9.788588 24.438688 -1.218455
-0.000083 -0.079533 -0.002753
-0.000083 -0.079533 -0.002753
18.701412 46.644512 1.195090
16.028849 39.926834 2.032283
16.234404 40.419403 3.073854
17.461168 43.435658 4.399258
16.818720 41.792282 5.300767
16.933640 42.057079 6.406502
16.425020 40.750244 7.254151
17.094469 42.371517 8.647223
0.217839 0.459847 -0.347233
0.221638 0.468710 -0.334516
0.245771 0.528061 -0.350716
0.269793 0.586709 -0.363083
0.336277 0.750034 -0.425781
1.486030 3.581641 -1.759177
1.555804 3.751555 -1.727037
1.659625 4.003093 -1.720669
1.774110 4.280375 -1.712845
1.894427 4.573659 -1.697085
2.040935 4.928489 -1.686763
2.205778 5.327610 -1.673569
2.383145 5.759389 -1.649770
2.606681 6.300735 -1.631556
2.868421 6.934330 -1.608820
3.223062 7.793624 -1.600471
3.588007 8.795259 -1.569743
4.055562 9.941649 -1.515666
4.715927 11.567492 -1.462543
5.118972 12.550124 -1.266132
7.273125 17.846828 -1.344199
8.702505 21.359035 -1.068238
15.051746 36.963028 -0.907752
-0.000078 -0.079429 -0.002750
16.167315 39.648735 1.018071
16.163256 39.599007 2.020263
16.447302 40.255959 3.068749
16.746817 40.949505 4.157685
18.120686 44.293213 5.630603
17.107681 41.770824 6.378230
17.034693 41.550743 7.414202
17.530787 42.741692 8.743014
0.219736 0.455456 -0.345193
0.226875 0.472334 -0.337448
0.245331 0.516900 -0.345085
0.274415 0.586859 -0.363976
0.341739 0.749861 -0.426633
1.495935 3.546093 -1.746179
1.580600 3.747493 -1.729345
1.682386 3.991858 -1.719943
1.797758 4.266708 -1.711481
1.923360 4.568032 -1.699004
2.071196 4.920288 -1.687954
2.236146 5.313140 -1.673022
2.417456 5.747473 -1.650278
2.642640 6.283922 -1.631100
2.911296 6.927339 -1.610898
3.269988 7.782878 -1.601952
3.640602 8.773917 -1.569750
4.116224 9.925548 -1.516783
4.793262 11.559623 -1.465091
5.196076 12.525174 -1.266695
7.386880 17.830572 -1.346152
8.851657 21.360685 -1.070926
15.251816 36.844440 -0.907019
16.703814 40.319534 0.022673
16.414230 39.579918 1.018743
16.329567 39.355873 2.012583
16.733547 40.291550 3.078697
17.005426 40.927177 4.164933
17.141476 41.214428 5.252124
16.919832 40.640285 6.220551
17.285103 41.498802 7.421968
17.800505 42.696388 8.754485
0.225350 0.460695 -0.349265
0.231975 0.475983 -0.340382
0.248768 0.515574 -0.345083
0.278817 0.587077 -0.364869
0.345815 0.746309 -0.425776
1.512542 3.527411 -1.741305
-0.000071 -0.079225 -0.002743
1.704354 3.978772 -1.718492
1.824935 4.261587 -1.713531
1.947937 4.549673 -1.696447
2.103040 4.913299 -1.689740
2.271628 5.310920 -1.676325
2.454247 5.738476 -1.651798
2.684116 6.277208 -1.633403
2.952497 6.905932 -1.610072
3.320408 7.772485 -1.603804
3.687683 8.748103 -1.568786
4.174510 9.903627 -1.517066
4.868163 11.556598 -1.468102
5.275601 12.518113 -1.268920
7.494509 17.798893 -1.346998
10.276777 24.411842 -1.225887
15.652283 37.204090 -0.918056
16.871088 40.067902 0.022534
20.488384 48.628052 1.254757
16.549320 39.225235 2.010843
16.801559 39.804840 3.048833
17.436453 41.271515 4.210316
17.296583 40.899834 5.225001
17.583509 41.538967 6.373672
17.608351 41.577377 7.454463
18.083889 42.660709 8.768927
0.227985 0.457820 -0.348244
0.231259 0.465040 -0.334507
0.255738 0.522331 -0.349769
0.279379 0.577238 -0.360385
0.348575 0.739366 -0.423209
1.536785 3.525199 -1.744556
1.628845 3.737454 -1.733196
1.729128 3.970406 -1.719219
1.850646 4.250793 -1.713532
1.972327 4.533252 -1.694532
2.130984 4.899460 -1.689147
2.299792 5.288604 -1.673578
2.486168 5.720806 -1.650789
2.717603 6.254601 -1.631567
2.995316 6.898430 -1.612151
3.365567 7.753336 -1.603810
3.743070 8.729156 -1.569439
4.234455 9.880602 -1.517353
4.943788 11.537725 -1.469496
5.362604 12.509567 -1.271333
7.609056 17.774406 -1.348537
10.439128 24.390980 -1.227934
15.718576 36.748394 -0.909178
17.151403 40.066532 0.022555
-0.000091 -0.079102 -0.002738
16.813091 39.217571 2.015330
17.052059 39.737556 3.051322
17.686834 41.199818 4.213264
17.573008 40.894577 5.237097
17.952585 41.739212 6.420024
17.980352 41.783638 7.509735
18.353016 42.610126 8.780025
0.230291 0.455071 -0.347221
0.234293 0.463845 -0.334504
0.259800 0.522615 -0.350704
0.282330 0.574132 -0.359485
0.350399 0.730821 -0.419787
1.557602 3.518349 -1.745369
1.648670 3.725005 -1.731658
1.753891 3.963911 -1.720673
1.873295 4.237048 -1.712168
2.001862 4.528886 -1.697090
2.158083 4.883716 -1.687960
2.331258 5.279307 -1.674681
2.521055 5.710054 -1.651803
2.756031 6.246565 -1.633410
3.037796 6.886542 -1.613400
3.409824 7.732133 -1.603447
3.789857 8.702776 -1.568477
4.293911 9.866007 -1.518746
4.984927 11.455344 -1.462581
5.439114 12.494175 -1.272819
7.722089 17.762882 -1.350905
10.596275 24.380064 -1.230353
-0.000086 -0.078998 -0.002735
17.553619 40.381233 0.022771
21.091776 48.489952 1.257270
17.106827 39.275928 2.023304
17.231180 39.543037 3.043683
18.219131 41.774742 4.282572
17.868214 40.929371 5.254560
18.292694 41.883484 6.457709
18.255865 41.759102 7.524006
18.578911 42.458817 8.770693
0.233370 0.453835 -0.347219
0.236020 0.459395 -0.332544
0.256884 0.506648 -0.342261
0.286801 0.574241 -0.360379
0.360158 0.740472 -0.425768
1.577439 3.505808 -1.743745
1.667574 3.708794 -1.728580
1.777140 3.953853 -1.720674
1.898096 4.224258 -1.711486
2.029124 4.519120 -1.697731
2.188171 4.874805 -1.689152
2.363774 5.267250 -1.675234
2.553569 5.693769 -1.651301
2.788797 6.219523 -1.630656
3.081424 6.873886 -1.614648
3.457686 7.715470 -1.604190
3.837174 8.673691 -1.567190
4.358418 9.853149 -1.520695
4.980182 11.264654 -1.442049
5.521844 12.486446 -1.275231
7.841475 17.747900 -1.353276
-0.000082 -0.078895 -0.002731
-0.000082 -0.078895 -0.002731
-0.000082 -0.078895 -0.002731
20.704571 46.856747 1.217918
17.259731 39.010574 2.014679
17.534519 39.595314 3.055595
18.418802 41.556755 4.271309
18.376595 41.441658 5.333654
18.570230 41.839500 6.467724
20.636402 46.459492 8.391423
18.518375 41.663204 8.628383
0.237905 0.455705 -0.349253
0.241334 0.462870 -0.335477
0.263218 0.511681 -0.346009
0.290676 0.572630 -0.360376
0.368566 0.746739 -0.430039
1.598058 3.496764 -1.743746
1.690009 3.698940 -1.728582
1.799569 3.941956 -1.719949
1.923621 4.215064 -1.712172
2.050134 4.495357 -1.693259
2.213541 4.855251 -1.686776
2.392150 5.248400 -1.673586
2.588357 5.682598 -1.652316
2.830589 6.215899 -1.633879
3.121800 6.860246 -1.615482
3.497931 7.688969 -1.602720
3.891454 8.656280 -1.568167
4.416347 9.829798 -1.520981
4.993170 11.113447 -1.426596
5.617415 12.500839 -1.280044
7.960268 17.738991 -1.356061
8.899611 19.822834 -1.006805
15.772645 35.175827 -0.877156
-0.000077 -0.078791 -0.002728
-0.000077 -0.078791 -0.002728
17.534422 39.021824 2.020388
17.881981 39.759514 3.076087
18.734240 41.638638 4.290329
18.927319 42.029137 5.423016
18.871469 41.865608 6.488358
19.570854 43.399708 7.859050
18.852905 41.765629 8.671796
0.240901 0.454462 -0.349252
0.242200 0.456851 -0.332538
0.265793 0.508689 -0.345069
0.296509 0.575997 -0.363062
0.361203 0.718440 -0.416361
1.619502 3.491221 -1.745372
1.708785 3.684508 -1.726273
1.818898 3.925167 -1.717044
1.947541 4.204374 -1.712172
2.077214 4.487387 -1.694540
2.241833 4.844664 -1.687373
2.419451 5.229820 -1.671938
2.622882 5.673454 -1.653835
2.865685 6.200108 -1.633883
3.163741 6.849929 -1.617146
3.542876 7.673009 -1.603464
3.937710 8.629133 -1.567204
4.479751 9.823148 -1.523761
5.000684 10.964248 -1.411142
5.708945 12.516536 -1.284857
8.074466 17.727076 -1.358570
-0.000075 -0.078691 -0.002725
15.779954 34.670387 -0.866831
-0.000075 -0.078691 -0.002725
18.360683 40.278370 1.052167
17.802160 39.032497 2.026001
18.029741 39.495747 3.063381
19.304710 42.274540 4.366734
-0.000075 -0.078691 -0.002725
19.385931 42.373978 6.583614
19.029417 41.573921 7.547942
18.949823 41.361332 8.609717
0.241897 0.448446 -0.346190
0.250461 0.466617 -0.339385
0.267795 0.504002 -0.343190
0.298154 0.569458 -0.360371
0.369861 0.724529 -0.420633
1.638355 3.476678 -1.742936
1.734148 3.681134 -1.729352
1.846429 3.920868 -1.719951
1.970554 4.187732 -1.710125
2.104261 4.473005 -1.693903
2.273461 4.834449 -1.688565
2.454130 5.222459 -1.674142
2.658766 5.659194 -1.654344
2.906152 6.190166 -1.635727
3.222474 6.866078 -1.625446
3.588485 7.647773 -1.602731
3.988472 8.603933 -1.566888
4.543384 9.807298 -1.525433
5.011298 10.815381 -1.395918
5.799384 12.516936 -1.288377
8.190814 17.702524 -1.360388
11.217889 24.251385 -1.236715
-0.000068 -0.078584 -0.002722
-0.000068 -0.078584 -0.002722
-0.000068 -0.078584 -0.002722
18.384581 39.666561 2.064622
-0.000068 -0.078584 -0.002722
20.666111 44.537342 4.613051
19.582958 42.160183 5.468904
19.599974 42.177479 6.570987
19.467144 41.852585 7.619797
19.571957 42.039787 8.775326
0.242028 0.440902 -0.342111
0.248447 0.454195 -0.332533
0.275618 0.512168 -0.348814
0.304154 0.572692 -0.363057
0.374486 0.722486 -0.420631
1.658003 3.465647 -1.742123
1.754203 3.667845 -1.727814
1.867063 3.905201 -1.717774
1.996690 4.179812 -1.711494
2.132850 4.466062 -1.695823
2.301706 4.821390 -1.688568
2.485450 5.210076 -1.674696
2.691757 5.643898 -1.654348
2.942210 6.173423 -1.635733
3.274910 6.874061 -1.631672
3.633761 7.628855 -1.603108
4.040073 8.584498 -1.567543
4.597721 9.775690 -1.524611
5.018472 10.667643 -1.380695
6.597054 14.034952 -1.447183
8.304910 17.680458 -1.362345
11.362900 24.197334 -1.237296
15.932424 33.928680 -0.853102
22.268747 47.431526 0.027329
22.346169 47.553299 1.248948
-0.000087 -0.078461 -0.002717
19.984211 42.460526 3.310841
-0.000087 -0.078461 -0.002717
-0.000087 -0.078461 -0.002717
20.124802 42.662430 6.664280
19.869814 42.082626 7.682219
19.774803 41.842945 8.757816
0.247948 0.445838 -0.346185
0.253742 0.457597 -0.335465
0.277503 0.507481 -0.346936
0.304817 0.564587 -0.359468
0.376761 0.715523 -0.418064
1.679784 3.457504 -1.742937
1.774170 3.654444 -1.726277
1.889957 3.894499 -1.717775
2.020288 4.164610 -1.710129
2.157357 4.450390 -1.694548
2.328251 4.804702 -1.687382
2.510968 5.183198 -1.670848
2.725502 5.630141 -1.654858
2.980929 6.159475 -1.636658
3.318634 6.859905 -1.632922
3.679406 7.607272 -1.603114
4.088203 8.557628 -1.566904
-0.000085 -0.078361 -0.002713
-0.000085 -0.078361 -0.002713
6.679080 13.998623 -1.447383
8.430654 17.674250 -1.365685
11.513642 24.155067 -1.238520
16.065311 33.704651 -0.849838
22.284632 46.740654 0.026917
-0.000085 -0.078361 -0.002713
-0.000085 -0.078361 -0.002713
-0.000085 -0.078361 -0.002713
-0.000085 -0.078361 -0.002713
20.610989 43.068386 5.616800
20.404533 42.597767 6.672892
20.140953 42.008587 7.690300
-0.000085 -0.078361 -0.002713
0.252558 0.447556 -0.348221
0.255417 0.453032 -0.333506
0.277903 0.499570 -0.343181
0.310175 0.566093 -0.361258
0.379757 0.710187 -0.416353
1.701695 3.451173 -1.744562
1.797886 3.647281 -1.727818
1.909569 3.876935 -1.714872
2.043046 4.149629 -1.708766
2.180087 4.431182 -1.691993
2.353807 4.786174 -1.685600
2.546242 5.179145 -1.674152
2.759176 5.616196 -1.655368
3.018477 6.145824 -1.637581
3.361594 6.850174 -1.635001
3.719695 7.581402 -1.602014
4.135090 8.524436 -1.565297
4.702304 9.700050 -1.521303
5.036056 10.384687 -1.351864
6.770248 13.975008 -1.449060
8.547480 17.656050 -1.368058
11.681512 24.136829 -1.241125
16.343897 33.786358 -0.854273
22.299862 46.085793 0.026524
22.394135 46.239544 1.221100
16.310823 33.642326 1.765527
-0.000080 -0.078257 -0.002710
21.143881 43.575443 4.550457
20.698814 42.618435 5.573560
20.300688 41.759869 6.559930
20.134373 41.398506 7.599145
-0.000080 -0.078257 -0.002710
0.253976 0.443152 -0.346179
0.262961 0.461116 -0.339375
0.281121 0.498115 -0.343178
0.316911 0.570879 -0.364841
0.389846 0.719468 -0.422332
1.721199 3.439765 -1.743752
1.821897 3.643927 -1.730898
1.933113 3.867661 -1.715599
2.068175 4.139591 -1.709450
2.214372 4.435660 -1.698388
2.382637 4.774350 -1.686199
2.578183 5.167940 -1.675257
2.796189 5.608999 -1.657899
3.054265 6.128448 -1.637586
3.403493 6.831975 -1.635421
3.768554 7.566359 -1.603498
4.187380 8.510183 -1.566920
4.763740 9.683599 -1.522976
5.052551 10.270824 -1.340794
6.858236 13.956764 -1.451107
8.670500 17.649660 -1.371400
8.901254 18.113356 -0.935615
16.610737 33.839035 -0.858028
22.340857 45.498779 0.026175
22.412090 45.623802 1.208058
16.256504 33.042210 1.738891
16.037415 32.566940 2.561449
-0.000076 -0.078153 -0.002707
21.043447 42.700035 5.599883
-0.000076 -0.078153 -0.002707
20.623510 41.772274 7.689867
-0.000076 -0.078153 -0.002707
0.257829 0.443281 -0.347196
0.265388 0.458081 -0.338394
0.285317 0.498127 -0.344113
0.319979 0.567480 -0.363943
0.384926 0.697809 -0.412074
1.743032 3.433190 -1.745377
1.842300 3.629848 -1.729360
1.954832 3.852886 -1.714149
2.094935 4.132768 -1.711501
2.239398 4.419167 -1.697111
2.412219 4.761947 -1.686796
2.606628 5.149673 -1.674160
2.828142 5.588964 -1.656892
3.094294 6.119570 -1.639891
3.436230 6.798361 -1.632110
3.813385 7.546391 -1.603874
4.240004 8.488842 -1.567574
4.818116 9.652557 -1.522432
5.104165 10.221189 -1.338266
-0.000071 -0.078050 -0.002704
8.791949 17.638861 -1.374465
11.995157 24.072477 -1.244865
16.895336 33.908298 -0.862328
22.341097 44.842999 0.025782
16.287315 32.641964 0.866634
16.395708 32.830849 1.732814
15.719652 31.459948 2.481519
-0.000071 -0.078050 -0.002704
20.943743 41.867241 5.506922
21.009579 41.980564 6.631925
21.120096 42.164791 7.784168
-0.000071 -0.078050 -0.002704
0.258496 0.437293 -0.344134
0.265336 0.450420 -0.334476
0.288648 0.496568 -0.344111
0.322083 0.562536 -0.362148
0.399950 0.716684 -0.423182
1.759941 3.416663 -1.742130
1.865273 3.622584 -1.730901
1.981627 3.849991 -1.717783
2.116600 4.115707 -1.709455
2.266959 4.409692 -1.698392
2.439182 4.746383 -1.686204
2.633206 5.127822 -1.671963
2.863342 5.577868 -1.658413
3.127295 6.096544 -1.638517
3.473101 6.773338 -1.630871
3.853649 7.517408 -1.602404
4.284835 8.455570 -1.565967
4.881168 9.638929 -1.524659
5.199965 10.264508 -1.347740
7.039742 13.911427 -1.454831
-0.000067 -0.077946 -0.002700
12.158323 24.051262 -1.247382
17.261854 34.149742 -0.870978
22.371483 44.261948 0.025435
16.463745 32.524529 0.865973
16.910275 33.379646 1.766813
15.686749 30.945278 2.448005
-0.000067 -0.077946 -0.002700
-0.000067 -0.077946 -0.002700
21.267567 41.890774 6.636899
21.305017 41.928177 7.762964
-0.000067 -0.077946 -0.002700
0.260690 0.434355 -0.343114
0.269957 0.452095 -0.336431
0.296754 0.504451 -0.349736
0.325763 0.560778 -0.362145
0.390536 0.687099 -0.408650
1.784178 3.414720 -1.746193
1.881503 3.602029 -1.726284
2.001673 3.833632 -1.715607
2.139868 4.101874 -1.708775
2.290177 4.391601 -1.696478
2.467805 4.734051 -1.686803
2.664895 5.116105 -1.673068
2.898519 5.566548 -1.659934
3.169034 6.090641 -1.641744
3.512496 6.753326 -1.630878
3.897341 7.495185 -1.602412
4.334794 8.432614 -1.566299
4.942446 9.621346 -1.526333
5.274791 10.264572 -1.351677
7.127431 13.884943 -1.456325
6.891954 13.417770 -1.053732
-0.000086 -0.077824 -0.002695
17.711809 34.544758 -0.883614
-0.000086 -0.077824 -0.002695
-0.000086 -0.077824 -0.002695
17.048891 33.176929 1.761205
16.096413 31.305433 2.483687
-0.000086 -0.077824 -0.002695
-0.000086 -0.077824 -0.002695
-0.000086 -0.077824 -0.002695
21.368742 41.459209 7.698812
-0.000086 -0.077824 -0.002695
0.265211 0.436012 -0.345149
0.272989 0.450652 -0.336427
0.296039 0.494998 -0.345043
0.326950 0.554252 -0.359452
0.404921 0.704205 -0.418904
1.806793 3.409352 -1.748633
1.900946 3.587969 -1.724746
2.024147 3.822157 -1.715608
2.161281 4.084595 -1.706728
2.312375 4.371723 -1.693924
2.494569 4.718188 -1.686211
2.693856 5.099079 -1.672521
2.926483 5.541301 -1.657411
3.221586 6.105199 -1.650489
3.550871 6.731353 -1.630470
3.942697 7.476207 -1.603158
4.380097 8.400606 -1.565015
4.998206 9.592834 -1.526343
5.350682 10.265897 -1.355843
7.218699 13.864996 -1.458558
6.989735 13.416946 -1.056792
-0.000084 -0.077723 -0.002692
17.924706 34.468906 -0.884340
22.398746 43.073196 0.024725
-0.000084 -0.077723 -0.002692
17.541498 33.657906 1.791993
16.393810 31.437098 2.501505
-0.000084 -0.077723 -0.002692
-0.000084 -0.077723 -0.002692
