# This PCD file was generated using the MATLAB® pcwrite function
# from Computer Vision Toolbox®.
# .PCD v.7 - Point Cloud Data file format
VERSION .7
FIELDS x y z
SIZE 4 4 4
TYPE F F F
COUNT 1 1 1
WIDTH 1577
HEIGHT 1
VIEWPOINT 0 0 0 1 0 0 0
POINTS 1577
DATA ascii
-2.344312 -8.787108 -1.929718
-2.607032 -9.755521 -1.899794
-2.935318 -11.167326 -1.894945
-3.470697 -13.190361 -1.915472
-0.000208 -0.024009 -0.000936
-6.420773 -24.312450 -2.346459
-7.980280 -30.189989 -2.184999
-15.831469 -59.783192 -2.888018
-0.000208 -0.024009 -0.000936
-0.000208 -0.024009 -0.000936
-3.073449 -11.583235 0.275958
-3.069381 -11.551490 0.554564
-0.000208 -0.024009 -0.000936
-0.000208 -0.024009 -0.000936
-5.161999 -19.342180 2.336066
-3.409064 -12.772558 1.852797
-3.544477 -13.260139 2.249348
-0.000208 -0.024009 -0.000936
-0.000203 -0.023906 -0.000932
-0.000203 -0.023906 -0.000932
-0.162618 -0.625705 -0.332420
-0.171322 -0.657135 -0.330319
-0.178222 -0.681727 -0.323563
-0.198414 -0.755751 -0.338574
-0.227709 -0.862796 -0.364059
-0.253605 -0.956977 -0.378558
-1.447259 -5.348504 -2.009648
-1.573447 -5.804721 -2.025758
-1.741127 -6.411916 -2.067441
-1.909202 -7.023716 -2.081936
-0.000203 -0.023906 -0.000932
-2.133425 -7.829473 -1.918814
-2.389033 -8.752615 -1.925149
-2.644853 -9.673888 -1.886834
-2.976833 -11.066286 -1.880679
-3.438663 -12.770394 -1.857278
-4.581871 -16.984463 -2.053526
-6.546493 -24.223064 -2.341459
-8.168952 -30.199289 -2.189076
-11.166052 -41.212753 -1.993960
-20.234293 -74.559319 -1.799297
-14.211946 -52.337864 -0.004610
-0.000203 -0.023906 -0.000932
-0.000203 -0.023906 -0.000932
-3.047465 -11.201743 0.808431
-3.041981 -11.166086 1.075827
-3.088239 -11.319689 1.367688
-2.908579 -10.655041 1.547313
-3.416727 -12.495178 2.122612
-0.000203 -0.023906 -0.000932
-0.000221 -0.023783 -0.000927
-0.118433 -0.452397 -0.250776
-0.169367 -0.636570 -0.338990
-0.176395 -0.661199 -0.333008
-0.190216 -0.710196 -0.338107
-0.213969 -0.794955 -0.357284
-0.231547 -0.857809 -0.362514
-0.259983 -0.958976 -0.380009
-1.477809 -5.336103 -2.008282
-1.606701 -5.795463 -2.025760
-1.781969 -6.416402 -2.072211
-1.939849 -6.973271 -2.070359
-0.000221 -0.023783 -0.000927
-2.163446 -7.758473 -1.904520
-2.436556 -8.723107 -1.921826
-2.685615 -9.599252 -1.875355
-3.015195 -10.957530 -1.865116
-3.488388 -12.656125 -1.843642
-4.647197 -16.840879 -2.039380
-6.667122 -24.117702 -2.334973
-8.311606 -30.019447 -2.179607
-8.314396 -30.008537 -1.454139
-8.342525 -30.068666 -0.727017
-3.823417 -13.774173 -0.001910
-3.161344 -11.385049 0.272056
-3.271092 -11.763438 0.566550
-3.105149 -11.152613 0.806194
-3.282192 -11.771049 1.136156
-0.000221 -0.023783 -0.000927
-2.984404 -10.683278 1.553983
-0.000221 -0.023783 -0.000927
-4.497297 -16.054228 3.134766
-0.000217 -0.023679 -0.000923
-0.138038 -0.511975 -0.286044
-0.171076 -0.628653 -0.335231
-0.180667 -0.661750 -0.333901
-0.198104 -0.722895 -0.344950
-0.219399 -0.797123 -0.358908
-0.239517 -0.866963 -0.367136
-0.266376 -0.960945 -0.381462
-1.505801 -5.318363 -2.004862
-1.634725 -5.767787 -2.019358
-1.822941 -6.420611 -2.076980
-1.942907 -6.832472 -2.031764
-1.993209 -7.003976 -1.901830
-2.220258 -7.788813 -1.915132
-2.487257 -8.716778 -1.923493
-2.730918 -9.555657 -1.869804
-3.073047 -10.914648 -1.860906
-3.518559 -12.485144 -1.821650
-4.671762 -16.547199 -2.007132
-6.782838 -23.981802 -2.325697
-8.493434 -30.003614 -2.182006
-11.524151 -40.646729 -1.973041
-21.067841 -74.238434 -1.797433
-3.881196 -13.676801 -0.001914
-3.246184 -11.427547 0.273527
-3.353405 -11.796189 0.569054
-3.199823 -11.241889 0.813992
-4.324916 -15.176288 1.468081
-0.000217 -0.023679 -0.000923
-3.130194 -10.960948 1.597099
-4.851624 -16.964680 2.892988
-3.683683 -12.869054 2.515836
-0.000212 -0.023576 -0.000919
-0.146077 -0.529519 -0.296818
-0.175434 -0.630975 -0.337105
-0.186715 -0.669204 -0.338385
-0.204502 -0.730366 -0.349226
-0.224221 -0.797536 -0.359718
-0.242685 -0.860189 -0.364820
-0.268490 -0.948606 -0.377093
-1.536392 -5.313374 -2.006231
-1.677356 -5.794845 -2.032166
-1.855440 -6.399221 -2.073406
-1.935190 -6.664515 -1.984895
-2.025106 -6.968489 -1.895247
-2.257577 -7.755643 -1.910061
-2.532460 -8.691383 -1.921002
-2.790715 -9.562798 -1.874254
-3.124501 -10.864988 -1.855399
-3.593562 -12.484233 -1.824443
-4.720949 -16.371897 -1.989041
-6.914851 -23.937708 -2.325157
-8.672341 -29.995863 -2.184963
-11.764147 -40.627693 -1.975313
-21.493601 -74.159859 -1.798475
-21.604284 -74.443169 -0.006398
-4.232935 -14.584800 0.350069
-3.337633 -11.497088 0.555466
-3.257947 -11.208415 0.812871
-0.000212 -0.023576 -0.000919
-3.142905 -10.792011 1.310091
-3.407330 -11.682693 1.705316
-3.103812 -10.636988 1.815017
-3.608974 -12.348339 2.417734
-0.000207 -0.023472 -0.000915
-0.150946 -0.535264 -0.300734
-0.178921 -0.629851 -0.337102
-0.193954 -0.680024 -0.344665
-0.208198 -0.727287 -0.348365
-0.229336 -0.797826 -0.360527
-0.252219 -0.874589 -0.371754
-0.277142 -0.957609 -0.381456
-1.567754 -5.304054 -2.006232
-1.711014 -5.782878 -2.031528
-1.889954 -6.377021 -2.069834
-1.937778 -6.529370 -1.947954
-2.059092 -6.932138 -1.888663
-2.294518 -7.712156 -1.902684
-2.584802 -8.673763 -1.920590
-2.846097 -9.536057 -1.872408
-3.170730 -10.791790 -1.845996
-3.641669 -12.375196 -1.811640
-4.724518 -16.037575 -1.951685
-7.041722 -23.861099 -2.321643
-8.888503 -30.073854 -2.194484
-12.022684 -40.643475 -1.979455
-21.953499 -74.099937 -1.800221
-0.000207 -0.023472 -0.000915
-0.000207 -0.023472 -0.000915
-0.000207 -0.023472 -0.000915
-3.347014 -11.265273 0.818439
-3.498256 -11.758098 1.140589
-3.346418 -11.241356 1.367195
-0.000207 -0.023472 -0.000915
-3.209284 -10.753869 1.838346
-0.000207 -0.023472 -0.000915
-0.000202 -0.023369 -0.000911
-0.157998 -0.547609 -0.308569
-0.182520 -0.628670 -0.337098
-0.196826 -0.675324 -0.342865
-0.211824 -0.724218 -0.347508
-0.233262 -0.794640 -0.359710
-0.252988 -0.858840 -0.365583
-0.284842 -0.962974 -0.384363
-1.598136 -5.294831 -2.006233
-1.742966 -5.765254 -2.028967
-1.947597 -6.431353 -2.091288
-1.941086 -6.405804 -1.914320
-2.097224 -6.910441 -1.886132
-2.331941 -7.676374 -1.897152
-2.630565 -8.645539 -1.917683
-2.884762 -9.466763 -1.862040
-3.211234 -10.695211 -1.832704
-3.712171 -12.352011 -1.811368
-4.777014 -15.868412 -1.934521
-7.174375 -23.790211 -2.318874
-9.050421 -29.985790 -2.191855
-12.273295 -40.603828 -1.981076
-22.418657 -74.054398 -1.802385
-0.000202 -0.023369 -0.000911
-3.885640 -12.829317 0.308817
-3.730211 -12.301385 0.596568
-3.519034 -11.598862 0.844215
-3.581431 -11.789085 1.145595
-3.351510 -11.019793 1.342579
-0.000202 -0.023369 -0.000911
-0.000202 -0.023369 -0.000911
-5.006542 -16.398123 3.223929
-0.000197 -0.023265 -0.000907
-0.163572 -0.554922 -0.313465
-0.187028 -0.630887 -0.338973
-0.200036 -0.672375 -0.341965
-0.215874 -0.722867 -0.347503
-0.237696 -0.793181 -0.359707
-0.262146 -0.871379 -0.371748
-0.290249 -0.961213 -0.384360
-1.629013 -5.287233 -2.006918
-1.774868 -5.751402 -2.027689
-1.972595 -6.381626 -2.078775
-1.956166 -6.324629 -1.893367
-2.135120 -6.892602 -1.884615
-2.371359 -7.647839 -1.893464
-2.675506 -8.615208 -1.914360
-2.940847 -9.455521 -1.863156
-3.272045 -10.674558 -1.832386
-3.751669 -12.228104 -1.796338
-4.773511 -15.532967 -1.896932
-7.315804 -23.763620 -2.320380
-9.211039 -29.894945 -2.189086
-12.525625 -40.593456 -1.984096
-22.893578 -74.082527 -1.806316
-4.165641 -13.489752 -0.001942
-0.000197 -0.023265 -0.000907
-0.000197 -0.023265 -0.000907
-3.708036 -11.972732 0.873058
-0.000197 -0.023265 -0.000907
-3.528659 -11.366287 1.387379
-0.000197 -0.023265 -0.000907
-3.342019 -10.746153 1.843519
-5.942637 -19.066935 3.756206
-0.000218 -0.023145 -0.000902
-0.167152 -0.555529 -0.314441
-0.190009 -0.627999 -0.338030
-0.203790 -0.671095 -0.341961
-0.222068 -0.728407 -0.350923
-0.243352 -0.795143 -0.361331
-0.264257 -0.860943 -0.367890
-0.296207 -0.961194 -0.385084
-1.661927 -5.282731 -2.008970
-1.807257 -5.739172 -2.027049
-1.956173 -6.202598 -2.023955
-1.976093 -6.257823 -1.876826
-2.163530 -6.845046 -1.874991
-2.402416 -7.589013 -1.882397
-2.715180 -8.563645 -1.906460
-2.980067 -9.385354 -1.852788
-3.329790 -10.644127 -1.830445
-3.807397 -12.152619 -1.788548
-4.809182 -15.334531 -1.876052
-7.427886 -23.643116 -2.312775
-9.435436 -29.990000 -2.200144
-12.791444 -40.623455 -1.989168
-23.358742 -74.073318 -1.809407
-4.485195 -14.223738 -0.002010
-3.831611 -12.146733 0.293347
-3.962357 -12.545027 0.610598
-0.000218 -0.023145 -0.000902
-3.768099 -11.901860 1.160803
-3.446681 -10.881791 1.330495
-3.560198 -11.225706 1.650204
-4.657983 -14.662268 2.521840
-3.954553 -12.443722 2.453979
-0.000213 -0.023042 -0.000898
-0.172438 -0.561062 -0.318356
-0.194675 -0.630119 -0.339904
-0.209800 -0.676585 -0.345548
-0.227218 -0.730462 -0.352632
-0.247226 -0.791891 -0.360515
-0.270916 -0.864529 -0.370199
-0.300452 -0.955828 -0.383626
-1.692747 -5.274769 -2.009657
-1.838394 -5.723158 -2.025129
-1.963565 -6.103920 -1.995354
-2.010773 -6.242582 -1.875725
-2.197414 -6.815803 -1.870433
-2.433333 -7.536085 -1.872715
-2.744728 -8.492419 -1.893984
-3.019559 -9.329205 -1.845012
-3.382531 -10.592114 -1.824935
-3.864497 -12.090778 -1.782707
-4.832617 -15.095652 -1.850299
-7.558144 -23.568184 -2.309818
-9.657869 -30.090822 -2.211619
-13.044936 -40.586678 -1.991162
-23.839874 -74.108772 -1.813662
-4.529480 -14.081444 -0.002009
-3.808930 -11.830644 0.286213
-0.000213 -0.023042 -0.000898
-3.849918 -11.935958 0.873601
-4.239339 -13.132981 1.283500
-3.574603 -11.063895 1.355329
-3.424940 -10.588840 1.559227
-4.630063 -14.298004 2.463496
-5.416108 -16.701466 3.301629
-0.000208 -0.022938 -0.000894
-0.175448 -0.559978 -0.318352
-0.196401 -0.623892 -0.337084
-0.211794 -0.670192 -0.342851
-0.229613 -0.723873 -0.350060
-0.253366 -0.795550 -0.362952
-0.272147 -0.852386 -0.365571
-0.305823 -0.953974 -0.383622
-1.721197 -5.259473 -2.007605
-1.868831 -5.705159 -2.022568
-1.958542 -5.970909 -1.955430
-2.035121 -6.196101 -1.865250
-2.237112 -6.804758 -1.870941
-2.463138 -7.481180 -1.862569
-2.796155 -8.479598 -1.894820
-3.071001 -9.299836 -1.842795
-3.423729 -10.518556 -1.815534
-3.921026 -12.028666 -1.776864
-4.835852 -14.820986 -1.819903
-7.672780 -23.474409 -2.304814
-9.883636 -30.195763 -2.223513
-13.299229 -40.598526 -1.995392
-24.337755 -74.188652 -1.819082
-0.000208 -0.022938 -0.000894
-4.148932 -12.642941 0.306520
-0.000208 -0.022938 -0.000894
-0.000208 -0.022938 -0.000894
-3.787979 -11.503827 1.126077
-4.424618 -13.425483 1.648529
-3.470200 -10.521810 1.552268
-0.000208 -0.022938 -0.000894
-5.509583 -16.662436 3.300137
-0.000203 -0.022835 -0.000890
-0.182465 -0.570417 -0.325208
-0.200515 -0.624290 -0.338020
-0.216738 -0.672226 -0.344644
-0.234913 -0.725822 -0.351768
-0.258379 -0.795713 -0.363762
-0.279419 -0.857639 -0.368650
-0.311934 -0.953803 -0.384347
-1.748940 -5.242238 -2.004868
-1.901904 -5.692072 -2.021929
-1.961595 -5.863148 -1.923848
-2.064516 -6.165944 -1.859736
-2.271123 -6.772935 -1.865878
-2.497965 -7.442792 -1.856575
-2.836074 -8.437282 -1.888999
-3.091701 -9.185048 -1.823535
-3.459757 -10.419310 -1.801916
-3.930655 -11.827270 -1.750413
-4.888401 -14.686378 -1.806914
-7.779007 -23.330135 -2.295162
-0.000203 -0.022835 -0.000890
-13.567594 -40.602177 -1.999532
-24.892210 -74.386032 -1.827576
-0.000203 -0.022835 -0.000890
-4.268228 -12.750705 0.309751
-0.000203 -0.022835 -0.000890
-0.000203 -0.022835 -0.000890
-4.377718 -13.038898 1.279216
-3.793452 -11.288467 1.388283
-0.000203 -0.022835 -0.000890
-4.780845 -14.195954 2.455375
-4.141124 -12.284991 2.436562
-0.000198 -0.022731 -0.000886
-0.187296 -0.574205 -0.328144
-0.203410 -0.621345 -0.337077
-0.219899 -0.669169 -0.343743
-0.239529 -0.726072 -0.352621
-0.261664 -0.790632 -0.362130
-0.285393 -0.859419 -0.370191
-0.317291 -0.951882 -0.384343
-1.777758 -5.228410 -2.003500
-1.932671 -5.675548 -2.020009
-1.959328 -5.746889 -1.889288
-2.109193 -6.181133 -1.868009
-2.302420 -6.737679 -1.859800
-2.526131 -7.385839 -1.845968
-2.876209 -8.396660 -1.883595
-3.133538 -9.135394 -1.817241
-3.531631 -10.434601 -1.808083
-3.996650 -11.798713 -1.749584
-4.976571 -14.669181 -1.808316
-7.905391 -23.262226 -2.292947
-0.000198 -0.022731 -0.000886
-13.826790 -40.598927 -2.003297
-22.793816 -66.836533 -1.645382
-4.853042 -14.239285 -0.002055
-4.190135 -12.283078 0.298917
-4.083703 -11.957822 0.586387
-3.682255 -10.778233 0.793172
-4.502306 -13.158422 1.293502
-0.000198 -0.022731 -0.000886
-0.000198 -0.022731 -0.000886
-0.000198 -0.022731 -0.000886
-6.842117 -19.904793 3.958983
-0.000195 -0.022630 -0.000883
-0.194465 -0.584541 -0.334999
-0.205122 -0.615051 -0.334256
-0.223637 -0.667770 -0.343738
-0.241789 -0.719460 -0.350051
-0.266798 -0.790702 -0.362942
-0.289610 -0.855907 -0.369415
-0.326301 -0.960501 -0.388706
-1.806761 -5.212337 -2.001448
-1.960817 -5.651700 -2.015528
-0.000195 -0.022630 -0.000883
-2.135538 -6.139378 -1.859189
-2.330201 -6.693151 -1.851189
-2.560789 -7.344890 -1.839512
-2.923897 -8.373805 -1.882351
-3.184936 -9.109125 -1.815764
-3.567664 -10.344980 -1.796086
-4.003628 -11.593135 -1.722576
-5.010137 -14.493753 -1.790220
-8.038422 -23.214331 -2.292777
-10.589102 -30.538626 -2.262131
-14.091679 -40.609104 -2.007806
-0.000195 -0.022630 -0.000883
-0.000195 -0.022630 -0.000883
-4.386905 -12.621186 0.307794
-4.279283 -12.298098 0.604332
-0.000195 -0.022630 -0.000883
-0.000195 -0.022630 -0.000883
-0.000195 -0.022630 -0.000883
-3.886408 -11.126731 1.651565
-4.439801 -12.693545 2.203869
-5.087692 -14.534354 2.895162
-0.000214 -0.022508 -0.000877
-0.197795 -0.583269 -0.334995
-0.209809 -0.617051 -0.336131
-0.228054 -0.668013 -0.344632
-0.246398 -0.719653 -0.350903
-0.271225 -0.789038 -0.362938
-0.295157 -0.855811 -0.370183
-0.331071 -0.956745 -0.387975
-1.837241 -5.203513 -2.002132
-1.963446 -5.556266 -1.985429
-1.991262 -5.628375 -1.857706
-2.152696 -6.076149 -1.843750
-2.353674 -6.637579 -1.839536
-2.604198 -7.333595 -1.840438
-2.967862 -8.349866 -1.880689
-3.229698 -9.074418 -1.812432
-3.221653 -9.167595 -1.594640
-4.050426 -11.513754 -1.714227
-5.101856 -14.480524 -1.792318
-7.201501 -20.407896 -2.019646
-10.803867 -30.588026 -2.270394
-14.352191 -40.581196 -2.010640
-23.266794 -65.736305 -1.624898
-0.000214 -0.022508 -0.000877
-4.451526 -12.566584 0.307092
-0.000214 -0.022508 -0.000877
-4.180623 -11.783221 0.870922
-3.775766 -10.638257 1.049390
-3.730270 -10.498595 1.298659
-5.405294 -15.185952 2.260236
-0.000214 -0.022508 -0.000877
-0.000214 -0.022508 -0.000877
-0.000209 -0.022404 -0.000873
-0.201506 -0.583698 -0.335971
-0.215524 -0.622401 -0.339883
-0.231649 -0.666631 -0.344629
-0.249804 -0.716409 -0.350043
-0.276874 -0.790795 -0.364561
-0.301694 -0.859246 -0.372492
-0.341517 -0.968725 -0.393792
-1.865116 -5.187451 -2.000081
-1.964356 -5.459239 -1.954692
-0.000209 -0.022404 -0.000873
-2.190138 -6.070777 -1.845957
-2.395026 -6.632899 -1.842070
-2.650253 -7.329332 -1.843206
-2.994520 -8.269480 -1.866548
-3.276621 -9.036526 -1.808732
-3.272010 -9.147491 -1.594319
-4.103159 -11.452843 -1.708662
-5.089162 -14.191843 -1.760062
-7.317907 -20.374758 -2.020402
-3.299660 -9.188828 -0.682895
-14.613649 -40.598057 -2.015520
-0.000209 -0.022404 -0.000873
-28.800362 -79.811768 -0.007680
-0.000209 -0.022404 -0.000873
-0.000209 -0.022404 -0.000873
-3.912811 -10.832104 0.802075
-3.816965 -10.555659 1.043444
-4.544140 -12.555391 1.557028
-5.339129 -14.731861 2.197080
-0.000209 -0.022404 -0.000873
-6.117427 -16.848192 3.370784
-0.000204 -0.022301 -0.000869
-0.201850 -0.574188 -0.331068
-0.219073 -0.621012 -0.339879
-0.237917 -0.671856 -0.348216
-0.257028 -0.723296 -0.354318
-0.281422 -0.789039 -0.364558
-0.305379 -0.853873 -0.370947
-0.345184 -0.961339 -0.391607
-1.894444 -5.172647 -1.998712
-1.969760 -5.374473 -1.928437
-0.000204 -0.022301 -0.000869
-2.198716 -5.983609 -1.823348
-2.417454 -6.573092 -1.829406
-2.683434 -7.285999 -1.836290
-3.037961 -8.236787 -1.863224
-3.325959 -9.005755 -1.806512
-3.322016 -9.116697 -1.592377
-4.169528 -11.424482 -1.708112
-5.175200 -14.166876 -1.760765
-3.377284 -9.242585 -0.917762
-3.349179 -9.155867 -0.681921
-14.885750 -40.596817 -2.019845
-24.139582 -65.748642 -1.632177
-0.000204 -0.022301 -0.000869
-0.000204 -0.022301 -0.000869
-4.315352 -11.739459 0.580409
-4.039678 -10.978943 0.814751
-3.886992 -10.553258 1.045482
-3.892403 -10.562140 1.312114
-0.000204 -0.022301 -0.000869
-5.423965 -14.677574 2.565198
-0.000204 -0.022301 -0.000869
-0.000199 -0.022197 -0.000865
-0.206231 -0.576189 -0.333025
-0.220668 -0.614670 -0.337059
-0.237922 -0.660308 -0.342826
-0.260432 -0.720000 -0.353459
-0.285205 -0.785576 -0.363740
-0.311461 -0.855445 -0.372485
-0.351889 -0.962720 -0.393058
-1.920105 -5.150991 -1.994607
-1.973309 -5.290178 -1.902180
-2.068649 -5.538838 -1.839832
-2.241777 -5.994152 -1.830519
-2.445597 -6.533610 -1.822315
-2.718364 -7.252102 -1.831679
-3.065912 -8.167792 -1.851579
-3.374164 -8.977153 -1.804663
-3.369509 -9.084364 -1.590109
-4.227518 -11.379755 -1.705053
-5.209408 -14.010155 -1.744990
-3.420563 -9.196771 -0.915164
-3.548206 -9.528855 -0.711256
-15.317636 -41.041847 -2.046379
-24.591158 -65.805084 -1.637117
-29.594496 -79.104134 -0.007772
-4.139594 -11.077502 0.272241
-0.000199 -0.022197 -0.000865
-4.045930 -10.804080 0.803460
-3.964364 -10.575343 1.049933
-4.309445 -11.487790 1.430499
-7.109956 -18.918756 2.834938
-7.308568 -19.425785 3.403907
-4.235065 -11.259618 2.260705
-0.000194 -0.022094 -0.000862
-0.210140 -0.576474 -0.334000
-0.225419 -0.616554 -0.338934
-0.241057 -0.657121 -0.341926
-0.265072 -0.720085 -0.354312
-0.292188 -0.790650 -0.366991
-0.319020 -0.860374 -0.375565
-0.363270 -0.976236 -0.399603
-1.948936 -5.137993 -1.993924
-0.000194 -0.022094 -0.000862
-2.096314 -5.516014 -1.836255
-2.256247 -5.928944 -1.814527
-2.480296 -6.512078 -1.820289
-2.721712 -7.136250 -1.806310
-3.085478 -8.082834 -1.836190
-3.424110 -8.958069 -1.804666
-3.421126 -9.058563 -1.589139
-3.502230 -9.267794 -1.391178
-3.532963 -9.339011 -1.165166
-3.616989 -9.550405 -0.952542
-0.000194 -0.022094 -0.000862
-0.000194 -0.022094 -0.000862
-25.013613 -65.778152 -1.640055
-0.000194 -0.022094 -0.000862
-4.188021 -11.007798 0.271126
-4.176624 -10.971954 0.544688
-0.000194 -0.022094 -0.000862
-4.049513 -10.621772 1.056796
-6.631125 -17.361090 2.168459
-0.000194 -0.022094 -0.000862
-0.000194 -0.022094 -0.000862
-4.276474 -11.174386 2.248485
-0.000189 -0.021990 -0.000858
-0.215097 -0.580078 -0.336937
-0.227479 -0.611875 -0.337051
-0.244592 -0.655664 -0.341923
-0.270391 -0.721813 -0.356020
-0.295147 -0.785504 -0.365361
-0.321029 -0.851593 -0.372478
-0.364719 -0.963605 -0.395234
-1.972722 -5.114651 -1.989134
-1.983162 -5.136165 -1.854791
-2.123764 -5.493069 -1.832680
-2.293380 -5.926892 -1.817835
-2.503596 -6.461522 -1.810157
-2.759277 -7.115395 -1.804928
-3.121914 -8.039303 -1.830367
-3.472650 -8.930777 -1.803187
-3.467263 -9.028172 -1.587196
-3.671261 -9.552927 -1.437135
-3.714288 -9.654510 -1.207182
-3.799199 -9.864354 -0.986016
-3.857054 -10.008912 -0.750373
-0.000189 -0.021990 -0.000858
-0.000189 -0.021990 -0.000858
-30.376837 -78.472252 -0.007862
-0.000189 -0.021990 -0.000858
-0.000189 -0.021990 -0.000858
-4.423566 -11.415693 0.852780
-6.737667 -17.358164 1.732812
-4.905024 -12.629446 1.579984
-7.655707 -19.689409 2.963435
-5.541190 -14.242184 2.505222
-4.355627 -11.187918 2.256255
-0.000208 -0.021867 -0.000852
-0.216414 -0.573842 -0.333992
-0.232168 -0.613732 -0.338925
-0.251512 -0.662447 -0.346406
-0.271131 -0.711711 -0.351736
-0.299676 -0.783626 -0.365357
-0.325115 -0.847917 -0.371705
-0.372869 -0.968310 -0.398141
-1.975336 -5.032816 -1.961766
-0.000208 -0.021867 -0.000852
-2.164341 -5.503734 -1.840428
-2.310693 -5.868390 -1.804051
-2.531410 -6.423486 -1.803570
-2.799887 -7.095167 -1.804006
-3.151394 -7.975073 -1.819971
-3.518188 -8.891648 -1.799487
-3.516924 -9.002425 -1.586225
-3.877352 -9.912568 -1.494791
-3.913307 -9.999023 -1.253146
-4.015922 -10.249992 -1.026928
-4.021316 -10.253140 -0.770492
-0.000208 -0.021867 -0.000852
-6.830967 -17.374786 -0.435393
-0.000208 -0.021867 -0.000852
-0.000208 -0.021867 -0.000852
-6.815869 -17.291477 0.863385
-4.492546 -11.392858 0.853053
-6.831588 -17.295578 1.730573
-5.161722 -13.066370 1.638476
-6.662162 -16.840977 2.540035
-4.943842 -12.489926 2.201556
-5.623697 -14.197089 2.871050
-0.000203 -0.021764 -0.000848
-0.220318 -0.574071 -0.334970
-0.235674 -0.612240 -0.338921
-0.253315 -0.655864 -0.343710
-0.277209 -0.715038 -0.354301
-0.304724 -0.783491 -0.366168
-0.332765 -0.852715 -0.374784
-0.382633 -0.976353 -0.402504
-1.976894 -4.953215 -1.935081
-2.017400 -5.049125 -1.831738
-2.184720 -5.460577 -1.830298
-2.342883 -5.851314 -1.802949
-2.557046 -6.377749 -1.794959
-2.805684 -6.992173 -1.781866
-3.167914 -7.884093 -1.803332
-3.556704 -8.840150 -1.793191
-3.566491 -8.972127 -1.584606
-4.080202 -10.256067 -1.550218
-4.133684 -10.379572 -1.303984
-4.171809 -10.464449 -1.050922
-4.309721 -10.804010 -0.813796
-4.345349 -10.882023 -0.547330
-0.000203 -0.021764 -0.000848
-0.000203 -0.021764 -0.000848
-6.891686 -17.202173 0.427353
-6.914482 -17.241360 0.862911
-4.252248 -10.605813 0.795777
-6.930206 -17.253996 1.730379
-0.000203 -0.021764 -0.000848
-7.929516 -19.708580 2.980104
-5.654641 -14.046279 2.482198
-4.485130 -11.134204 2.255875
-0.161571 -0.420276 -0.255928
-0.222186 -0.569454 -0.333006
-0.235735 -0.602601 -0.334224
-0.257640 -0.655942 -0.344603
-0.280530 -0.711638 -0.353441
-0.308567 -0.779858 -0.365350
-0.338241 -0.852384 -0.375551
-0.390225 -0.979210 -0.404683
-1.977015 -4.869948 -1.907030
-2.045616 -5.035552 -1.831096
-2.203029 -5.415973 -1.819571
-2.367260 -5.812277 -1.795228
-2.585549 -6.343114 -1.789386
-2.844774 -6.969899 -1.780484
-3.201886 -7.834285 -1.796263
-3.587333 -8.766050 -1.782450
-3.616480 -8.947685 -1.583960
-4.154977 -10.266458 -1.555515
-4.358313 -10.762298 -1.355288
-4.406495 -10.870006 -1.094251
-0.000200 -0.021663 -0.000844
-0.000200 -0.021663 -0.000844
-6.976802 -17.154654 -0.431918
-7.004382 -17.204992 -0.002432
-4.381787 -10.765446 0.267548
-0.000200 -0.021663 -0.000844
-4.343655 -10.650464 0.801069
-0.000200 -0.021663 -0.000844
-4.632174 -11.339262 1.428155
-5.403971 -13.211749 2.001190
-6.840788 -16.702047 2.959550
-4.622889 -11.288119 2.292513
-0.167857 -0.428751 -0.262046
-0.226755 -0.571250 -0.334962
-0.242555 -0.609238 -0.338914
-0.261384 -0.654308 -0.344601
-0.284506 -0.709901 -0.353437
-0.314313 -0.781346 -0.366974
-0.346690 -0.858788 -0.379403
-0.399304 -0.985442 -0.408318
-1.979714 -4.797616 -1.883082
-2.070096 -5.013083 -1.827253
-2.220863 -5.371363 -1.808845
-2.405711 -5.810889 -1.799090
-2.607816 -6.294055 -1.779759
-2.882486 -6.947909 -1.779102
-3.243943 -7.812579 -1.795433
-3.603607 -8.667757 -1.766521
-3.666358 -8.918674 -1.582666
-4.202574 -10.214792 -1.551341
-4.621257 -11.219084 -1.416341
-4.657794 -11.296339 -1.140002
-4.780694 -11.587936 -0.877081
-0.000195 -0.021560 -0.000841
-7.947118 -19.220173 -0.485044
-0.000195 -0.021560 -0.000841
-4.560341 -11.016203 0.274480
-4.442963 -10.727800 0.538713
-0.000195 -0.021560 -0.000841
-0.000195 -0.021560 -0.000841
-5.212285 -12.550325 1.584837
-0.000195 -0.021560 -0.000841
-8.054104 -19.352446 3.437868
-0.000195 -0.021560 -0.000841
-0.174105 -0.437227 -0.268165
-0.229145 -0.568265 -0.333979
-0.247869 -0.612664 -0.341729
-0.264930 -0.652720 -0.344596
-0.290560 -0.713149 -0.356001
-0.319247 -0.781166 -0.367785
-0.346336 -0.844838 -0.374004
-0.412780 -1.001920 -0.416319
-1.990319 -4.748265 -1.868028
-2.097314 -4.997497 -1.825974
-2.261283 -5.381244 -1.816592
-2.424559 -5.765365 -1.789163
-2.631840 -6.250315 -1.771653
-2.885521 -6.847340 -1.757421
-3.287228 -7.790058 -1.794603
-3.653319 -8.646769 -1.766524
-3.715226 -8.896127 -1.582343
-0.000190 -0.021456 -0.000837
-0.000190 -0.021456 -0.000837
-4.927194 -11.762150 -1.189842
-5.051404 -12.052133 -0.914383
-5.146883 -12.267405 -0.621456
-8.087005 -19.244019 -0.486824
-0.000190 -0.021456 -0.000837
-0.000190 -0.021456 -0.000837
-0.000190 -0.021456 -0.000837
-0.000190 -0.021456 -0.000837
-7.701010 -18.254087 1.843947
-5.319932 -12.604158 1.595511
-0.000190 -0.021456 -0.000837
-5.288910 -12.512297 2.226488
-4.733927 -11.190485 2.283623
-0.183914 -0.453516 -0.279383
-0.229561 -0.560412 -0.330056
-0.249879 -0.607873 -0.339847
-0.268555 -0.651083 -0.344592
-0.290988 -0.703048 -0.351718
-0.326633 -0.785862 -0.371035
-0.354711 -0.851199 -0.377854
-0.425013 -1.014836 -0.422865
-2.001314 -4.696535 -1.852291
-2.116992 -4.964324 -1.818287
-2.274052 -5.325920 -1.802290
-2.456324 -5.745467 -1.787508
-2.661565 -6.220724 -1.767599
-2.892158 -6.751324 -1.737125
-3.309310 -7.714596 -1.781708
-3.684227 -8.577895 -1.756893
-3.899907 -9.188661 -1.638469
-4.650218 -10.941762 -1.669997
-5.200318 -12.227541 -1.551215
-5.216556 -12.253688 -1.242658
-5.342002 -12.535625 -0.953500
-5.445655 -12.772102 -0.648622
-0.000185 -0.021352 -0.000833
-0.000185 -0.021352 -0.000833
-0.000185 -0.021352 -0.000833
-0.000185 -0.021352 -0.000833
-4.477843 -10.459849 0.792420
-4.508417 -10.520879 1.064194
-4.388673 -10.236964 1.298383
-5.600479 -13.045169 1.990324
-8.416097 -19.573990 3.494561
-4.819139 -11.211687 2.293612
-0.204881 -0.494958 -0.306930
-0.235529 -0.565329 -0.333971
-0.252667 -0.604647 -0.338903
-0.275831 -0.657576 -0.349077
-0.298609 -0.709504 -0.355995
-0.330292 -0.782195 -0.370219
-0.363301 -0.857436 -0.381706
-1.988908 -4.596672 -1.949454
-2.001980 -4.624502 -1.828343
-2.140989 -4.939409 -1.813804
-2.295590 -5.289455 -1.794541
-2.483078 -5.717043 -1.783098
-2.685906 -6.176353 -1.759494
-2.930864 -6.734449 -1.737126
-3.354333 -7.697103 -1.782126
-3.700359 -8.480805 -1.741335
-4.052931 -9.393486 -1.679348
-0.000180 -0.021249 -0.000829
-5.438418 -12.579177 -1.599967
-5.543257 -12.808913 -1.302356
-0.000180 -0.021249 -0.000829
-5.762239 -13.294750 -0.676911
-18.167227 -41.830429 -1.063212
-0.000180 -0.021249 -0.000829
-4.783090 -11.012468 0.276412
-4.673774 -10.750899 0.543910
-4.529895 -10.415504 0.791022
-4.647623 -10.675340 1.082565
-4.426930 -10.159684 1.291879
-5.707894 -13.087008 2.001725
-5.841773 -13.380658 2.393373
-0.000180 -0.021249 -0.000829
-0.201399 -0.479475 -0.297742
-0.237249 -0.560674 -0.332008
-0.257437 -0.606311 -0.340778
-0.278768 -0.654239 -0.348176
-0.300396 -0.702694 -0.353422
-0.335548 -0.781781 -0.371028
-0.368111 -0.855226 -0.381702
-1.991880 -4.532218 -1.926897
-2.017099 -4.584932 -1.817395
-2.164679 -4.916493 -1.809961
-2.339011 -5.305734 -1.804672
-2.512939 -5.693311 -1.780341
-2.721304 -6.160680 -1.759494
-2.969838 -6.715069 -1.736666
-3.385514 -7.644783 -1.774640
-3.742486 -8.440648 -1.737633
-4.042532 -9.223537 -1.653073
-4.663584 -10.627171 -1.630175
-5.525828 -12.582099 -1.604383
-5.910507 -13.443703 -1.370423
-6.080971 -13.817615 -1.056461
-6.161026 -13.992420 -0.714252
-18.462578 -41.849396 -1.066405
-37.000919 -83.769653 -0.008958
-4.883487 -11.068760 0.278536
-4.869674 -11.026979 0.559343
-0.000201 -0.021129 -0.000823
-4.646186 -10.501837 1.067713
-0.000201 -0.021129 -0.000823
-5.231619 -11.805585 1.810060
-6.325636 -14.256447 2.557020
-7.075821 -15.937067 3.279256
-0.207601 -0.486035 -0.302841
-0.243306 -0.565505 -0.335922
-0.260902 -0.604671 -0.340775
-0.279600 -0.645944 -0.344582
-0.306646 -0.705746 -0.355986
-0.338549 -0.776346 -0.369398
-0.372299 -0.851237 -0.380928
-1.993459 -4.464114 -1.902883
-2.039511 -4.562500 -1.813289
-2.192914 -4.901722 -1.809319
-2.354676 -5.256823 -1.792753
-2.540246 -5.664160 -1.775928
-2.746570 -6.119614 -1.752400
-3.020696 -6.722062 -1.743125
-3.417012 -7.594139 -1.767569
-3.788345 -8.409218 -1.735782
-4.137273 -9.289394 -1.669297
-4.677954 -10.490711 -1.613467
-0.000196 -0.021026 -0.000820
-6.318611 -14.142635 -1.445556
-0.000196 -0.021026 -0.000820
-0.000196 -0.021026 -0.000820
-18.756208 -41.841202 -1.069042
-4.795938 -10.703956 -0.001868
-4.824407 -10.762267 0.271502
-0.000196 -0.021026 -0.000820
-4.917345 -10.948493 0.836020
-4.820308 -10.722742 1.093137
-0.000196 -0.021026 -0.000820
-0.000196 -0.021026 -0.000820
-8.246093 -18.285542 3.289722
-5.604583 -12.428715 2.563053
-0.206646 -0.476928 -0.297735
-0.243443 -0.557695 -0.332001
-0.261244 -0.596662 -0.337014
-0.286054 -0.650766 -0.348168
-0.310469 -0.703916 -0.355982
-0.346426 -0.782701 -0.373461
-0.376926 -0.849041 -0.380924
-1.997393 -4.407033 -1.883235
-2.063272 -4.549582 -1.812603
-2.205175 -4.856555 -1.797152
-2.356914 -5.184443 -1.772491
-2.549953 -5.604778 -1.761591
-2.770123 -6.081201 -1.745813
-3.031016 -6.648873 -1.728363
-3.424551 -7.502505 -1.750513
-3.784531 -8.281300 -1.713555
-4.188963 -9.266036 -1.669298
-4.754945 -10.510253 -1.620433
-5.579833 -12.318425 -1.578857
-6.780249 -14.950135 -1.532034
-0.000191 -0.020922 -0.000816
-0.000191 -0.020922 -0.000816
-19.052383 -41.874016 -1.072606
-0.000191 -0.020922 -0.000816
-23.712538 -52.037830 1.321272
-4.782938 -10.502859 0.535438
-0.000191 -0.020922 -0.000816
-4.626525 -10.145793 1.036711
-7.814553 -17.106915 2.194592
-5.240503 -11.473330 1.768050
-0.000191 -0.020922 -0.000816
-0.000191 -0.020922 -0.000816
-0.210722 -0.478738 -0.299771
-0.248002 -0.559333 -0.333955
-0.269727 -0.606268 -0.343584
-0.285935 -0.640884 -0.343676
-0.312123 -0.697086 -0.353411
-0.344032 -0.765610 -0.366136
-0.384779 -0.853457 -0.384005
-1.996808 -4.339554 -1.859222
-2.086169 -4.528617 -1.809180
-2.225836 -4.828187 -1.791387
-2.394634 -5.188001 -1.778450
-2.569304 -5.559779 -1.752214
-2.790309 -6.033457 -1.736693
-3.077649 -6.646567 -1.732516
-3.463098 -7.469536 -1.747602
-3.836807 -8.265712 -1.715037
-4.209144 -9.169935 -1.656323
-4.812948 -10.472762 -1.619044
-5.604846 -12.186747 -1.566092
-7.215496 -15.668424 -1.609958
-13.001113 -28.189373 -2.173047
-0.000186 -0.020818 -0.000812
-19.350122 -41.886921 -1.075798
-38.350506 -82.919838 -0.009094
-23.599302 -51.009384 1.298537
-4.880165 -10.554799 0.539527
-23.272005 -50.209106 3.862578
-5.749528 -12.408457 1.272053
-0.000186 -0.020818 -0.000812
-0.000186 -0.020818 -0.000812
-5.117978 -11.022204 1.991517
-0.000186 -0.020818 -0.000812
-0.220716 -0.492960 -0.309970
-0.253393 -0.562501 -0.336892
-0.270191 -0.598166 -0.339825
-0.292626 -0.645560 -0.347264
-0.319952 -0.703312 -0.357688
-0.353751 -0.775083 -0.371827
-0.390486 -0.852730 -0.384773
-2.000237 -4.280299 -1.838846
-2.113679 -4.519835 -1.810548
-2.248666 -4.802794 -1.786903
-2.411424 -5.144231 -1.768318
-2.596238 -5.534357 -1.748906
-2.814390 -5.992183 -1.729599
-3.070939 -6.533569 -1.707605
-3.493421 -7.422820 -1.741362
-3.883366 -8.241610 -1.714669
-4.255002 -9.126813 -1.653080
-4.828621 -10.349664 -1.604283
-5.605348 -12.000251 -1.546366
-9.032788 -19.307718 -1.989706
-13.142791 -28.070570 -2.169707
-17.885239 -38.157204 -1.968978
-5.780090 -12.333932 -0.317854
-0.000181 -0.020715 -0.000808
-0.000181 -0.020715 -0.000808
-5.787142 -12.320652 0.631857
-0.000181 -0.020715 -0.000808
-5.099348 -10.843807 1.114288
-5.810844 -12.342676 1.591069
-5.813452 -12.342523 1.912688
-0.000181 -0.020715 -0.000808
-5.807980 -12.308426 2.558599
-0.232997 -0.511793 -0.323232
-0.259512 -0.567214 -0.340807
-0.275796 -0.601270 -0.342637
-0.295456 -0.642139 -0.346362
-0.323870 -0.701357 -0.357684
-0.354948 -0.766333 -0.368569
-0.396059 -0.852031 -0.385541
-2.005481 -4.228258 -1.821382
-2.134710 -4.497293 -1.806441
-2.281890 -4.801621 -1.791384
-2.429371 -5.106032 -1.759974
-2.604734 -5.470638 -1.733464
-2.843709 -5.965311 -1.726559
-3.105043 -6.508640 -1.705759
-3.506408 -7.340722 -1.726802
-3.894118 -8.142783 -1.698737
-4.287046 -9.059277 -1.645297
-4.865937 -10.275064 -1.597044
-5.623117 -11.859993 -1.532440
-5.828281 -12.280789 -1.268535
-0.000176 -0.020611 -0.000804
-0.000176 -0.020611 -0.000804
-0.000176 -0.020611 -0.000804
-0.000176 -0.020611 -0.000804
-0.000176 -0.020611 -0.000804
-5.851838 -12.274405 0.631203
-0.000176 -0.020611 -0.000804
-0.000176 -0.020611 -0.000804
-5.903987 -12.355502 1.597100
-5.760270 -12.049727 1.872351
-0.000176 -0.020611 -0.000804
-5.848875 -12.212659 2.545641
-0.234322 -0.507240 -0.321188
-0.261127 -0.562477 -0.338844
-0.276821 -0.594803 -0.339817
-0.299795 -0.641941 -0.347256
-0.326231 -0.696108 -0.355968
-0.359243 -0.764163 -0.368565
-0.408069 -0.864583 -0.392476
-2.015096 -4.186332 -1.808282
-2.157169 -4.478062 -1.803703
-2.298639 -4.766129 -1.783058
-2.459440 -5.093577 -1.760569
-2.631038 -5.445066 -1.730155
-2.870288 -5.933067 -1.721999
-3.121095 -6.446785 -1.694227
-3.540806 -7.304467 -1.723058
-3.925330 -8.088323 -1.692070
-4.320199 -8.995211 -1.638161
-4.912858 -10.221798 -1.593148
-5.736900 -11.922163 -1.544747
-0.000198 -0.020492 -0.000799
-0.000198 -0.020492 -0.000799
-0.000198 -0.020492 -0.000799
-0.000198 -0.020492 -0.000799
-5.914838 -12.247014 -0.002054
-5.929792 -12.266838 0.313843
-0.000198 -0.020492 -0.000799
-0.000198 -0.020492 -0.000799
-9.098639 -18.769112 1.941501
-5.756210 -11.870902 1.538604
-5.868393 -12.096416 1.884865
-5.493697 -11.315200 2.061506
-5.918995 -12.178661 2.545640
-0.243173 -0.518130 -0.329345
-0.262723 -0.557716 -0.336880
-0.277039 -0.586737 -0.336056
-0.304169 -0.641691 -0.348149
-0.327710 -0.689257 -0.353398
-0.365114 -0.765268 -0.370189
-0.412938 -0.862104 -0.392471
-2.034950 -4.166185 -1.804641
-2.175359 -4.450268 -1.797543
-2.321760 -4.744202 -1.779854
-2.484405 -5.070653 -1.757588
-2.643560 -5.391767 -1.718021
-2.882057 -5.871210 -1.708824
-3.149426 -6.411160 -1.689615
-3.545479 -7.208411 -1.705170
-3.968251 -8.058423 -1.690589
-4.371800 -8.970079 -1.638162
-4.961092 -10.171874 -1.589807
-5.752111 -11.779960 -1.530589
-5.944546 -12.162580 -1.263336
-5.963273 -12.195313 -0.950043
-5.982695 -12.224062 -0.635871
-0.000193 -0.020388 -0.000795
-0.000193 -0.020388 -0.000795
-0.000193 -0.020388 -0.000795
-0.000193 -0.020388 -0.000795
-24.138069 -49.082989 3.817610
-0.000193 -0.020388 -0.000795
-5.836626 -11.862415 1.541850
-5.990382 -12.168901 1.901552
-7.986767 -16.203251 2.962383
-6.939431 -14.068595 2.949808
-0.242211 -0.508917 -0.324240
-0.266586 -0.557651 -0.337856
-0.285769 -0.596115 -0.342627
-0.306932 -0.638235 -0.347249
-0.336394 -0.696955 -0.358528
-0.374419 -0.772788 -0.375066
-0.420229 -0.864572 -0.394782
-2.060426 -4.157646 -1.806097
-2.186508 -4.406904 -1.785226
-2.342144 -4.717090 -1.774730
-2.509170 -5.047626 -1.754608
-2.679671 -5.384488 -1.720778
-2.889766 -5.802479 -1.693622
-3.171628 -6.360916 -1.681310
-3.586301 -7.183650 -1.704339
-3.979773 -7.962585 -1.675399
-4.402240 -8.902205 -1.630376
-5.008904 -10.117323 -1.585910
-5.822370 -11.751884 -1.531288
-0.000188 -0.020284 -0.000791
-0.000188 -0.020284 -0.000791
-0.000188 -0.020284 -0.000791
-20.873501 -41.949215 -1.092590
-0.000188 -0.020284 -0.000791
-26.502247 -53.185032 1.372842
-26.526197 -53.186016 2.764435
-24.281637 -48.644299 3.794595
-8.125061 -16.276154 1.692970
-6.064640 -12.148316 1.583628
-6.079201 -12.166689 1.906835
-7.605319 -15.202617 2.787387
-6.584321 -13.158506 2.766595
-0.254380 -0.525803 -0.336480
-0.268992 -0.554393 -0.336872
-0.289991 -0.595865 -0.343561
-0.313823 -0.642672 -0.350834
-0.340391 -0.694854 -0.358525
-0.377079 -0.767269 -0.373437
-0.422733 -0.857020 -0.392465
-2.079072 -4.133592 -1.801000
-2.206642 -4.384074 -1.781119
-2.368252 -4.699631 -1.773449
-2.535510 -5.025723 -1.752223
-2.710518 -5.368857 -1.720777
-2.913521 -5.764416 -1.687541
-3.204561 -6.335504 -1.679465
-3.600024 -7.108712 -1.691443
-4.016518 -7.921924 -1.671696
-4.407853 -8.782383 -1.613183
-5.021557 -9.997980 -1.571706
-5.882033 -11.697516 -1.528738
-8.995937 -17.863911 -1.867002
-13.835530 -27.451412 -2.152029
-18.718447 -37.100124 -1.941716
-21.194910 -41.969097 -1.096386
-0.000183 -0.020181 -0.000787
-25.857698 -51.130234 1.323668
-25.136271 -49.660732 2.588770
-24.648678 -48.676212 3.808087
-6.985690 -13.797492 1.438884
-0.000183 -0.020181 -0.000787
-7.329838 -14.457211 2.273167
-0.000183 -0.020181 -0.000787
-5.993010 -11.803435 2.488633
-0.258066 -0.525758 -0.337497
-0.269665 -0.548086 -0.333930
-0.290087 -0.587794 -0.339801
-0.313323 -0.632803 -0.346344
-0.345095 -0.694383 -0.359377
-0.378893 -0.760090 -0.370991
-0.438493 -0.875810 -0.402484
-2.095914 -4.108190 -1.795178
-2.225737 -4.359478 -1.776327
-2.389124 -4.673995 -1.768963
-2.560811 -5.004138 -1.749837
-2.738635 -5.347929 -1.719121
-2.936813 -5.728513 -1.681966
-3.213269 -6.263195 -1.665163
-3.595102 -6.999056 -1.670226
-4.022343 -7.821681 -1.655393
-4.442086 -8.725111 -1.607344
-5.078032 -9.967028 -1.571429
-5.969070 -11.702251 -1.533846
-8.967975 -17.556400 -1.840227
-13.013691 -25.456470 -2.001441
-18.875174 -36.881382 -1.935946
-21.513636 -41.997490 -1.100366
-0.000178 -0.020077 -0.000783
-0.000178 -0.020077 -0.000783
-0.000178 -0.020077 -0.000783
-0.000178 -0.020077 -0.000783
-8.143250 -15.853666 1.658627
-6.360548 -12.376651 1.623081
-6.196894 -12.053424 1.900153
-0.000178 -0.020077 -0.000783
-0.000178 -0.020077 -0.000783
-0.260185 -0.522633 -0.336473
-0.279129 -0.558794 -0.341764
-0.296599 -0.592280 -0.343553
-0.321787 -0.640398 -0.351725
-0.348973 -0.692280 -0.359374
-0.388314 -0.767462 -0.375870
-0.442562 -0.871527 -0.401709
-2.120279 -4.097600 -1.795904
-2.243618 -4.331102 -1.770169
-2.412373 -4.653337 -1.766400
-2.592115 -4.994282 -1.751623
-2.757754 -5.307614 -1.711400
-2.967841 -5.707976 -1.680952
-3.250248 -6.243921 -1.665163
-3.619219 -6.944565 -1.662322
-4.051252 -7.764482 -1.648354
-4.522075 -8.757122 -1.618051
-5.129663 -9.922552 -1.569202
-6.028002 -11.651718 -1.531760
-8.918452 -17.214449 -1.809732
-12.896866 -24.863428 -1.960798
-19.042009 -36.685093 -1.931386
-21.812157 -41.982811 -1.103275
-26.361353 -50.691013 -0.006200
-26.346731 -50.640850 1.318722
-0.000173 -0.019974 -0.000779
-25.279446 -48.506599 3.817655
-7.130619 -13.684660 1.435722
-0.000173 -0.019974 -0.000779
-6.347056 -12.167300 1.924073
-7.483092 -14.329290 2.650622
-6.879957 -13.170197 2.793974
-0.266363 -0.527064 -0.340550
-0.277442 -0.547774 -0.335882
-0.299148 -0.588854 -0.342612
-0.321308 -0.630458 -0.347233
-0.353699 -0.691738 -0.360224
-0.390915 -0.761869 -0.374239
-0.445889 -0.865512 -0.400163
-2.139390 -4.076969 -1.792263
-2.274550 -4.329633 -1.774956
-2.433715 -4.629204 -1.762555
-2.594832 -4.930227 -1.734341
-2.788162 -5.291533 -1.711398
-2.986977 -5.665031 -1.673351
-3.279671 -6.212947 -1.661932
-3.667923 -6.943140 -1.666896
-4.056665 -7.670459 -1.633165
-4.561908 -8.707314 -1.613833
-5.238174 -9.990931 -1.584801
-6.125561 -11.670155 -1.538959
-8.951667 -17.030739 -1.795977
-0.000170 -0.019873 -0.000775
-19.210770 -36.479458 -1.926547
-22.114033 -41.971375 -1.106322
-34.113964 -64.680740 -0.007747
-13.178191 -24.976772 0.651772
-27.212444 -51.532948 2.710502
-25.621607 -48.480083 3.827106
-0.000170 -0.019873 -0.000775
-6.443868 -12.191770 1.608454
-0.000170 -0.019873 -0.000775
-0.000170 -0.019873 -0.000775
-8.737930 -16.489893 3.510146
-0.271600 -0.530027 -0.343608
-0.280403 -0.546092 -0.335876
-0.301490 -0.585512 -0.341669
-0.323859 -0.626981 -0.346332
-0.354887 -0.684866 -0.357653
-0.396764 -0.762801 -0.375863
-0.460152 -0.880824 -0.408642
-2.162877 -4.066506 -1.792989
-2.292375 -4.305161 -1.770165
-2.446006 -4.590377 -1.752947
-2.618622 -4.908811 -1.731954
-2.806645 -5.255451 -1.704779
-3.009307 -5.631106 -1.668282
-3.299471 -6.166998 -1.654550
-3.675983 -6.865568 -1.653167
-4.096534 -7.642386 -1.632052
-4.603841 -8.669415 -1.611563
-5.302162 -9.977143 -1.587308
-6.143805 -11.548005 -1.527353
-8.977166 -16.850361 -1.782218
-12.874422 -24.146811 -1.915691
-0.000189 -0.019750 -0.000770
-13.317616 -24.945484 -0.659599
-34.507462 -64.550896 -0.007782
-13.318290 -24.904451 0.651811
-27.827808 -51.993023 2.742836
-25.903112 -48.357254 3.828761
-9.476009 -17.695028 1.868335
-6.569036 -12.262260 1.622612
-0.000189 -0.019750 -0.000770
-6.069506 -11.316896 2.104915
-7.038888 -13.110162 2.798040
-0.272175 -0.523756 -0.340543
-0.284331 -0.545863 -0.336854
-0.306541 -0.586696 -0.343541
-0.329155 -0.628087 -0.348123
-0.363243 -0.690527 -0.361929
-0.402918 -0.763527 -0.377485
-0.466147 -0.879577 -0.409408
-2.180449 -4.040011 -1.787166
-2.314174 -4.284767 -1.767426
-2.472059 -4.571921 -1.751665
-2.638390 -4.874178 -1.725398
-2.822975 -5.211568 -1.695954
-3.022240 -5.573437 -1.656628
-3.317276 -6.113022 -1.645323
-3.714901 -6.837739 -1.651919
-4.127025 -7.587774 -1.625753
-4.625081 -8.586263 -1.601181
-5.341363 -9.908817 -1.581460
-6.149742 -11.395913 -1.512034
-9.006736 -16.667091 -1.768461
-12.983148 -24.006723 -1.910669
-19.472361 -35.965748 -1.911171
-22.808796 -42.089447 -1.116426
-34.893517 -64.351959 -0.007811
-28.578588 -52.664909 1.384208
-28.212416 -51.946640 2.749414
-11.019139 -20.292376 1.610476
-7.671050 -14.120660 1.495290
-6.694001 -12.314290 1.634910
-6.545495 -12.036419 1.921006
-6.135559 -11.274314 2.103941
-0.000182 -0.019644 -0.000766
-0.275911 -0.523577 -0.341558
-0.285688 -0.541048 -0.334890
-0.308940 -0.583278 -0.342599
-0.335236 -0.630771 -0.350812
-0.370579 -0.694656 -0.365348
-0.410704 -0.767501 -0.380736
-0.476401 -0.886497 -0.414032
-2.201764 -4.024020 -1.785708
-2.318784 -4.235027 -1.752370
-2.494565 -4.550875 -1.749102
-2.661709 -4.850423 -1.722416
-2.846324 -5.183342 -1.692092
-3.037359 -5.525336 -1.647506
-3.334445 -6.061335 -1.636557
-3.763552 -6.833258 -1.656079
-4.161029 -7.546577 -1.622048
-4.698029 -8.602658 -1.609292
-5.349715 -9.789194 -1.567255
-6.204648 -11.341040 -1.509481
-9.057451 -16.532772 -1.759723
-13.061548 -23.823017 -1.902015
-19.648235 -35.796902 -1.908197
-23.135420 -42.111500 -1.120543
-35.268196 -64.158623 -0.007838
-0.000179 -0.019543 -0.000762
-28.275774 -51.356224 2.726709
-26.362434 -47.862206 3.813675
-7.777119 -14.121489 1.500112
-6.796373 -12.332819 1.642569
-7.554719 -13.701015 2.194153
-0.000179 -0.019543 -0.000762
-0.000179 -0.019543 -0.000762
-0.284638 -0.532409 -0.348698
-0.290391 -0.542327 -0.336844
-0.313040 -0.582925 -0.343534
-0.338761 -0.628716 -0.350807
-0.375326 -0.693994 -0.366201
-0.414113 -0.763424 -0.379919
-0.480501 -0.882007 -0.413256
-2.222085 -4.006272 -1.783522
-2.352159 -4.237921 -1.759211
-2.504012 -4.506536 -1.737571
-2.681108 -4.819907 -1.717050
-2.873188 -5.161731 -1.690437
-3.068995 -5.507659 -1.647505
-3.361561 -6.028358 -1.632866
-3.772168 -6.756731 -1.642764
-4.164899 -7.452096 -1.606857
-4.747377 -8.575354 -1.609291
-5.410694 -9.766777 -1.568648
-6.235019 -11.242496 -1.501124
-9.076909 -16.344492 -1.745220
-13.135363 -23.633972 -1.892940
-19.860739 -35.695267 -1.908862
-0.000174 -0.019440 -0.000758
-35.660297 -63.996304 -0.007869
-28.770920 -51.593475 1.364613
-0.000174 -0.019440 -0.000758
-11.211986 -20.092503 1.604754
-0.000174 -0.019440 -0.000758
-8.758493 -15.673906 2.095178
-7.683658 -13.747066 2.208614
-0.000174 -0.019440 -0.000758
-0.000174 -0.019440 -0.000758
-0.283373 -0.523159 -0.343592
-0.294249 -0.542060 -0.337821
-0.318871 -0.585627 -0.346348
-0.343131 -0.628215 -0.351701
-0.374771 -0.683841 -0.361917
-0.416599 -0.757738 -0.378288
-0.485447 -0.879135 -0.413253
-2.243155 -3.990073 -1.782065
-2.376420 -4.224194 -1.759208
-2.518603 -4.472153 -1.729885
-2.704929 -4.797649 -1.714666
-2.883812 -5.111531 -1.679405
-3.085301 -5.462848 -1.639395
-3.381716 -5.983396 -1.625945
-3.789652 -6.697363 -1.633611
-4.204728 -7.422753 -1.605744
-4.762709 -8.487564 -1.597936
-5.439528 -9.687031 -1.560850
-6.295640 -11.199381 -1.500196
-9.110141 -16.184292 -1.733693
-13.279924 -23.573492 -1.894205
-20.014772 -35.489738 -1.904020
-0.000169 -0.019336 -0.000754
-36.043823 -63.817669 -0.007897
-0.000169 -0.019336 -0.000754
-11.559532 -20.446033 1.091481
-0.000169 -0.019336 -0.000754
-7.532574 -13.313498 1.423273
-8.803400 -15.543633 2.084498
-8.617696 -15.209816 2.451996
-0.000169 -0.019336 -0.000754
-7.278902 -12.828827 2.773604
-0.283710 -0.516933 -0.340527
-0.295516 -0.537230 -0.335858
-0.319509 -0.579070 -0.343526
-0.348395 -0.629233 -0.353493
-0.381274 -0.686280 -0.364482
-0.426409 -0.764666 -0.383166
-0.483995 -0.864989 -0.407851
-2.258592 -3.964043 -1.776241
-2.400378 -4.208297 -1.758523
-2.550805 -4.468972 -1.734365
-2.733356 -4.783537 -1.715259
-2.915883 -5.097565 -1.680507
-3.114652 -5.441540 -1.638381
-3.395695 -5.926007 -1.615795
-3.788230 -6.603442 -1.616138
-4.252499 -7.404383 -1.607226
-4.785959 -8.415333 -1.589502
-5.456570 -9.583937 -1.549429
-6.332325 -11.114542 -1.493698
-9.125051 -15.994853 -1.719003
-13.406569 -23.471663 -1.892395
-20.161156 -35.273212 -1.898617
-0.000164 -0.019233 -0.000750
-36.446556 -63.645977 -0.007926
-29.148211 -50.883801 1.354591
-11.592453 -20.231741 1.083572
-11.757744 -20.503187 1.648489
-0.000164 -0.019233 -0.000750
-11.642343 -20.277195 2.729287
-7.949292 -13.839779 2.238374
-7.056692 -12.277913 2.321697
-7.381964 -12.837698 2.784706
-0.297839 -0.534503 -0.353788
-0.301205 -0.539890 -0.338793
-0.324578 -0.580128 -0.345402
-0.352011 -0.627047 -0.353489
-0.387052 -0.687018 -0.366188
-0.427024 -0.755776 -0.379908
-0.494540 -0.871588 -0.412475
-2.282879 -3.952087 -1.776967
-2.420685 -4.187799 -1.755783
-2.567644 -4.437270 -1.727959
-2.760609 -4.765485 -1.714662
-2.930583 -5.055653 -1.672232
-3.129260 -5.392754 -1.629258
-3.415955 -5.882694 -1.609334
-3.840864 -6.606757 -1.622376
-4.259297 -7.318555 -1.593887
-4.869275 -8.444767 -1.600531
-5.513519 -9.555696 -1.549987
-6.379145 -11.043998 -1.489288
-9.130857 -15.786961 -1.702455
-13.524399 -23.364614 -1.890026
-20.324869 -35.075096 -1.894427
-0.000183 -0.019110 -0.000745
-0.000183 -0.019110 -0.000745
-29.564960 -50.908695 1.359888
-11.708152 -20.155586 1.083196
-8.001332 -13.774588 1.110445
-7.624357 -13.115896 1.411578
-9.004296 -15.473770 2.089135
-6.572607 -11.295447 1.832270
-8.965831 -15.389037 2.920857
-9.450627 -16.206997 3.528996
-0.290386 -0.514850 -0.341539
-0.305967 -0.541047 -0.340749
-0.326931 -0.576605 -0.344457
-0.353709 -0.621812 -0.351689
-0.389050 -0.681562 -0.364473
-0.436024 -0.760989 -0.383972
-2.155279 -3.686318 -1.777961
-2.292264 -3.916288 -1.766777
-2.452058 -4.184583 -1.760570
-2.600727 -4.435372 -1.733080
-2.777223 -4.731318 -1.708105
-2.953568 -5.026484 -1.668371
-3.149334 -5.356210 -1.623682
-3.443737 -5.850503 -1.606104
-3.847023 -6.528183 -1.608647
-4.280518 -7.255834 -1.585735
-4.866856 -8.329626 -1.583984
-5.456846 -9.329624 -1.518512
-6.415401 -10.960704 -1.483020
-9.142879 -15.600062 -1.687951
-13.664678 -23.287306 -1.890312
-20.453516 -34.833355 -1.887715
-29.244669 -49.756889 -1.346017
-37.245712 -63.313591 -0.007984
-33.096325 -56.239262 1.507467
-11.719441 -19.910450 1.073615
-12.269009 -20.826431 1.685956
-7.661436 -13.001729 1.404153
-0.000178 -0.019006 -0.000741
-9.279968 -15.725430 2.561301
-0.000178 -0.019006 -0.000741
-9.548688 -16.160666 3.530845
-0.302080 -0.527821 -0.351740
-0.305498 -0.533117 -0.336825
-0.331124 -0.576075 -0.345393
-0.360003 -0.624222 -0.354379
-0.393771 -0.680770 -0.365326
-0.443093 -0.763072 -0.386409
-2.160944 -3.646406 -1.764851
-2.312761 -3.899717 -1.765319
-2.466388 -4.154142 -1.753724
-2.612527 -4.397436 -1.724112
-2.798446 -4.705300 -1.704526
-2.981364 -5.007640 -1.667817
-3.158171 -5.301350 -1.612533
-3.445287 -5.777033 -1.591340
-3.879292 -6.499776 -1.606981
-4.301676 -7.199674 -1.578693
-4.919098 -8.305592 -1.584956
-5.482064 -9.250256 -1.510711
-6.425404 -10.830126 -1.470484
-9.151697 -15.405086 -1.672702
-13.717830 -23.072687 -1.879280
-6.455330 -10.858655 -0.590333
-0.000175 -0.018906 -0.000737
-33.585381 -56.348583 -0.007228
-11.674953 -19.584341 0.525981
-12.377546 -20.753426 1.122978
-0.000175 -0.018906 -0.000737
-11.667043 -19.539608 2.118661
-7.167727 -12.001889 1.630724
-10.895156 -18.218945 2.978246
-6.711727 -11.226014 2.144118
-9.601053 -16.037878 3.516038
-0.303159 -0.523058 -0.349694
-0.312844 -0.538779 -0.341721
-0.330595 -0.568055 -0.341632
-0.360627 -0.617489 -0.351681
-0.399447 -0.681478 -0.367034
-0.452086 -0.768227 -0.390474
-2.187847 -3.645229 -1.770244
-2.325461 -3.870268 -1.758039
-2.478489 -4.120467 -1.745512
-2.618086 -4.349789 -1.711302
-2.815511 -4.672663 -1.698564
-2.985145 -4.949171 -1.654029
-3.191540 -5.287936 -1.614051
-3.470328 -5.743668 -1.587647
-3.920709 -6.481569 -1.608228
-4.345220 -7.175601 -1.579063
-4.953084 -8.257598 -1.581063
-5.547364 -9.238807 -1.514054
-6.455966 -10.744614 -1.463751
-9.141898 -15.195008 -1.655408
-13.664935 -22.685656 -1.854137
-6.441457 -10.699168 -0.583611
-0.000170 -0.018802 -0.000733
