# This PCD file was generated using the MATLAB® pcwrite function
# from Computer Vision Toolbox®.
# .PCD v.7 - Point Cloud Data file format
VERSION .7
FIELDS x y z
SIZE 4 4 4
TYPE F F F
COUNT 1 1 1
WIDTH 1642
HEIGHT 1
VIEWPOINT 0 0 0 1 0 0 0
POINTS 1642
DATA ascii
-3.421754 3.373494 -0.805032
-3.407658 3.361590 -0.686616
-3.403395 3.358454 -0.570498
0.000694 -0.100495 -0.003921
0.000694 -0.100495 -0.003921
0.000694 -0.100495 -0.003921
-3.380741 3.343793 -0.115895
0.000694 -0.100495 -0.003921
0.000694 -0.100495 -0.003921
0.000694 -0.100495 -0.003921
0.000694 -0.100495 -0.003921
0.000694 -0.100495 -0.003921
0.000694 -0.100495 -0.003921
0.000694 -0.100495 -0.003921
0.000694 -0.100495 -0.003921
-3.333558 3.313456 0.895265
-0.410969 0.322342 -0.353829
-0.432221 0.344471 -0.352671
-0.452457 0.365425 -0.349435
-0.459059 0.372537 -0.335040
-0.467885 0.381957 -0.322211
-0.486841 0.401637 -0.315463
-2.550526 2.528521 -1.533978
-2.685371 2.669391 -1.510452
-2.831483 2.821068 -1.484788
-2.959086 2.954813 -1.441163
-3.143924 3.147868 -1.414568
-3.286961 3.296791 -1.359413
-3.407636 3.423937 -1.287304
-3.389082 3.405962 -1.159389
-3.391990 3.411412 -1.041721
-3.388855 3.410601 -0.923291
-3.396961 3.389605 -0.804054
-3.383518 3.377004 -0.685776
-3.386960 3.382958 -0.571189
-3.373205 3.371225 -0.455468
-3.376229 3.375533 -0.342703
-3.358715 3.359911 -0.228731
-3.360232 3.363887 -0.115890
-3.361930 3.366837 -0.003828
-3.354273 3.361338 0.108096
-3.344754 3.353923 0.220425
-3.346575 3.356995 0.332677
-3.339044 3.351615 0.444283
-3.335179 3.350016 0.557413
-3.330122 3.345978 0.669770
-3.321278 3.339214 0.781808
-3.315985 3.336120 0.896012
-0.404946 0.321089 -0.350764
-0.430866 0.348326 -0.353646
-0.444864 0.363035 -0.345676
-0.453839 0.372696 -0.333242
-0.461352 0.380848 -0.319639
-0.482591 0.403313 -0.314645
-2.558345 2.567248 -1.547847
-2.675821 2.691640 -1.514084
-2.807588 2.831127 -1.481363
-2.959798 2.991073 -1.450120
-3.130448 3.171546 -1.416945
-3.264098 3.313566 -1.358305
-3.392643 3.449213 -1.289324
-3.387045 3.445821 -1.165838
-3.375154 3.435830 -1.042963
-3.382888 3.446394 -0.927358
-3.385001 3.417734 -0.805995
-3.368320 3.402836 -0.686884
-3.372350 3.408240 -0.572111
-3.364191 3.402184 -0.456949
-3.361068 3.401364 -0.343256
-3.349795 3.390829 -0.229471
-3.345769 3.389064 -0.116069
-3.356529 3.402716 -0.003822
-3.339813 3.386477 0.108287
-3.334497 3.383350 0.221084
-3.328774 3.379791 0.332963
-3.319896 3.372924 0.444476
-3.323489 3.377887 0.558813
-3.316478 3.372959 0.671169
-3.313076 3.371817 0.784732
-3.308336 3.368050 0.899350
-0.402443 0.323598 -0.350760
-0.425806 0.348466 -0.351681
-0.448198 0.372184 -0.350365
-0.446103 0.370304 -0.329648
-0.451099 0.375734 -0.314501
-0.474641 0.400877 -0.311388
-0.489422 0.416815 -0.301440
-2.657151 2.704417 -1.512623
-2.803591 2.861003 -1.488197
-2.938029 3.004038 -1.448195
-3.116812 3.195178 -1.419322
-3.250990 3.339399 -1.361055
-3.410694 3.509584 -1.304005
-3.510887 3.618189 -1.215629
-3.417131 3.520166 -1.062083
0.000682 -0.100172 -0.003908
-3.376321 3.450746 -0.808906
-3.361744 3.436638 -0.689661
-3.365165 3.442701 -0.574424
-3.352963 3.432311 -0.458242
-3.355956 3.436690 -0.344785
-3.349648 3.432496 -0.230862
-3.340767 3.424352 -0.116573
-3.374832 3.462759 -0.003814
-3.342438 3.431025 0.109083
-3.332230 3.421463 0.222301
-3.330618 3.422204 0.335202
-3.329168 3.421893 0.448383
-3.327949 3.423057 0.563000
-3.316809 3.413707 0.675350
-3.307192 3.404733 0.787981
-3.317994 3.418622 0.907504
-0.410677 0.337221 -0.359937
-0.420909 0.348404 -0.349717
-0.437080 0.365770 -0.343790
-0.432464 0.361179 -0.321567
-0.449693 0.379689 -0.315351
-0.468100 0.399643 -0.308942
-0.482721 0.415595 -0.299125
-2.637614 2.715231 -1.510436
-2.793440 2.883584 -1.491612
-2.921943 3.021885 -1.448830
-3.090536 3.204276 -1.415742
-3.243548 3.370247 -1.366011
0.000687 -0.100068 -0.003904
-3.606965 3.763012 -1.256198
-3.982928 4.167072 -1.244607
-3.440935 3.589074 -0.954377
0.000687 -0.100068 -0.003904
0.000687 -0.100068 -0.003904
-3.394296 3.513668 -0.582767
0.000687 -0.100068 -0.003904
0.000687 -0.100068 -0.003904
0.000687 -0.100068 -0.003904
-3.389405 3.515989 -0.118887
0.000687 -0.100068 -0.003904
-3.344521 3.473089 0.109831
0.000687 -0.100068 -0.003904
-21.937462 23.357410 2.242599
-3.320323 3.452169 0.449874
0.000687 -0.100068 -0.003904
-39.787994 42.518211 8.191468
0.000687 -0.100068 -0.003904
0.000687 -0.100068 -0.003904
-0.408160 0.339699 -0.359932
-0.424252 0.357317 -0.354611
-0.436810 0.370993 -0.345662
-0.432233 0.366394 -0.323358
-0.439458 0.374507 -0.310213
-0.463882 0.401182 -0.308125
-0.479754 0.418484 -0.299120
-2.628462 2.739146 -1.514795
-2.785900 2.911248 -1.497078
-2.916244 3.053193 -1.455225
-3.070889 3.222673 -1.415736
-3.222901 3.389538 -1.366005
-3.392529 3.574431 -1.313110
-3.611699 3.814488 -1.265875
-3.940890 4.174181 -1.239611
-3.394372 3.584123 -0.947705
-3.432581 3.593102 -0.832237
-3.416507 3.578370 -0.709408
-3.392356 3.553640 -0.586009
-3.403430 3.568122 -0.470676
0.000669 -0.099945 -0.003899
-3.388149 3.555461 -0.236252
-3.373318 3.542006 -0.119067
-3.387914 3.560306 -0.003801
-19.901976 21.405771 0.676986
-28.828180 31.072659 1.977014
-21.713959 23.396421 2.233963
0.000669 -0.099945 -0.003899
-27.869196 30.088188 4.801605
-39.345085 42.548370 8.152240
0.000669 -0.099945 -0.003899
0.000669 -0.099945 -0.003899
-0.406707 0.343484 -0.360948
-0.416801 0.354786 -0.350690
-0.426839 0.365875 -0.340024
-0.418576 0.357195 -0.315278
-0.430533 0.370555 -0.305931
-0.452356 0.394529 -0.302426
-0.469193 0.413265 -0.294490
-2.617863 2.761670 -1.518427
-2.762174 2.920418 -1.493653
-2.912831 3.087335 -1.462902
-3.056278 3.246586 -1.418113
-3.210524 3.416658 -1.369308
-3.368060 3.591742 -1.312091
-3.528765 3.769193 -1.244659
-3.932030 4.214267 -1.244594
-3.359867 3.589188 -0.943997
-3.389257 3.590264 -0.827043
-3.377862 3.579131 -0.705784
0.000672 -0.099845 -0.003895
-3.362776 3.567816 -0.468069
-3.363124 3.569472 -0.351880
-3.343462 3.550564 -0.234663
-3.338176 3.547335 -0.118596
-3.346533 3.557739 -0.003796
-19.999384 21.769999 0.684761
-21.627769 23.567120 1.491890
-21.543310 23.482878 2.230350
-29.364685 32.066818 4.060447
0.000672 -0.099845 -0.003895
-38.908009 42.565063 8.112454
-5.619705 6.067425 1.367164
-5.372118 5.799857 1.499701
-0.401836 0.343384 -0.358904
-0.414181 0.357294 -0.350685
-0.417038 0.360594 -0.334386
-0.412348 0.355744 -0.312581
-0.425378 0.370447 -0.304216
-0.451856 0.400012 -0.304049
-0.471184 0.421542 -0.297569
-2.603840 2.779571 -1.519877
-2.747992 2.941049 -1.495699
-2.885529 3.094312 -1.458416
-3.029266 3.255720 -1.414534
-3.196059 3.442905 -1.372057
-3.379129 3.647089 -1.324748
-3.581328 3.874012 -1.271396
-3.918157 4.250710 -1.248330
-3.349754 3.622308 -0.947324
-3.350691 3.590822 -0.822824
-3.332017 3.572815 -0.700769
-3.329390 3.571199 -0.582518
-3.326890 3.571000 -0.466020
-3.315839 3.561367 -0.349225
-3.300930 3.546170 -0.233167
-3.309045 3.557694 -0.118314
-3.320744 3.573180 -0.003791
-20.093021 22.128157 0.692395
-28.172516 31.087563 1.956919
-21.173084 23.355665 2.206362
-38.226173 42.275948 5.321658
-38.645161 42.755287 6.745648
0.000675 -0.099744 -0.003891
-5.491900 5.999581 1.344796
-5.307814 5.797209 1.491190
-0.398061 0.344598 -0.357878
-0.406811 0.354661 -0.346762
-0.410769 0.359232 -0.331565
-0.406047 0.354287 -0.309886
-0.422677 0.373007 -0.304211
-0.439226 0.391829 -0.297537
-0.463154 0.418929 -0.294482
-2.595925 2.804358 -1.524962
-2.732938 2.959730 -1.497062
-2.872138 3.116637 -1.460971
-3.035338 3.301718 -1.426442
-3.170496 3.455624 -1.369846
-3.356215 3.665150 -1.324236
-3.533784 3.867064 -1.262630
-3.435780 3.758414 -1.101969
-3.344602 3.658684 -0.951761
-3.339289 3.622502 -0.825411
-3.312132 3.593524 -0.701042
-3.311548 3.595449 -0.583207
-3.309047 3.595238 -0.466571
-3.306683 3.593888 -0.350474
-3.297889 3.586642 -0.234465
-3.302609 3.593199 -0.118817
-3.306223 3.599821 -0.003783
-20.177908 22.490137 0.699982
0.000681 -0.099641 -0.003887
-20.934059 23.361193 2.195491
-37.810024 42.288239 5.296595
-38.180977 42.734028 6.707568
0.000681 -0.099641 -0.003887
-5.321261 5.876974 1.311077
-5.314267 5.873298 1.502677
-0.396714 0.348205 -0.358895
-0.399647 0.351823 -0.342839
-0.408200 0.361628 -0.331560
-0.399964 0.352658 -0.307188
-0.416358 0.371487 -0.301639
-0.442542 0.401232 -0.301599
-0.463928 0.425770 -0.296790
-2.581628 2.822160 -1.526412
-2.725760 2.986314 -1.502529
-2.856098 3.136090 -1.462244
-3.004319 3.306353 -1.421076
-3.170930 3.496443 -1.378661
-3.340896 3.691799 -1.326761
-3.470422 3.840127 -1.247869
-3.794877 4.211396 -1.224618
-3.341085 3.698650 -0.956939
-3.340722 3.666296 -0.830917
-3.319063 3.643189 -0.706880
-3.307991 3.633316 -0.586216
-3.304206 3.631654 -0.468795
-3.303211 3.631829 -0.352281
-3.294467 3.624561 -0.235670
-3.298516 3.631746 -0.119414
-3.304043 3.639300 -0.003778
-20.279127 22.860325 0.707988
0.000684 -0.099540 -0.003884
-20.830458 23.509245 2.198437
-37.266350 42.166294 5.254435
-11.632042 13.102775 2.054216
0.000684 -0.099540 -0.003884
-5.295877 5.917991 1.313353
0.000684 -0.099540 -0.003884
-0.392998 0.349299 -0.357870
-0.400484 0.358159 -0.345774
-0.400876 0.358760 -0.327801
-0.398532 0.356406 -0.308081
-0.413633 0.373978 -0.301636
-0.438359 0.402583 -0.300782
-0.453607 0.420206 -0.292161
-2.563520 2.835670 -1.525680
-2.712370 3.008218 -1.505258
-2.836179 3.151167 -1.461598
-2.992203 3.332350 -1.424643
-3.171011 3.539934 -1.388026
-3.319002 3.711076 -1.326756
-3.452101 3.866630 -1.249707
-3.797464 4.266398 -1.233761
-3.337829 3.740757 -0.962488
-3.335897 3.704870 -0.835126
-3.318987 3.688240 -0.711606
-3.303446 3.671821 -0.589227
-3.294467 3.664206 -0.470461
-3.298088 3.670985 -0.354089
-3.286127 3.658620 -0.236595
-3.292758 3.668846 -0.119965
-3.296281 3.675521 -0.003772
-12.235494 13.915624 0.428473
-12.362465 14.070990 0.873503
0.000666 -0.099417 -0.003878
-11.603578 13.219828 1.644590
-11.499730 13.105233 2.044235
-5.191133 5.865943 1.107728
-5.289894 5.983679 1.320820
-5.190977 5.872031 1.487137
-0.386950 0.347835 -0.354805
-0.400039 0.363265 -0.347729
-0.394668 0.357225 -0.324981
-0.394652 0.357521 -0.307179
-0.409623 0.375160 -0.300777
-0.435453 0.405202 -0.300778
-0.451729 0.424396 -0.292927
-2.538762 2.842478 -1.521310
-2.694420 3.023885 -1.505254
-2.818070 3.169472 -1.462234
-2.976763 3.355927 -1.427022
-3.150012 3.558253 -1.388020
-3.306432 3.742538 -1.330802
-3.477442 3.942605 -1.267223
-3.531200 4.007964 -1.155172
-3.333612 3.780907 -0.967664
-3.333958 3.748571 -0.840306
-3.317869 3.731343 -0.716053
-3.299237 3.712509 -0.592466
-3.296826 3.712402 -0.473985
-3.294595 3.711152 -0.356036
-3.284674 3.702346 -0.238080
-3.287343 3.708104 -0.120561
-3.292790 3.715745 -0.003765
0.000669 -0.099317 -0.003874
-11.705539 13.479924 0.832596
-11.592286 13.353251 1.238318
-11.463029 13.212604 1.635495
-11.366757 13.110091 2.034486
-5.133453 5.868825 1.102724
-5.283079 6.047071 1.327961
-5.302741 6.074282 1.529734
-0.383251 0.348860 -0.353781
-0.390580 0.357735 -0.341846
-0.386294 0.352894 -0.320282
-0.390853 0.358534 -0.306278
-0.406884 0.377620 -0.300772
-0.434817 0.410658 -0.302401
-0.440325 0.417280 -0.287527
-2.529051 2.865674 -1.525668
-2.680716 3.045643 -1.507985
-2.811486 3.200172 -1.468631
-2.956826 3.373127 -1.427015
-3.133234 3.582835 -1.390220
-3.281763 3.758686 -1.329782
-3.428175 3.933612 -1.257996
-3.487784 4.006599 -1.148928
-3.328330 3.821692 -0.972843
-3.322014 3.779803 -0.842894
-3.315682 3.775136 -0.720501
-3.295298 3.752669 -0.595708
-3.290364 3.749607 -0.476207
-3.287492 3.748950 -0.357703
-3.280890 3.742569 -0.239378
-3.283523 3.748358 -0.121206
-3.297343 3.767267 -0.003759
-11.693302 13.615191 0.414973
-11.567542 13.477259 0.828318
-11.460523 13.361131 1.232745
-11.332223 13.219814 1.628071
-11.235177 13.110383 2.024506
-5.554576 6.436499 1.201837
-5.224794 6.052837 1.322455
-5.155159 5.972983 1.497150
-0.380582 0.351234 -0.353777
-0.386724 0.358810 -0.340863
-0.382467 0.353938 -0.319339
-0.388141 0.360962 -0.306273
-0.404148 0.380077 -0.300767
-0.428354 0.409085 -0.299956
-0.438431 0.421394 -0.288294
-2.520347 2.890269 -1.530755
-2.668630 3.068331 -1.511398
-2.793671 3.217870 -1.469265
-2.935561 3.388753 -1.426413
-3.123120 3.614165 -1.395175
-3.265711 3.785026 -1.332310
-3.431191 3.984684 -1.267673
-3.448442 4.006645 -1.143517
-3.330397 3.868926 -0.979872
-3.324449 3.829689 -0.849372
-3.306129 3.809408 -0.723277
-3.291641 3.795027 -0.599180
-3.279037 3.782856 -0.477873
-3.284586 3.790786 -0.359789
-3.276070 3.783441 -0.240677
-3.272927 3.781074 -0.121617
-3.293080 3.807716 -0.003752
-11.553743 13.615610 0.412891
-11.435125 13.479570 0.824413
-11.325030 13.358328 1.226476
-11.207671 13.223556 1.620833
-11.109054 13.115653 2.015453
-5.181816 6.069682 1.128628
-5.048200 5.912756 1.286141
-5.174436 6.067410 1.513081
-0.376947 0.352130 -0.352753
-0.376335 0.351713 -0.334001
-0.376532 0.352115 -0.316518
-0.389000 0.367344 -0.308961
-0.402542 0.383890 -0.301618
-0.424341 0.410177 -0.299138
-0.433155 0.421111 -0.286748
-2.509056 2.911997 -1.534387
-2.654511 3.087621 -1.513445
-2.776939 3.236916 -1.470541
-2.939850 3.435059 -1.438322
-3.096203 3.624279 -1.392413
-3.244531 3.805365 -1.332810
-3.377254 3.966472 -1.256139
-3.405982 4.003953 -1.137276
-3.356444 3.947141 -0.994306
-3.320191 3.869489 -0.853905
-3.307120 3.855256 -0.728281
-3.285139 3.831750 -0.601957
-3.282833 3.831774 -0.481583
-3.280706 3.830605 -0.361737
-3.269697 3.820188 -0.241789
-3.274844 3.829132 -0.122494
-3.309639 3.872247 -0.003745
-11.429644 13.623183 0.411182
-11.304336 13.482341 0.820600
-11.198667 13.360119 1.220903
-11.083674 13.231339 1.613968
-10.985822 13.122993 2.006867
0.000682 -0.099009 -0.003863
-5.005950 5.932731 1.284203
-5.143854 6.103260 1.514569
-0.375445 0.355734 -0.353769
-0.373742 0.353993 -0.333996
-0.371681 0.351664 -0.314636
-0.387437 0.371060 -0.309855
-0.399756 0.386312 -0.301614
-0.424803 0.417026 -0.301574
-0.436038 0.430834 -0.290597
-2.504707 2.942320 -1.542383
-2.629593 3.096174 -1.510019
-2.773340 3.271979 -1.478857
-2.940060 3.477102 -1.448444
-3.076503 3.645661 -1.393509
-3.233036 3.837538 -1.337363
-3.359259 3.994075 -1.258438
-3.364212 4.003024 -1.131449
-3.363532 4.005096 -1.003556
-3.314895 3.909940 -0.858438
-3.300001 3.894763 -0.731894
-3.281432 3.873685 -0.605430
-3.277902 3.872223 -0.484177
-3.273840 3.870117 -0.363545
-3.264890 3.860653 -0.243085
-3.271260 3.871188 -0.123182
-3.322888 3.936689 -0.003738
-11.293242 13.619410 0.409100
-11.168831 13.477899 0.816416
-11.070460 13.367854 1.215609
-10.950024 13.230795 1.605986
-10.859070 13.124737 1.997583
-4.908132 5.882665 1.083819
-4.967564 5.959376 1.283560
-5.042026 6.052336 1.494948
-0.367309 0.351411 -0.348663
-0.371045 0.356305 -0.333992
-0.371240 0.356709 -0.316509
-0.382375 0.370683 -0.308056
-0.396858 0.388776 -0.301610
-0.421737 0.419648 -0.301569
-0.425879 0.424925 -0.285969
-2.499543 2.973116 -1.550381
-2.614138 3.116192 -1.512067
-2.756899 3.292912 -1.480771
-2.918791 3.494588 -1.448439
-3.071204 3.684858 -1.401220
-3.231590 3.883817 -1.346473
-3.323871 4.000431 -1.254284
-3.323807 4.003265 -1.126038
-3.329218 4.012861 -1.000589
-3.324773 3.970912 -0.867185
-3.383984 4.046314 -0.755821
-3.282907 3.923953 -0.610064
-3.276947 3.919492 -0.487514
-3.285548 3.932892 -0.367443
-3.313271 3.968341 -0.248388
-3.323400 3.983665 -0.125959
-3.350640 4.020045 -0.003730
-11.168773 13.633550 0.407531
-11.046513 13.492874 0.813351
-10.937555 13.368375 1.209759
-10.824332 13.238437 1.599122
-10.734121 13.131963 1.988996
-4.877562 5.917953 1.084941
-5.207354 6.329276 1.355560
-5.046262 6.132649 1.507176
-0.363617 0.352280 -0.347640
-0.368410 0.358540 -0.333988
-0.368629 0.358963 -0.316503
-0.377430 0.370210 -0.306257
-0.392922 0.389767 -0.300750
-0.417691 0.420683 -0.300751
-0.428657 0.434682 -0.289817
-2.486500 2.993393 -1.553284
-2.599691 3.135255 -1.514112
-2.734942 3.305879 -1.479486
-2.890896 3.502527 -1.444858
-3.060860 3.715550 -1.406176
-3.221925 3.919072 -1.352038
-3.283883 3.997775 -1.247823
-3.283746 4.000515 -1.120210
-3.289033 4.010033 -0.995398
-3.319880 4.013129 -0.872043
-3.359540 4.063712 -0.755537
-3.353239 4.058862 -0.627451
-3.349977 4.057774 -0.501811
-3.343109 4.050714 -0.376362
-3.327396 4.034149 -0.251175
-3.321150 4.029330 -0.126741
-3.315068 4.023227 -0.003724
-11.036896 13.632289 0.405589
-10.921767 13.498734 0.809911
-10.814704 13.370222 1.204463
-10.709796 13.249070 1.593184
-10.613016 13.137867 1.980641
-10.501019 13.002831 2.356369
0.000670 -0.098685 -0.003850
-3.371907 4.114813 1.013134
-0.361013 0.354477 -0.347635
-0.363596 0.358035 -0.332025
-0.365973 0.361176 -0.316500
-0.375853 0.373895 -0.307149
-0.388980 0.390719 -0.299889
-0.414685 0.423182 -0.300748
-0.422127 0.432913 -0.287501
-2.473283 3.013592 -1.556189
-2.582190 3.151745 -1.514791
-2.717646 3.324649 -1.480761
-2.883167 3.535677 -1.451405
-3.040035 3.734724 -1.406722
-3.196319 3.934628 -1.351020
-3.248166 4.001482 -1.243206
-3.250366 4.007189 -1.116878
-3.245795 4.004346 -0.989469
-3.281381 4.013782 -0.868146
-3.320687 4.064512 -0.752192
-3.311906 4.056467 -0.624198
-3.307396 4.053758 -0.499018
-3.302998 4.049713 -0.374544
-3.286104 4.031448 -0.249867
-3.282379 4.029708 -0.126180
-3.280077 4.028268 -0.003718
-10.900427 13.623695 0.403460
-10.793608 13.498926 0.806193
-10.689845 13.372994 1.199170
-10.580793 13.245097 1.585388
0.000676 -0.098581 -0.003846
-10.426628 13.064743 2.356657
0.000676 -0.098581 -0.003846
-3.332963 4.115776 1.008696
-0.355211 0.352612 -0.344570
-0.354489 0.352020 -0.326143
-0.363319 0.363386 -0.316496
-0.372019 0.374758 -0.306247
-0.389501 0.397313 -0.302453
-0.411682 0.425678 -0.300743
-0.416770 0.432535 -0.285956
-2.456483 3.029365 -1.556910
-2.566914 3.171104 -1.516838
-2.711929 3.358236 -1.488437
-2.871614 3.564345 -1.456165
-3.022642 3.758318 -1.408922
-3.208840 3.998769 -1.366208
-3.214907 4.007973 -1.239511
-3.209800 4.004383 -1.111051
-3.210009 4.007594 -0.985761
-3.240528 4.011014 -0.863603
-3.279508 4.061915 -0.748289
-3.273187 4.056863 -0.621409
-3.267411 4.052497 -0.496598
-3.260550 4.045258 -0.372446
-3.247455 4.031574 -0.248743
-3.246192 4.032926 -0.125711
-3.241419 4.028314 -0.003714
-10.778021 13.631305 0.401844
-10.670730 13.504365 0.802846
0.000679 -0.098481 -0.003843
0.000679 -0.098481 -0.003843
-10.435374 13.228152 1.976013
-4.876509 6.131801 1.108345
-4.899679 6.165884 1.303044
-3.306206 4.131899 1.007960
-0.350485 0.352041 -0.342526
-0.349752 0.351420 -0.324178
-0.362818 0.368359 -0.318370
-0.371481 0.379818 -0.308038
-0.386653 0.399665 -0.302448
-0.410798 0.431101 -0.302366
-0.411442 0.432121 -0.284410
-2.437280 3.042091 -1.556178
-2.544027 3.181940 -1.514780
-2.685021 3.364931 -1.484590
-2.853969 3.585440 -1.457948
-3.024430 3.808217 -1.420492
-3.193479 4.027995 -1.369748
-3.225014 4.071718 -1.252877
-3.226073 4.076083 -1.125182
-3.227657 4.081129 -0.998713
-3.204674 4.014144 -0.860355
-3.271807 4.103284 -0.752180
-3.258976 4.088298 -0.623258
-3.236109 4.061913 -0.495479
-3.232225 4.059905 -0.372022
-3.216268 4.040851 -0.248179
-3.205181 4.029552 -0.125056
-3.226687 4.060222 -0.003708
-10.648541 13.628486 0.399949
0.000661 -0.098358 -0.003837
-10.483965 13.435754 1.193746
-10.441144 13.390147 1.588010
-10.425341 13.374543 1.988802
-4.850375 6.174841 1.110858
-4.669355 5.945098 1.251165
-3.206108 4.052992 0.984635
-0.342560 0.347408 -0.337421
-0.346011 0.352210 -0.323195
-0.358978 0.369226 -0.317426
-0.370807 0.384949 -0.309829
-0.385877 0.404914 -0.304156
-0.407743 0.433564 -0.302362
-0.416162 0.444920 -0.289800
-2.401597 3.034425 -1.545262
-2.530801 3.204093 -1.518195
-2.666728 3.383914 -1.485865
-2.835568 3.606984 -1.459728
-3.007743 3.833322 -1.423241
-3.163064 4.039292 -1.367210
-3.310856 4.234120 -1.295751
-3.438288 4.404073 -1.207916
-3.364514 4.310664 -1.048692
-3.200683 4.059780 -0.865861
-3.271706 4.153545 -0.757741
-3.258288 4.139151 -0.627891
-3.236861 4.114317 -0.499372
-3.232548 4.110209 -0.374805
-3.208693 4.082162 -0.249476
-3.201336 4.075583 -0.125837
-3.202690 4.078842 -0.003702
0.000664 -0.098257 -0.003834
-10.500041 13.614129 0.802026
-10.460440 13.567304 1.200037
-10.440746 13.551392 1.599913
-10.424832 13.540414 2.004146
0.000664 -0.098257 -0.003834
0.000664 -0.098257 -0.003834
-3.171883 4.059550 0.981678
-0.344178 0.354975 -0.341496
-0.342367 0.352927 -0.322210
-0.354132 0.368573 -0.315545
-0.366935 0.385761 -0.308928
-0.379704 0.402923 -0.301584
-0.401362 0.431646 -0.299917
-0.410790 0.444465 -0.288255
-2.390278 3.057228 -1.549620
-2.519687 3.229209 -1.522978
-2.653502 3.408390 -1.489700
-2.817623 3.627915 -1.461510
-2.988525 3.855279 -1.424890
-3.146206 4.066822 -1.370241
-3.207279 4.149182 -1.264853
-3.197830 4.139731 -1.132238
-3.192312 4.135485 -1.002776
-3.493362 4.494489 -0.951765
-3.273543 4.207102 -0.763858
-3.257889 4.189595 -0.632522
-3.234220 4.161531 -0.502711
-3.228767 4.155873 -0.377171
-3.208715 4.132508 -0.251333
-3.200212 4.124339 -0.126712
-3.193089 4.116460 -0.003695
-10.506639 13.777757 0.400712
-10.487220 13.762106 0.807164
-10.460999 13.732428 1.209257
-10.447226 13.724186 1.613117
-10.432347 13.714463 2.020886
-4.811208 6.274745 1.118665
-4.626801 6.034933 1.258638
-3.153803 4.085701 0.983535
-0.340509 0.355671 -0.340473
-0.338716 0.353604 -0.321226
-0.352505 0.372129 -0.316479
-0.362005 0.385124 -0.307128
-0.376823 0.405219 -0.301579
-0.402606 0.439987 -0.303166
-0.406574 0.445471 -0.287479
-2.373185 3.072537 -1.550343
-2.495412 3.238197 -1.520235
-2.650274 3.446469 -1.499299
-2.807552 3.659481 -1.467462
-2.956971 3.862271 -1.421026
-3.140684 4.109781 -1.378339
-3.176201 4.160445 -1.262542
-3.166777 4.150887 -1.130154
-3.160095 4.145005 -1.000548
-3.181068 4.134457 -0.873628
-3.270567 4.256660 -0.769138
-3.256999 4.240162 -0.637155
-3.233561 4.212066 -0.506418
-3.225018 4.203796 -0.379675
-3.210654 4.186188 -0.253376
-3.202203 4.178003 -0.127727
-3.194379 4.170651 -0.003689
-10.510417 13.950204 0.403975
-10.482594 13.923163 0.813045
-10.463559 13.907845 1.219177
-10.447227 13.896125 1.625949
-10.438180 13.889035 2.037625
0.000672 -0.098053 -0.003826
-3.472360 4.562234 0.951215
0.000672 -0.098053 -0.003826
-0.333710 0.352269 -0.336388
-0.329794 0.347311 -0.315345
-0.351831 0.377172 -0.318351
-0.361262 0.390243 -0.308919
-0.376068 0.410393 -0.303286
-0.397320 0.439465 -0.301535
-0.407724 0.453911 -0.290558
-2.356001 3.087763 -1.551064
-2.489554 3.270745 -1.528439
-2.629821 3.461779 -1.499294
-2.780203 3.668017 -1.464478
-2.942115 3.890174 -1.424878
-3.138232 4.157496 -1.387956
-3.197823 4.241441 -1.280979
-3.185951 4.226895 -1.145531
-3.172495 4.211766 -1.012020
-3.150003 4.145428 -0.872003
-3.261957 4.297793 -0.773028
-3.253677 4.289824 -0.641556
-3.234007 4.266469 -0.510499
-3.228702 4.260883 -0.383016
-3.206589 4.234180 -0.255046
-3.198938 4.225412 -0.128556
-3.186405 4.211605 -0.003682
-10.507686 14.121760 0.407144
-10.496651 14.111963 0.820513
-10.466869 14.081946 1.229096
-10.452888 14.068130 1.639153
-10.436458 14.056141 2.053203
-3.177340 4.214981 0.749245
-3.323372 4.414799 0.917169
-3.104251 4.120382 0.983176
-0.333244 0.357020 -0.338423
-0.331434 0.354885 -0.319258
-0.344978 0.373526 -0.314593
-0.356428 0.389487 -0.307119
-0.373133 0.412659 -0.303282
-0.393139 0.440375 -0.300718
-0.401374 0.451822 -0.288241
-2.339820 3.104393 -1.552514
-2.480098 3.298799 -1.534589
-2.608169 3.475449 -1.498647
-2.759596 3.685614 -1.465068
-2.954206 3.955316 -1.441961
-3.097727 4.153718 -1.380859
-3.289645 4.420362 -1.328001
-3.206268 4.309091 -1.162157
-3.195422 4.297390 -1.027564
-3.158962 4.207615 -0.881074
-3.264702 4.354944 -0.779702
-3.254966 4.343280 -0.646652
-3.233123 4.316699 -0.514208
-3.228296 4.313315 -0.385939
-3.205945 4.284375 -0.256902
-3.197591 4.276147 -0.129478
-3.191037 4.270366 -0.003675
-10.518950 14.304655 0.410733
-10.494741 14.282012 0.826861
-10.467329 14.254917 1.238874
-10.448398 14.239417 1.651799
-10.442494 14.236520 2.070638
0.000657 -0.097830 -0.003817
-3.207167 4.311678 0.892206
-3.060261 4.111279 0.976886
-0.331540 0.360484 -0.339439
-0.330778 0.359767 -0.321214
-0.345287 0.379968 -0.317405
-0.355618 0.394592 -0.308910
-0.371160 0.416440 -0.304133
-0.392175 0.445703 -0.302340
-0.402427 0.460286 -0.291320
-2.329505 3.130416 -1.558328
-2.461607 3.314665 -1.535267
-2.598009 3.506340 -1.505044
-2.747150 3.715976 -1.470423
-2.922954 3.961448 -1.438097
-3.086009 4.190974 -1.386931
-3.256743 4.429851 -1.325230
-3.224230 4.387947 -1.177951
-3.211344 4.373288 -1.040887
-3.176222 4.285524 -0.893063
-3.269206 4.415465 -0.786933
-3.254193 4.398023 -0.651748
-3.231389 4.369793 -0.518103
-3.225058 4.362660 -0.388583
-3.207974 4.342286 -0.259131
-3.193840 4.325961 -0.130352
-3.188085 4.319596 -0.003667
-10.445015 14.383138 0.411208
-10.500372 14.470550 0.834143
-10.409011 14.349056 1.241815
-10.455281 14.423902 1.666119
-10.443132 14.417662 2.087843
-3.121676 4.243461 0.747864
-3.163279 4.304533 0.887022
-3.026059 4.116692 0.973929
-0.327898 0.361099 -0.338415
-0.326109 0.358937 -0.319251
-0.340471 0.379183 -0.315523
-0.351730 0.395279 -0.308009
-0.366093 0.415737 -0.302418
-0.385862 0.443604 -0.299895
-0.397050 0.459690 -0.289775
-2.315211 3.149954 -1.561232
-2.448448 3.338063 -1.539367
-2.573922 3.516727 -1.503117
-2.734001 3.744284 -1.475183
-2.905100 3.986149 -1.440847
-3.067988 4.218240 -1.389964
-3.215965 4.428020 -1.319230
-3.245944 4.473549 -1.195406
-3.236735 4.463941 -1.057543
-3.199172 4.371231 -0.906674
-3.252404 4.447224 -0.789152
-3.252527 4.450735 -0.656611
-3.229927 4.422456 -0.521997
-3.220202 4.410492 -0.391087
-3.203254 4.390067 -0.260801
-3.193846 4.380183 -0.131367
-3.184657 4.368927 -0.003661
-10.270942 14.316137 0.407592
-10.505535 14.656175 0.841330
0.000665 -0.097626 -0.003809
0.000665 -0.097626 -0.003809
-10.442234 14.594234 2.104582
0.000665 -0.097626 -0.003809
-3.157297 4.350137 0.892541
-3.091588 4.260792 1.003193
-0.323258 0.360274 -0.336371
-0.322473 0.359499 -0.318267
-0.340783 0.385573 -0.318335
-0.346839 0.394496 -0.306209
-0.364164 0.419416 -0.303270
-0.385895 0.450401 -0.302331
-0.398095 0.468114 -0.292854
-2.285747 3.148115 -1.553952
-2.430793 3.355292 -1.540729
-2.559611 3.540894 -1.506953
-2.715130 3.764755 -1.476965
-2.890399 4.015515 -1.445250
-3.054209 4.251776 -1.395023
-3.270371 4.561247 -1.352421
-3.263390 4.554734 -1.211615
-3.258933 4.551813 -1.073458
-3.221265 4.457364 -0.920283
-3.241047 4.487010 -0.792764
-4.959535 6.922530 -1.007240
-5.597476 7.831226 -0.909052
-3.219491 4.464917 -0.394150
-3.200395 4.441202 -0.262657
-3.193361 4.434575 -0.132381
-3.185371 4.424900 -0.003654
0.000668 -0.097525 -0.003806
-10.500875 14.830916 0.847865
0.000668 -0.097525 -0.003806
-9.923280 14.025441 1.607042
-9.937377 14.055955 2.019084
-3.116987 4.344185 0.759012
-3.119176 4.350584 0.888979
-3.134129 4.375205 1.025421
-0.323582 0.366478 -0.339426
-0.323831 0.367178 -0.322181
-0.335991 0.384757 -0.316452
-0.348095 0.402464 -0.309794
-0.361195 0.421626 -0.303265
-0.382627 0.452786 -0.302328
-0.396934 0.473532 -0.294392
-2.278721 3.178150 -1.561949
-2.424212 3.389818 -1.549616
-2.544026 3.563463 -1.510148
-2.698289 3.788274 -1.479938
-2.873618 4.043755 -1.449103
-3.035726 4.278933 -1.398057
-3.236015 4.571075 -1.349649
-3.235716 4.574108 -1.211611
-3.245825 4.592175 -1.078266
-3.242476 4.543907 -0.933892
-4.501829 6.350974 -1.108898
-4.950884 6.996708 -1.013725
-5.517552 7.814436 -0.903473
-6.883927 9.780809 -0.845430
-8.454979 12.039478 -0.693200
-9.351024 13.335567 -0.383356
-9.306598 13.281666 -0.003351
-9.598577 13.706475 0.387023
0.000650 -0.097403 -0.003800
-9.572727 13.689737 1.170385
-9.784831 14.005644 1.598132
0.000650 -0.097403 -0.003800
-3.072548 4.336679 0.754565
-3.105105 4.386977 0.892554
-3.009864 4.251073 0.992834
-0.320814 0.368488 -0.339423
-0.319095 0.366334 -0.320217
-0.335121 0.389750 -0.318326
-0.344095 0.403143 -0.308893
-0.358095 0.423853 -0.303262
-0.379460 0.455095 -0.302323
-0.398788 0.483605 -0.298240
-2.257138 3.188646 -1.560489
-2.395585 3.391438 -1.544138
-2.529762 3.589526 -1.514625
-2.688163 3.823226 -1.487080
-2.846459 4.055582 -1.447445
-3.014096 4.303371 -1.400076
-3.210196 4.591358 -1.350103
-3.457361 4.956041 -1.305152
0.000653 -0.097302 -0.003797
0.000653 -0.097302 -0.003797
-4.448884 6.354071 -1.104995
-4.908718 7.026067 -1.013718
-5.478431 7.858621 -0.904765
-6.843901 9.845041 -0.847514
-8.388493 12.097766 -0.693657
-9.236053 13.339827 -0.381910
0.000653 -0.097302 -0.003797
-9.506321 13.748443 0.386613
0.000653 -0.097302 -0.003797
-9.452565 13.685513 1.165370
-9.512078 13.782609 1.566548
0.000653 -0.097302 -0.003797
-3.098416 4.429570 0.767376
-3.083673 4.411393 0.893855
-2.972929 4.252740 0.989137
-0.324928 0.380401 -0.346558
-0.316424 0.368274 -0.320212
-0.330315 0.388854 -0.316445
-0.340219 0.403766 -0.307990
-0.357121 0.429006 -0.304969
-0.377311 0.458896 -0.303132
-0.407863 0.504310 -0.307486
-2.238192 3.201706 -1.560483
-2.377589 3.408409 -1.545499
-2.506371 3.601009 -1.513338
-2.673026 3.849804 -1.491245
-2.839757 4.097490 -1.456258
-3.003881 4.343189 -1.407161
-3.195132 4.627600 -1.355170
-3.415059 4.956526 -1.300156
-3.685515 5.360770 -1.244496
-4.074893 5.883116 -1.192582
-4.398286 6.360053 -1.101649
-4.893328 7.092089 -1.019045
-5.430276 7.886841 -0.904388
-6.803360 9.909131 -0.849599
-8.330483 12.164145 -0.694673
-9.125957 13.344922 -0.380556
-9.076676 13.277307 -0.003336
-9.416351 13.788169 0.386205
-9.593243 14.059585 0.794199
0.000659 -0.097198 -0.003793
-9.373950 13.751502 1.556893
0.000659 -0.097198 -0.003793
-3.044565 4.406425 0.760421
-2.986950 4.324527 0.873106
-2.964331 4.294332 0.994698
-0.319290 0.378090 -0.343494
-0.310808 0.365850 -0.317270
-0.328512 0.392336 -0.317378
-0.335322 0.402846 -0.306193
-0.352082 0.428172 -0.303252
-0.375009 0.462739 -0.303942
-2.192213 3.172000 -1.647891
-2.216048 3.210008 -1.558295
-2.358837 3.425682 -1.546862
-2.486102 3.617074 -1.513972
-2.647090 3.860495 -1.489451
-2.822295 4.125551 -1.460111
-2.979344 4.362135 -1.407661
-3.162726 4.640110 -1.353319
-3.387189 4.980058 -1.300982
-3.670520 5.408816 -1.250413
-4.051418 5.922970 -1.195817
-4.379803 6.415726 -1.106652
-4.862923 7.136728 -1.021358
0.000662 -0.097098 -0.003789
-6.757226 9.969305 -0.851264
-8.274219 12.233588 -0.695874
-8.979354 13.294392 -0.377673
-8.990495 13.321059 -0.003327
-9.326222 13.827313 0.385795
0.000662 -0.097098 -0.003789
-9.367328 13.909719 1.175019
-3.126287 4.581754 0.521398
-2.988688 4.377543 0.625670
-9.448368 14.057451 2.388528
-2.915777 4.274978 0.859817
-2.958611 4.340865 1.001369
-0.317417 0.381521 -0.344509
-0.314816 0.377965 -0.324123
-0.326568 0.395847 -0.318314
-0.334338 0.407923 -0.307982
-0.350040 0.431795 -0.304104
-0.371795 0.465010 -0.303936
-2.182983 3.200455 -1.655593
-2.208272 3.239902 -1.566292
-2.338521 3.439316 -1.546856
-2.483481 3.659879 -1.525490
-2.634786 3.891711 -1.495402
-2.793691 4.135420 -1.457901
-2.955743 4.382548 -1.408669
-3.140770 4.666484 -1.355618
-3.372784 5.020231 -1.306381
-3.640811 5.430981 -1.250777
-4.000340 5.923993 -1.191272
-4.334567 6.429403 -1.104696
-4.834204 7.187074 -1.024366
-5.873723 8.759851 -0.995007
-6.717905 10.036435 -0.853626
-8.209743 12.295880 -0.696611
-8.895485 13.335990 -0.377385
-8.892107 13.341020 -0.003319
-9.231319 13.864155 0.385293
-9.306211 13.982687 0.783777
-9.273330 13.943558 1.173354
-9.277499 13.955147 1.567692
-9.329692 14.044882 1.978004
-9.008074 13.567720 2.296943
0.000643 -0.096975 -0.003784
-2.926538 4.348097 0.999154
-0.312848 0.380512 -0.342465
-0.304502 0.368156 -0.316282
-0.321894 0.394837 -0.316430
-0.331520 0.409897 -0.307977
-0.347987 0.435432 -0.304955
-0.368561 0.467256 -0.303932
0.000646 -0.096874 -0.003780
-2.196169 3.263594 -1.571378
-2.310924 3.441817 -1.542063
-2.475276 3.694852 -1.533807
-2.609679 3.903718 -1.494206
-2.772441 4.156389 -1.459548
-2.937307 4.410957 -1.412207
-3.115405 4.687853 -1.356535
-3.350897 5.053370 -1.309702
-3.610094 5.455884 -1.251512
-3.978573 5.964489 -1.194832
-4.299077 6.457661 -1.105247
-4.797837 7.220726 -1.025286
-5.832914 8.805943 -0.996485
-6.670378 10.091743 -0.855013
-8.152470 12.360039 -0.697625
-8.826736 13.400465 -0.377748
-8.834276 13.422244 -0.003309
-9.166350 13.935681 0.385861
-9.281766 14.123137 0.788634
-9.119308 13.884875 1.164013
-9.052617 13.793169 1.543542
-9.188480 14.006943 1.965235
-8.985426 13.705776 2.311429
0.000646 -0.096874 -0.003780
-2.927681 4.406172 1.008419
-0.308138 0.379580 -0.340421
-0.312173 0.386170 -0.327053
-0.318971 0.396844 -0.316426
-0.330437 0.414952 -0.309769
-0.340900 0.431525 -0.301528
-0.367280 0.472538 -0.305555
-2.183907 3.286053 -1.685644
-2.187290 3.293877 -1.579376
-2.297633 3.466220 -1.546846
-2.457867 3.717538 -1.537003
-2.597281 3.936902 -1.500753
-2.748945 4.174004 -1.460094
-2.920977 4.444681 -1.417266
-3.103586 4.730367 -1.363446
-3.327535 5.082568 -1.312190
-3.595057 5.503156 -1.257429
-3.945765 5.993066 -1.195798
-4.279575 6.510677 -1.109972
-4.784562 7.295856 -1.031772
-5.802706 8.875609 -1.000378
-6.627853 10.155224 -0.857097
-8.093602 12.431782 -0.698920
0.000650 -0.096774 -0.003776
-8.828951 13.585589 -0.003296
-9.134953 14.070583 0.388101
-9.269745 14.290575 0.794890
-9.048365 13.952347 1.165277
-9.180484 14.168344 1.579418
-8.988605 13.880873 1.940150
-8.959369 13.840710 2.325360
0.000650 -0.096774 -0.003776
-2.905150 4.430179 1.009905
-0.305397 0.381460 -0.340416
-0.306580 0.383670 -0.324109
-0.315161 0.397284 -0.315484
-0.325566 0.413950 -0.307969
-0.341841 0.439624 -0.304946
-0.388566 0.513260 -0.325886
-2.186234 3.332923 -1.702595
-2.190359 3.340715 -1.595373
-2.288200 3.496950 -1.554364
-2.433496 3.726526 -1.535076
-2.585985 3.969162 -1.507300
-2.735650 4.207716 -1.466152
-2.886250 4.446343 -1.412702
-3.085145 4.763066 -1.367588
-3.305923 5.112751 -1.315094
-3.575305 5.541502 -1.261496
-3.919157 6.029103 -1.198384
-4.279890 6.595393 -1.119983
-4.740845 7.321716 -1.031534
-5.772377 8.942541 -1.004086
-6.590180 10.226964 -0.859878
-8.029935 12.491763 -0.699656
-8.730941 13.595857 -0.380325
-8.777973 13.680166 -0.003285
-9.098332 14.193887 0.390063
-9.194627 14.350646 0.795365
-8.877403 13.862919 1.153563
-8.945773 13.975815 1.552479
-9.290668 14.529533 2.023110
-8.968122 14.032626 2.348755
-2.830960 4.365912 0.864705
-2.926148 4.519479 1.026208
-0.305475 0.387627 -0.343473
-0.302940 0.383993 -0.323127
-0.322688 0.415630 -0.325807
-0.334171 0.434016 -0.318732
-0.348383 0.456979 -0.313499
0.000658 -0.096570 -0.003769
-2.192015 3.386166 -1.722630
-2.191389 3.386503 -1.610642
-2.260467 3.499036 -1.549571
-2.419825 3.755427 -1.540834
-2.563853 3.987776 -1.508486
-2.714902 4.230012 -1.468352
-2.869523 4.479878 -1.417761
-3.060395 4.787990 -1.369426
-3.282355 5.146218 -1.318413
-3.540766 5.561062 -1.261119
-3.891211 6.060997 -1.200324
-4.268768 6.663559 -1.127213
-4.671771 7.304501 -1.025499
-5.739895 9.003383 -1.007235
-6.550840 10.296912 -0.862520
-7.967945 12.554792 -0.700580
-8.725458 13.762759 -0.383515
-8.760273 13.828772 -0.003272
-9.048887 14.298632 0.391513
-9.149153 14.469336 0.798918
-8.910386 14.094692 1.168506
-8.840968 13.995013 1.548772
-9.131989 14.470064 2.007320
-8.761130 13.889323 2.316191
-2.821179 4.409487 0.869898
-3.089513 4.841776 1.093991
-0.310705 0.402726 -0.352650
-0.312001 0.405187 -0.335857
-0.332717 0.438632 -0.338947
-0.363043 0.487747 -0.349238
-0.384155 0.522148 -0.348574
-2.083326 3.255018 -1.760747
-2.178132 3.410191 -1.728020
-2.193657 3.437916 -1.628095
-2.240082 3.514085 -1.550250
-2.394945 3.766612 -1.539547
-2.537568 3.999782 -1.507289
-2.696288 4.257601 -1.472203
-2.864718 4.533121 -1.428897
-3.039383 4.817218 -1.372648
-3.263429 5.183444 -1.322981
-3.523670 5.608836 -1.267037
-3.846220 6.073030 -1.198048
-4.220213 6.675431 -1.124980
-4.653795 7.376844 -1.031521
-5.697898 9.060361 -1.009641
-6.509095 10.367888 -0.865161
-7.906476 12.624006 -0.701781
-8.755646 14.001026 -0.388559
-8.759774 14.013124 -0.003260
-9.006568 14.421838 0.393430
-8.980466 14.391015 0.791655
-8.917479 14.294963 1.180659
-8.844232 14.187850 1.564207
-8.755910 14.056175 1.942966
-8.763788 14.074395 2.338472
-2.858739 4.530350 0.890011
0.000637 -0.096450 -0.003763
-0.305135 0.400234 -0.349584
-0.316423 0.418972 -0.343689
-0.338891 0.455693 -0.348331
-0.368095 0.503643 -0.357309
-0.460175 0.653772 -0.420441
-2.044881 3.235928 -1.744473
-2.157549 3.420828 -1.727245
-2.198222 3.489912 -1.646277
-2.222838 3.531452 -1.552296
-2.374328 3.781650 -1.540182
-2.523355 4.026586 -1.512049
-2.685976 4.295655 -1.479915
-2.847705 4.561860 -1.432944
-3.027112 4.859125 -1.379559
-3.244005 5.216154 -1.326717
-3.508107 5.653079 -1.272585
-3.839613 6.142253 -1.207118
-4.198811 6.728415 -1.129703
-4.622150 7.422258 -1.034063
-5.665455 9.122678 -1.012977
-6.470668 10.441011 -0.868082
-7.848910 12.690197 -0.702983
-8.684118 14.061739 -0.388874
-8.753004 14.179568 -0.003246
-9.023536 14.632259 0.397807
-9.651160 15.662736 0.858601
-8.839068 14.348040 1.180947
-9.087955 14.760491 1.621643
-8.669887 14.088168 1.940882
0.000643 -0.096346 -0.003759
0.000643 -0.096346 -0.003759
0.000643 -0.096346 -0.003759
-0.299854 0.397530 -0.346519
-0.313712 0.420718 -0.343686
-0.336900 0.459067 -0.349267
-0.370504 0.514826 -0.362690
-0.473137 0.684100 -0.435837
-2.031201 3.252942 -1.747722
-2.136243 3.427451 -1.724927
-2.195837 3.528568 -1.658637
-2.209656 3.552790 -1.556395
-2.358897 3.802232 -1.543378
-2.490876 4.021882 -1.505490
-2.665933 4.314696 -1.481564
-2.830301 4.588411 -1.436483
-3.015217 4.898336 -1.386008
-3.228276 5.253260 -1.331701
-3.486088 5.684936 -1.275541
-3.834589 6.207887 -1.215866
-4.190814 6.796099 -1.137210
-4.596142 7.468526 -1.037072
-5.630554 9.174437 -1.015385
-6.437171 10.510666 -0.871002
-7.788106 12.741472 -0.703533
-8.683477 14.228498 -0.392158
-8.733108 14.315969 -0.003233
-9.025036 14.809389 0.401349
-9.703035 15.935331 0.870731
-8.922361 14.657132 1.202451
-9.328418 15.334537 1.679078
-8.648931 14.221880 1.952973
-8.835647 14.536666 2.399181
-8.683137 14.295407 2.758327
-2.765501 4.489875 1.005491
-0.295864 0.398040 -0.345495
-0.310460 0.422792 -0.343681
-0.333412 0.461288 -0.349262
-0.370336 0.523388 -0.366275
-0.471803 0.693455 -0.439255
-2.012007 3.268890 -1.749343
-2.114390 3.442863 -1.725693
-2.197222 3.584367 -1.677545
-2.208210 3.604208 -1.572121
-2.315258 3.786592 -1.531207
-2.473287 4.054816 -1.511442
-2.642324 4.340190 -1.484314
-2.800159 4.608841 -1.436984
-2.988898 4.927860 -1.388767
-3.204724 5.294831 -1.336684
-3.471779 5.748594 -1.284420
-3.781732 6.209970 -1.211644
-4.154556 6.834280 -1.139152
-4.548517 7.497343 -1.037066
-5.587967 9.239746 -1.018535
-6.390907 10.585247 -0.873783
-7.721470 12.819040 -0.705012
-8.723119 14.505807 -0.398127
-8.751647 14.559311 -0.003217
-9.032097 15.040865 0.406054
-9.388831 15.651095 0.851816
-9.388734 15.657130 1.279228
-9.127053 15.230200 1.661061
0.000651 -0.096142 -0.003752
-9.225466 15.413784 2.533107
-2.914509 4.808383 0.933809
-2.747267 4.530663 1.010311
-0.295643 0.404285 -0.348551
-0.306598 0.423196 -0.342696
-0.334703 0.470919 -0.353952
-0.369485 0.530230 -0.368963
-0.466321 0.694706 -0.438396
-1.989818 3.275814 -1.746897
-2.094925 3.456684 -1.726458
-2.203447 3.643624 -1.698633
-2.196418 3.633172 -1.578955
-2.309191 3.827715 -1.542086
-2.455152 4.078969 -1.515010
-2.618690 4.358756 -1.485410
-2.783816 4.643357 -1.442548
-2.955979 4.938379 -1.386917
-3.181569 5.326815 -1.340003
-3.454964 5.797417 -1.290708
-3.774515 6.280997 -1.221039
-4.117626 6.863322 -1.139979
-4.913202 8.214343 -1.130743
-5.549307 9.297592 -1.021314
-6.347555 10.652899 -0.876285
-7.662204 12.889194 -0.706401
-8.733350 14.716084 -0.402429
-8.760555 14.768096 -0.003201
-9.078735 15.320152 0.412199
-9.357780 15.806594 0.857326
-9.315061 15.740263 1.281609
-9.081030 15.354710 1.668875
0.000631 -0.096022 -0.003746
-9.114935 15.430880 2.527269
0.000631 -0.096022 -0.003746
-2.860706 4.785583 1.062538
-0.289285 0.400145 -0.344466
-0.304466 0.426554 -0.343673
-0.326970 0.465310 -0.349254
-0.362289 0.526297 -0.365368
-0.471790 0.714681 -0.447801
-1.967945 3.284514 -1.745264
-2.074428 3.468792 -1.726453
0.000636 -0.095919 -0.003743
-2.197870 3.686872 -1.596048
-2.280851 3.831223 -1.538239
-2.432039 4.094803 -1.515600
-2.611510 4.407586 -1.496429
-2.763265 4.671124 -1.446088
-2.927033 4.957618 -1.387373
-3.150317 5.347392 -1.340414
-3.439630 5.851949 -1.298106
-3.748677 6.321471 -1.224599
-4.093228 6.916800 -1.144705
-4.873295 8.256343 -1.132590
-5.506165 9.348419 -1.023349
-6.304754 10.726663 -0.879207
-7.601384 12.957374 -0.707696
-8.799764 15.027177 -0.409420
-8.765706 14.980700 -0.003186
-9.088294 15.541704 0.416765
0.000636 -0.095919 -0.003743
-9.214933 15.784999 1.280781
-9.184983 15.746066 1.705311
-9.119870 15.640014 2.123792
0.000636 -0.095919 -0.003743
-2.764077 4.681786 0.903337
-10.482907 18.027935 3.941781
-0.294931 0.416865 -0.354663
-0.302240 0.429978 -0.344647
-0.326293 0.471950 -0.352065
-0.361250 0.533179 -0.368057
-0.468007 0.719048 -0.448654
-1.945720 3.291143 -1.742819
-2.052332 3.479549 -1.725676
-2.184349 3.710979 -1.717536
-2.205019 3.750098 -1.617248
0.000639 -0.095818 -0.003739
-2.417354 4.125411 -1.521552
-2.595080 4.439337 -1.501936
-2.730969 4.678670 -1.443550
-2.907553 4.991402 -1.391977
-3.129587 5.381997 -1.344565
-3.407341 5.872880 -1.298470
-3.716463 6.353974 -1.226537
-4.057724 6.948944 -1.146090
-4.844474 8.321374 -1.137453
-5.467926 9.412115 -1.026683
-6.265218 10.802689 -0.882405
-7.538746 13.028342 -0.709083
-8.888780 15.384609 -0.417616
-8.755410 15.164620 -0.003171
-9.059989 15.708184 0.419795
0.000639 -0.095818 -0.003739
-9.210584 15.990259 1.293074
-9.002422 15.633039 1.687666
0.000639 -0.095818 -0.003739
-2.854016 4.899474 0.805043
-2.670775 4.580708 0.881288
0.000639 -0.095818 -0.003739
-0.286948 0.409634 -0.348539
-0.295849 0.425699 -0.340725
-0.323123 0.473874 -0.352061
-0.362156 0.543072 -0.372539
-0.456173 0.709265 -0.441804
-1.932485 3.313521 -1.748508
-2.034161 3.494274 -1.727212
-2.161471 3.721977 -1.716803
-2.206906 3.805366 -1.635026
-2.238295 3.862410 -1.540148
-2.382679 4.121089 -1.514993
-2.575564 4.466048 -1.505787
-2.714857 4.714651 -1.449621
-2.884903 5.020030 -1.395199
-3.103750 5.412495 -1.347470
-3.383453 5.913650 -1.302907
-3.679428 6.373026 -1.226206
-4.015138 6.968856 -1.145527
-4.815065 8.379486 -1.141620
-5.432444 9.473764 -1.030020
-6.223044 10.875144 -0.885325
-7.481112 13.098141 -0.710565
-8.891170 15.597432 -0.421917
-8.784653 15.421998 -0.003154
-9.042521 15.883937 0.423152
-11.509614 20.259897 1.087544
-9.120773 16.048368 1.293504
-8.894275 15.660266 1.684888
-9.051293 15.944884 2.150765
-2.738624 4.762383 0.780270
-2.814463 4.900931 0.938697
-2.654452 4.618829 1.015890
-0.283950 0.411442 -0.348534
-0.294468 0.430602 -0.342679
-0.319728 0.475882 -0.352057
-0.355738 0.540642 -0.369842
-0.457573 0.723113 -0.447789
-1.913715 3.326294 -1.749316
-2.011033 3.503171 -1.725665
-2.137884 3.733219 -1.716070
-2.208233 3.860790 -1.652804
-2.222151 3.888961 -1.545264
-2.351119 4.123589 -1.510818
-2.553924 4.489304 -1.508538
-2.697566 4.751067 -1.455692
-2.862961 5.050259 -1.398882
-3.084350 5.452620 -1.352868
-3.361209 5.955484 -1.307713
-3.658371 6.425833 -1.232035
-3.985059 7.010974 -1.148581
-4.769560 8.416676 -1.142772
-5.392131 9.535486 -1.033168
-6.179247 10.945704 -0.888108
-7.426114 13.184239 -0.712791
-8.810596 15.672703 -0.422510
-8.766338 15.599888 -0.003141
-9.040127 16.103262 0.427578
-12.681828 22.646858 1.211463
-8.996576 16.044950 1.289046
0.000648 -0.095614 -0.003732
-8.916376 15.927242 2.141248
0.000648 -0.095614 -0.003732
0.000648 -0.095614 -0.003732
0.000648 -0.095614 -0.003732
-0.280190 0.411667 -0.347510
-0.292281 0.433931 -0.343654
-0.314730 0.474738 -0.350175
-0.355535 0.549053 -0.373427
-0.456354 0.732179 -0.451206
-1.889565 3.329366 -1.745244
-1.991170 3.516415 -1.726431
-2.116706 3.747209 -1.716792
-2.212624 3.922938 -1.673317
-2.207388 3.916733 -1.551021
-2.359910 4.197396 -1.532257
-2.528407 4.505723 -1.509084
-2.667745 4.763230 -1.454674
-2.837984 5.075311 -1.401180
-3.060821 5.485834 -1.356604
-3.336689 5.993793 -1.311781
-3.627437 6.458972 -1.234299
-3.959417 7.061638 -1.153027
-4.740644 8.480608 -1.147636
-5.356798 9.603079 -1.037062
-6.140655 11.026628 -0.891725
-7.374629 13.272381 -0.715202
-8.903051 16.055973 -0.431309
-8.779099 15.837638 -0.003124
-9.042193 16.328575 0.432191
-12.565103 22.745861 1.212873
-8.906376 16.101841 1.289475
-8.982661 16.254019 1.737316
-8.902362 16.121212 2.160312
-8.719581 15.794806 2.544301
-2.626742 4.696149 0.894279
-2.596327 4.644588 1.014790
-0.278914 0.416400 -0.349546
-0.290881 0.438759 -0.345611
-0.318196 0.489042 -0.357682
-0.348389 0.544911 -0.369834
-0.443786 0.720600 -0.443503
-1.867199 3.335489 -1.742798
-1.972107 3.531173 -1.727967
-2.094539 3.759438 -1.716787
0.000632 -0.095391 -0.003722
-2.202341 3.962801 -1.563818
-2.336053 4.212691 -1.532848
-2.501882 4.520324 -1.509077
-2.650789 4.799038 -1.460745
-2.816490 5.107069 -1.405325
-3.034214 5.513793 -1.359093
-3.312809 6.033775 -1.316216
-3.607608 6.512769 -1.240452
-3.936183 7.117472 -1.158306
-4.706418 8.535785 -1.151338
-5.317063 9.663600 -1.040212
-6.100362 11.105705 -0.895204
-7.313772 13.344566 -0.716776
-8.905431 16.282738 -0.435934
-8.769352 16.039152 -0.003109
-9.221341 16.884743 0.445542
-12.542949 23.019869 1.223606
-8.791080 16.112621 1.286273
-11.713158 21.517546 2.290603
-8.829640 16.210737 2.165433
0.000632 -0.095391 -0.003722
-2.602862 4.718245 0.895581
-2.569921 4.661291 1.015166
-0.275142 0.416591 -0.348522
-0.285343 0.435947 -0.342666
-0.311475 0.484748 -0.353923
-0.346393 0.550169 -0.371624
-0.444233 0.732823 -0.448631
-1.847407 3.346288 -1.742794
-1.952932 3.545826 -1.729503
-2.070540 3.768254 -1.715327
0.000635 -0.095290 -0.003719
-2.208458 4.030649 -1.584938
-2.309407 4.222810 -1.531651
-2.479781 4.543225 -1.511829
-2.627133 4.822868 -1.463271
-2.800253 5.149064 -1.412234
-3.012002 5.550268 -1.363660
-3.265428 6.030300 -1.311398
-3.576989 6.547444 -1.243039
-4.189378 7.687704 -1.245680
-4.669812 8.587345 -1.154577
-5.274940 9.720478 -1.042989
-6.052759 11.172389 -0.897706
-7.258000 13.427045 -0.718909
-8.915869 16.529428 -0.441071
-8.767031 16.258703 -0.003093
-9.146080 16.979965 0.446668
-10.371449 19.283672 1.022046
-10.686285 19.880230 1.581216
0.000635 -0.095290 -0.003719
0.000635 -0.095290 -0.003719
-8.582657 15.981740 2.558240
-2.578830 4.740237 0.896885
-2.546180 4.683052 1.016652
-0.272199 0.418283 -0.348517
-0.279823 0.433065 -0.339723
-0.302345 0.475732 -0.347346
-0.341826 0.550674 -0.370723
-0.437749 0.732267 -0.446916
-1.825255 3.354070 -1.741161
-1.931948 3.557128 -1.729497
-2.048267 3.780225 -1.715322
-2.185188 4.042688 -1.706816
-2.205889 4.083614 -1.600297
-2.280051 4.227704 -1.528667
-2.452232 4.557973 -1.511823
-2.608698 4.856859 -1.468836
-2.774519 5.176019 -1.414996
-2.994859 5.599316 -1.371137
-3.233604 6.058376 -1.313243
-3.546087 6.581984 -1.245626
-4.153329 7.731757 -1.248736
-4.631851 8.637012 -1.157585
-5.235102 9.782457 -1.046326
-6.011954 11.257580 -0.901602
-7.198707 13.504031 -0.720762
-8.917233 16.764414 -0.445882
-8.760497 16.482050 -0.003077
-9.094302 17.120848 0.449002
-10.314696 19.447411 1.027556
-10.577849 19.962807 1.582763
-11.388208 21.517555 2.276315
0.000641 -0.095187 -0.003715
-10.283012 19.444847 3.100322
-2.551000 4.757294 0.897214
-2.513160 4.687323 1.014437
-0.266762 0.415433 -0.345452
-0.278294 0.437907 -0.341679
-0.303052 0.485454 -0.352035
-0.338009 0.552815 -0.370717
-0.437030 0.742984 -0.451189
-1.801154 3.356547 -1.737088
-1.906823 3.562079 -1.726410
-2.026102 3.794073 -1.716043
-2.167418 4.066989 -1.711597
-2.207315 4.147165 -1.619496
-2.257027 4.246358 -1.530447
-2.428066 4.577249 -1.513470
-2.583736 4.880943 -1.471362
-2.748617 5.200660 -1.417294
-2.962921 5.618311 -1.371547
-3.211688 6.103179 -1.318790
-3.517411 6.624000 -1.249509
0.000620 -0.095067 -0.003709
-4.596519 8.696125 -1.161753
-5.192101 9.843466 -1.049475
-5.965887 11.329258 -0.904523
0.000620 -0.095067 -0.003709
-8.920605 17.015711 -0.451062
-8.814667 16.819666 -0.003055
-9.048333 17.282784 0.451847
0.000620 -0.095067 -0.003709
