# This PCD file was generated using the MATLAB® pcwrite function
# from Computer Vision Toolbox®.
# .PCD v.7 - Point Cloud Data file format
VERSION .7
FIELDS x y z
SIZE 4 4 4
TYPE F F F
COUNT 1 1 1
WIDTH 1628
HEIGHT 1
VIEWPOINT 0 0 0 1 0 0 0
POINTS 1628
DATA ascii
0.352985 -0.581232 -0.345193
0.369756 -0.607443 -0.341654
0.411148 -0.671637 -0.358357
0.476114 -0.771970 -0.390392
2.524238 -3.930293 -1.938886
2.715008 -4.227645 -1.950683
2.942506 -4.580428 -1.971143
3.203841 -4.987624 -1.993585
3.496128 -5.443302 -2.010118
3.833735 -5.967535 -2.026158
4.225720 -6.578792 -2.040084
4.694822 -7.307667 -2.052094
5.303430 -8.256328 -2.080723
5.457355 -8.501359 -1.899107
7.292700 -11.244219 -2.198616
8.840442 -13.627688 -2.280619
11.225773 -17.307610 -2.407492
0.000642 -0.039444 -0.001508
13.971810 -21.556833 -1.796847
34.350788 -52.983746 -2.947957
0.000642 -0.039444 -0.001508
43.763145 -67.569176 -0.005729
43.683121 -67.497604 1.860144
0.000642 -0.039444 -0.001508
43.741577 -67.666100 5.626118
0.000642 -0.039444 -0.001508
43.794277 -67.852013 9.434278
0.000642 -0.039444 -0.001508
43.892242 -68.082504 13.297194
0.000642 -0.039444 -0.001508
0.312279 -0.524054 -0.343295
0.318224 -0.533688 -0.331685
0.347012 -0.578701 -0.342374
0.370340 -0.615471 -0.345240
0.411408 -0.679977 -0.361777
0.469788 -0.771595 -0.388761
2.501780 -3.944637 -1.938883
2.691849 -4.244660 -1.951408
2.917534 -4.600851 -1.972510
3.175299 -5.005874 -1.993584
3.468024 -5.468041 -2.011902
3.796440 -5.986826 -2.025055
4.185919 -6.599639 -2.039070
4.651644 -7.335294 -2.052096
5.255655 -8.289190 -2.081140
5.443991 -8.591496 -1.912071
7.225924 -11.282576 -2.197967
8.759683 -13.679775 -2.280622
11.130468 -17.378527 -2.408425
0.000622 -0.039325 -0.001502
0.000622 -0.039325 -0.001502
44.596169 -69.649391 -3.861115
42.953453 -67.137123 -1.855382
0.000622 -0.039325 -0.001502
0.000622 -0.039325 -0.001502
0.000622 -0.039325 -0.001502
0.000622 -0.039325 -0.001502
0.000622 -0.039325 -0.001502
0.000622 -0.039325 -0.001502
0.000622 -0.039325 -0.001502
0.000622 -0.039325 -0.001502
0.000622 -0.039325 -0.001502
0.313095 -0.531607 -0.347374
0.320900 -0.544304 -0.337561
0.340967 -0.576162 -0.339553
0.365002 -0.614530 -0.343442
0.405662 -0.679239 -0.360061
0.459704 -0.764914 -0.383877
2.483516 -3.967110 -1.942737
2.663871 -4.255717 -1.949223
2.888223 -4.612703 -1.970456
3.153857 -5.037320 -1.998704
3.433727 -5.485178 -2.010710
3.765219 -6.013357 -2.026708
4.151047 -6.630785 -2.041095
4.608522 -7.360193 -2.051634
5.212218 -8.325809 -2.082802
5.445913 -8.704128 -1.930221
7.162278 -11.330132 -2.198942
8.680997 -13.729862 -2.280623
11.023150 -17.437408 -2.407500
13.977326 -22.117489 -2.440745
28.029112 -44.331673 -3.669572
44.636257 -70.630226 -3.900786
0.000626 -0.039224 -0.001499
0.000626 -0.039224 -0.001499
0.000626 -0.039224 -0.001499
0.000626 -0.039224 -0.001499
0.000626 -0.039224 -0.001499
0.000626 -0.039224 -0.001499
0.000626 -0.039224 -0.001499
0.000626 -0.039224 -0.001499
0.000626 -0.039224 -0.001499
0.000626 -0.039224 -0.001499
0.310252 -0.533292 -0.347370
0.312421 -0.537155 -0.331678
0.341617 -0.583996 -0.343305
0.361682 -0.616509 -0.343438
0.400050 -0.678384 -0.358346
0.452615 -0.762793 -0.381432
2.462798 -3.984350 -1.944276
2.643489 -4.277195 -1.952131
2.859850 -4.625951 -1.969086
3.120012 -5.047239 -1.995500
3.404325 -5.507984 -2.011899
3.727708 -6.029924 -2.025053
4.112009 -6.652826 -2.040588
4.570402 -7.393102 -2.053478
5.164440 -8.355578 -2.082803
5.446692 -8.817046 -1.948370
6.315743 -10.123289 -1.956980
8.598884 -13.774467 -2.279791
10.922811 -17.500471 -2.407504
19.525040 -31.277304 -3.440285
28.026312 -44.896591 -3.702958
44.637497 -71.540062 -3.936819
0.000630 -0.039123 -0.001495
0.000630 -0.039123 -0.001495
0.000630 -0.039123 -0.001495
0.000630 -0.039123 -0.001495
0.000630 -0.039123 -0.001495
0.000630 -0.039123 -0.001495
0.000630 -0.039123 -0.001495
0.000630 -0.039123 -0.001495
0.000630 -0.039123 -0.001495
0.000630 -0.039123 -0.001495
0.300139 -0.523234 -0.339202
0.312308 -0.543293 -0.334614
0.336619 -0.582841 -0.341423
0.361161 -0.623025 -0.346126
0.395428 -0.679040 -0.357487
0.445572 -0.760617 -0.378989
2.447793 -4.010930 -1.950442
2.620997 -4.295403 -1.953584
2.837321 -4.648620 -1.971819
3.091143 -5.065020 -1.995499
3.371792 -5.525759 -2.011302
3.697182 -6.057726 -2.027257
4.076899 -6.681221 -2.042107
4.533069 -7.427468 -2.055783
5.118501 -8.388380 -2.083633
5.457677 -8.948726 -1.970596
6.265897 -10.172808 -1.959577
8.519680 -13.823641 -2.279794
10.829412 -17.574787 -2.409133
0.000636 -0.039020 -0.001491
0.000636 -0.039020 -0.001491
44.631836 -72.455650 -3.973041
0.000636 -0.039020 -0.001491
0.000636 -0.039020 -0.001491
32.901398 -53.527550 1.453072
0.000636 -0.039020 -0.001491
0.000636 -0.039020 -0.001491
0.000636 -0.039020 -0.001491
0.000636 -0.039020 -0.001491
0.000636 -0.039020 -0.001491
0.000636 -0.039020 -0.001491
0.000636 -0.039020 -0.001491
0.300037 -0.529253 -0.342259
0.310286 -0.546444 -0.335588
0.333475 -0.584654 -0.341419
0.356849 -0.623452 -0.345224
0.388916 -0.676565 -0.354917
0.434744 -0.752123 -0.373289
0.482037 -0.830426 -0.388503
2.594512 -4.307127 -1.952127
2.808799 -4.661569 -1.970450
3.061157 -5.080991 -1.994857
3.344119 -5.551508 -2.013685
3.662457 -6.078796 -2.027255
4.043609 -6.712753 -2.044640
4.490461 -7.453338 -2.055783
5.055170 -8.392509 -2.077396
5.463223 -9.074062 -1.991338
6.204360 -10.203545 -1.958604
8.438105 -13.868961 -2.279239
10.728285 -17.636736 -2.409138
19.014894 -31.254915 -3.413538
28.169964 -46.303303 -3.792073
33.039059 -54.343075 -2.969240
0.000618 -0.038897 -0.001486
0.000618 -0.038897 -0.001486
0.000618 -0.038897 -0.001486
0.000618 -0.038897 -0.001486
0.000618 -0.038897 -0.001486
0.000618 -0.038897 -0.001486
0.000618 -0.038897 -0.001486
0.000618 -0.038897 -0.001486
0.000618 -0.038897 -0.001486
0.000618 -0.038897 -0.001486
0.294547 -0.526444 -0.339195
0.309165 -0.551106 -0.337545
0.327592 -0.581916 -0.338598
0.354409 -0.626927 -0.346118
0.387091 -0.681772 -0.356623
0.433348 -0.759294 -0.375727
0.479368 -0.836244 -0.390041
2.571824 -4.325091 -1.953581
2.781323 -4.678034 -1.970448
3.031108 -5.096797 -1.994215
3.310351 -5.567274 -2.012491
3.626578 -6.100311 -2.027255
4.002131 -6.730823 -2.043118
4.446397 -7.479730 -2.055782
5.009543 -8.428955 -2.079059
5.459870 -9.190590 -2.009859
6.143693 -10.235600 -1.957956
8.361023 -13.927140 -2.280634
10.641118 -17.721914 -2.412390
18.307459 -30.486567 -3.318001
0.000622 -0.038796 -0.001482
32.685749 -54.465458 -2.965622
0.000622 -0.038796 -0.001482
0.000622 -0.038796 -0.001482
0.000622 -0.038796 -0.001482
0.000622 -0.038796 -0.001482
0.000622 -0.038796 -0.001482
0.000622 -0.038796 -0.001482
0.000622 -0.038796 -0.001482
0.000622 -0.038796 -0.001482
0.000622 -0.038796 -0.001482
0.000622 -0.038796 -0.001482
0.294287 -0.532510 -0.342252
0.303448 -0.548323 -0.334602
0.324362 -0.583738 -0.338594
0.347265 -0.622761 -0.342525
0.382344 -0.682389 -0.355764
0.426377 -0.756935 -0.373281
0.488732 -0.862776 -0.401601
2.544443 -4.336943 -1.952123
2.755525 -4.695477 -1.971130
2.999121 -5.111314 -1.992932
3.279444 -5.589990 -2.013682
3.592598 -6.122639 -2.027806
3.964335 -6.757671 -2.044131
4.407430 -7.511793 -2.057626
4.960155 -8.455854 -2.078643
0.000625 -0.038696 -0.001479
6.072015 -10.253098 -1.954389
8.280931 -13.974940 -2.280637
9.789660 -16.527411 -2.241595
18.541039 -31.293274 -3.393856
11.947162 -20.185734 -1.640654
32.142380 -54.287014 -2.945497
0.000625 -0.038696 -0.001479
0.000625 -0.038696 -0.001479
0.000625 -0.038696 -0.001479
0.000625 -0.038696 -0.001479
0.000625 -0.038696 -0.001479
0.000625 -0.038696 -0.001479
43.101135 -73.134094 9.917034
0.000625 -0.038696 -0.001479
0.000625 -0.038696 -0.001479
0.000625 -0.038696 -0.001479
0.294056 -0.538541 -0.345309
0.298752 -0.546952 -0.332639
0.319437 -0.582446 -0.336713
0.346598 -0.629261 -0.345213
0.377714 -0.682910 -0.354904
0.421202 -0.757779 -0.372465
0.481179 -0.860680 -0.399284
2.521541 -4.354638 -1.953577
2.727840 -4.711618 -1.971128
2.967957 -5.125115 -1.991650
3.246458 -5.607014 -2.013084
3.554502 -6.140400 -2.026701
3.925589 -6.780274 -2.044130
4.364008 -7.539384 -2.058087
4.913089 -8.490092 -2.079890
5.457156 -9.433716 -2.049124
6.004131 -10.272466 -1.951471
8.189094 -14.008316 -2.278133
0.000631 -0.038592 -0.001475
0.000631 -0.038592 -0.001475
11.791196 -20.194151 -1.635634
0.000631 -0.038592 -0.001475
0.000631 -0.038592 -0.001475
0.000631 -0.038592 -0.001475
0.000631 -0.038592 -0.001475
0.000631 -0.038592 -0.001475
0.000631 -0.038592 -0.001475
0.000631 -0.038592 -0.001475
0.000631 -0.038592 -0.001475
0.000631 -0.038592 -0.001475
0.000631 -0.038592 -0.001475
0.000631 -0.038592 -0.001475
0.280739 -0.522302 -0.333062
0.296603 -0.550112 -0.333615
0.318846 -0.588794 -0.339525
0.342196 -0.629653 -0.344312
0.374008 -0.684974 -0.354901
0.418863 -0.763236 -0.374087
0.478140 -0.866613 -0.400823
2.502218 -4.378647 -1.957940
2.699013 -4.723878 -1.969758
2.938628 -5.142011 -1.991649
3.214354 -5.625512 -2.013083
3.521230 -6.163986 -2.027802
3.888631 -6.806003 -2.045142
4.322690 -7.567647 -2.059009
4.866798 -8.518972 -2.080306
5.462292 -9.564515 -2.070978
5.936401 -10.295831 -1.949202
8.109535 -14.056837 -2.278414
0.000611 -0.038472 -0.001470
0.000611 -0.038472 -0.001470
11.638047 -20.197649 -1.630472
17.021097 -29.546461 -1.591969
0.000611 -0.038472 -0.001470
0.000611 -0.038472 -0.001470
0.000611 -0.038472 -0.001470
0.000611 -0.038472 -0.001470
0.000611 -0.038472 -0.001470
0.000611 -0.038472 -0.001470
0.000611 -0.038472 -0.001470
43.246304 -75.409904 12.206080
0.000611 -0.038472 -0.001470
0.000611 -0.038472 -0.001470
0.280592 -0.528230 -0.336119
0.294592 -0.553153 -0.334590
0.318398 -0.595064 -0.342339
0.337122 -0.628342 -0.342514
0.368488 -0.683863 -0.353186
0.412113 -0.760702 -0.371644
0.472578 -0.867540 -0.400047
2.473519 -4.386405 -1.955028
2.673738 -4.740392 -1.970439
2.908265 -5.157091 -1.991007
3.185891 -5.650441 -2.015464
3.487922 -6.185109 -2.028352
3.848655 -6.826487 -2.044635
4.282516 -7.594947 -2.059931
4.820774 -8.551840 -2.081553
5.465433 -9.698343 -2.093204
5.868258 -10.309834 -1.945633
8.033110 -14.105223 -2.278973
10.253577 -18.008457 -2.418441
11.877903 -20.872339 -2.240215
11.487790 -20.196325 -1.625171
17.082472 -30.038481 -1.613339
0.000615 -0.038372 -0.001466
0.000615 -0.038372 -0.001466
42.825459 -75.403694 2.006150
0.000615 -0.038372 -0.001466
0.000615 -0.038372 -0.001466
0.000615 -0.038372 -0.001466
0.000615 -0.038372 -0.001466
43.287521 -76.466904 12.337934
0.000615 -0.038372 -0.001466
0.000615 -0.038372 -0.001466
0.281144 -0.535720 -0.340196
0.288209 -0.548667 -0.330668
0.314305 -0.595227 -0.341395
0.331960 -0.627043 -0.340714
0.363866 -0.684278 -0.352325
0.407808 -0.763015 -0.371640
0.465092 -0.865315 -0.397731
2.449356 -4.402089 -1.955754
2.648570 -4.760991 -1.972491
2.874104 -5.165370 -1.987803
3.145141 -5.653600 -2.010101
3.453271 -6.208930 -2.029453
3.812349 -6.853496 -2.046154
4.239503 -7.623494 -2.060852
4.773069 -8.585313 -2.082802
5.470270 -9.842038 -2.117280
5.800314 -10.327874 -1.942715
7.949524 -14.152512 -2.278975
10.151906 -18.070543 -2.418909
11.859278 -21.120758 -2.259552
11.335760 -20.206606 -1.620568
12.213552 -21.777416 -1.165695
0.000619 -0.038271 -0.001463
0.000619 -0.038271 -0.001463
42.848492 -76.465126 2.027792
0.000619 -0.038271 -0.001463
0.000619 -0.038271 -0.001463
43.125401 -77.149330 8.236176
43.178543 -77.276360 10.341360
0.000619 -0.038271 -0.001463
0.000619 -0.038271 -0.001463
0.000619 -0.038271 -0.001463
0.266491 -0.516233 -0.325909
0.288547 -0.556337 -0.334582
0.311009 -0.596984 -0.341392
0.328465 -0.628898 -0.340711
0.360025 -0.686314 -0.352322
0.400968 -0.760447 -0.369195
0.455719 -0.859891 -0.393873
2.424328 -4.418056 -1.956479
2.619512 -4.772760 -1.971120
2.841815 -5.178905 -1.986521
3.106233 -5.662015 -2.006524
3.413984 -6.221879 -2.027247
3.775590 -6.882652 -2.048179
4.196699 -7.649367 -2.061312
4.727559 -8.619397 -2.084465
5.424168 -9.892204 -2.121356
5.725753 -10.337838 -1.938174
7.871019 -14.203121 -2.279812
10.050550 -18.140751 -2.420305
11.767833 -21.251575 -2.266064
11.181740 -20.203377 -1.615128
12.245109 -22.139463 -1.181185
0.000625 -0.038168 -0.001459
0.000625 -0.038168 -0.001459
42.829762 -77.505257 2.048600
0.000625 -0.038168 -0.001459
0.000625 -0.038168 -0.001459
0.000625 -0.038168 -0.001459
43.206821 -78.414742 10.459282
43.340416 -78.689911 12.614160
0.000625 -0.038168 -0.001459
0.000625 -0.038168 -0.001459
0.264544 -0.519144 -0.326924
0.285572 -0.557894 -0.334579
0.307785 -0.598653 -0.341389
0.324186 -0.629091 -0.339809
0.355433 -0.686693 -0.351463
0.395049 -0.759429 -0.367564
0.447437 -0.855909 -0.390785
2.400853 -4.435099 -1.957932
2.594004 -4.790944 -1.972486
2.811258 -5.193402 -1.985878
3.071069 -5.674667 -2.004735
3.379247 -6.243010 -2.027797
3.739808 -6.910953 -2.050204
4.157471 -7.681849 -2.063618
4.678992 -8.648065 -2.084879
5.363603 -9.916254 -2.119874
5.656860 -10.353209 -1.934930
7.793153 -14.255047 -2.280928
9.966200 -18.234787 -2.425182
11.615881 -21.264713 -2.260307
11.028115 -20.199038 -1.609687
12.250831 -22.453152 -1.194156
0.000605 -0.038048 -0.001453
0.000605 -0.038048 -0.001453
42.826309 -78.563156 2.070013
0.000605 -0.038048 -0.001453
0.000605 -0.038048 -0.001453
0.000605 -0.038048 -0.001453
0.000605 -0.038048 -0.001453
43.356979 -79.802826 12.752414
0.000605 -0.038048 -0.001453
0.000605 -0.038048 -0.001453
0.263408 -0.523576 -0.328961
0.283394 -0.560946 -0.335554
0.301182 -0.594083 -0.337628
0.321634 -0.632414 -0.340703
0.351686 -0.688614 -0.351459
0.388161 -0.756822 -0.365120
0.441841 -0.856734 -0.390011
2.378140 -4.453654 -1.960112
2.564869 -4.804481 -1.971800
2.782411 -5.211048 -1.986516
3.036759 -5.688780 -2.003541
3.346908 -6.271286 -2.030551
3.699256 -6.930549 -2.049695
4.112036 -7.706250 -2.063616
4.632459 -8.684179 -2.086959
5.303977 -9.946048 -2.119504
5.596450 -10.383764 -1.934607
7.709611 -14.302642 -2.281208
9.859377 -18.288248 -2.424721
11.437682 -21.227736 -2.249343
10.878033 -20.207796 -1.605224
12.259054 -22.778208 -1.207688
0.000608 -0.037947 -0.001450
0.000608 -0.037947 -0.001450
0.000608 -0.037947 -0.001450
0.000608 -0.037947 -0.001450
0.000608 -0.037947 -0.001450
0.000608 -0.037947 -0.001450
0.000608 -0.037947 -0.001450
0.000608 -0.037947 -0.001450
0.000608 -0.037947 -0.001450
0.000608 -0.037947 -0.001450
0.252427 -0.509845 -0.318755
0.278654 -0.559436 -0.333592
0.302042 -0.603552 -0.342320
0.318108 -0.634210 -0.340700
0.347822 -0.690582 -0.351455
0.387321 -0.765460 -0.368371
0.432652 -0.851085 -0.386152
2.352773 -4.469215 -1.960837
2.538318 -4.822826 -1.973167
2.745474 -5.215645 -1.982032
3.003175 -5.706577 -2.003539
3.308079 -6.287529 -2.029448
3.658310 -6.952266 -2.049695
4.069222 -7.735572 -2.065000
4.581085 -8.711391 -2.086958
5.244180 -9.975473 -2.119132
5.531276 -10.409707 -1.933310
0.000614 -0.037844 -0.001446
9.736961 -18.320015 -2.421244
10.917039 -20.553232 -2.170898
10.721663 -20.203142 -1.599782
12.258010 -23.102680 -1.221032
0.000614 -0.037844 -0.001446
0.000614 -0.037844 -0.001446
0.000614 -0.037844 -0.001446
0.000614 -0.037844 -0.001446
0.000614 -0.037844 -0.001446
0.000614 -0.037844 -0.001446
0.000614 -0.037844 -0.001446
0.000614 -0.037844 -0.001446
0.000614 -0.037844 -0.001446
0.000614 -0.037844 -0.001446
0.246584 -0.505052 -0.314670
0.274108 -0.557785 -0.331628
0.298867 -0.605113 -0.342316
0.313933 -0.634277 -0.339798
0.342486 -0.689198 -0.349740
0.381550 -0.764262 -0.366739
0.421245 -0.840300 -0.379981
2.326277 -4.478878 -1.959380
2.513292 -4.840132 -1.974532
2.719162 -5.235820 -1.983951
2.968837 -5.718076 -2.001750
3.270479 -6.300684 -2.027793
3.621444 -6.975905 -2.050706
4.028879 -7.763229 -2.066382
4.533506 -8.738467 -2.087374
5.185901 -9.999254 -2.118021
5.493486 -10.478727 -1.940445
6.632581 -12.654692 -2.005534
9.632891 -18.370455 -2.420783
11.082778 -21.147968 -2.227229
10.578351 -20.204275 -1.595178
12.199572 -23.305119 -1.228127
0.000618 -0.037743 -0.001443
0.000618 -0.037743 -0.001443
0.000618 -0.037743 -0.001443
0.000618 -0.037743 -0.001443
0.000618 -0.037743 -0.001443
43.255112 -82.927078 8.715800
0.000618 -0.037743 -0.001443
0.000618 -0.037743 -0.001443
0.000618 -0.037743 -0.001443
0.000618 -0.037743 -0.001443
0.247773 -0.514034 -0.319768
0.270220 -0.557751 -0.330645
0.291441 -0.598933 -0.337617
0.308730 -0.632835 -0.337998
0.338623 -0.691117 -0.349737
0.375681 -0.763087 -0.365108
0.416464 -0.842665 -0.379976
2.299881 -4.492480 -1.959377
2.485618 -4.854427 -1.974531
2.687399 -5.250053 -1.983308
2.931596 -5.728689 -1.999365
3.240520 -6.331259 -2.031650
3.581100 -6.998868 -2.051211
3.982553 -7.782723 -2.065459
4.482453 -8.762577 -2.086958
5.134762 -10.041090 -2.120615
5.479613 -10.603880 -1.957636
7.477613 -14.463238 -2.285948
9.523062 -18.425392 -2.420554
10.763361 -20.838280 -2.187822
10.563804 -20.461432 -1.610680
12.032895 -23.321928 -1.225240
0.000598 -0.037623 -0.001437
0.000598 -0.037623 -0.001437
0.000598 -0.037623 -0.001437
0.000598 -0.037623 -0.001437
0.000598 -0.037623 -0.001437
0.000598 -0.037623 -0.001437
0.000598 -0.037623 -0.001437
0.000598 -0.037623 -0.001437
0.000598 -0.037623 -0.001437
0.000598 -0.037623 -0.001437
0.239541 -0.504624 -0.312622
0.271176 -0.566939 -0.335539
0.288194 -0.600484 -0.337613
0.313441 -0.650426 -0.346971
0.336494 -0.696163 -0.351444
0.367347 -0.756992 -0.361037
0.411828 -0.844947 -0.379973
2.281792 -4.520475 -1.965922
2.459549 -4.871895 -1.975897
2.659062 -5.268706 -1.984587
2.893584 -5.735142 -1.995787
3.194655 -6.330837 -2.025583
3.539210 -7.015802 -2.050196
3.941422 -7.812362 -2.067303
4.438310 -8.800329 -2.089867
5.069978 -10.056338 -2.117651
5.477087 -10.749362 -1.978720
7.394432 -14.505932 -2.285949
9.417044 -18.479805 -2.420557
10.619013 -20.851908 -2.182808
10.570224 -20.765306 -1.629814
11.866920 -23.328415 -1.221981
0.000604 -0.037520 -0.001434
0.000604 -0.037520 -0.001434
0.000604 -0.037520 -0.001434
0.000604 -0.037520 -0.001434
33.414959 -65.850952 5.155460
32.613422 -64.328110 6.719840
0.000604 -0.037520 -0.001434
0.000604 -0.037520 -0.001434
0.000604 -0.037520 -0.001434
0.000604 -0.037520 -0.001434
0.232186 -0.496656 -0.306495
0.265776 -0.563719 -0.332596
0.286537 -0.605181 -0.339487
0.303472 -0.639330 -0.339786
0.331068 -0.694745 -0.349728
0.366353 -0.765577 -0.364287
0.406342 -0.845541 -0.379198
2.255956 -4.533442 -1.965921
2.429982 -4.884609 -1.975210
2.627217 -5.280445 -1.983305
2.866720 -5.763550 -1.999957
3.150377 -6.335803 -2.021169
3.503320 -7.044622 -2.052729
3.897829 -7.840705 -2.068685
4.386257 -8.826393 -2.089867
5.013974 -10.093168 -2.119133
5.469509 -10.888106 -1.998506
6.507666 -12.959183 -2.035610
9.305346 -18.522949 -2.419167
9.781455 -19.485800 -2.033717
10.565328 -21.062849 -1.648250
11.703927 -23.339098 -1.218999
0.000608 -0.037419 -0.001430
0.000608 -0.037419 -0.001430
0.000608 -0.037419 -0.001430
0.000608 -0.037419 -0.001430
0.000608 -0.037419 -0.001430
32.168289 -64.393837 6.706637
31.497389 -63.079407 8.235478
0.000608 -0.037419 -0.001430
0.000608 -0.037419 -0.001430
0.000608 -0.037419 -0.001430
0.226395 -0.491752 -0.302410
0.263426 -0.566740 -0.333572
0.282382 -0.605179 -0.338544
0.296711 -0.634601 -0.336192
0.327275 -0.696529 -0.349724
0.363777 -0.770840 -0.365911
0.397459 -0.839567 -0.375341
2.231681 -4.549582 -1.967374
2.401192 -4.896712 -1.974523
2.596977 -5.295364 -1.983302
2.837074 -5.786691 -2.002338
3.108972 -6.343384 -2.017860
3.462919 -7.064566 -2.052728
3.853710 -7.864663 -2.069146
4.340574 -8.857648 -2.091529
4.957757 -10.120890 -2.119132
5.478789 -11.068730 -2.025753
7.228323 -14.598242 -2.287065
8.982824 -18.148813 -2.363240
9.321100 -18.847477 -1.961218
9.449698 -19.115461 -1.491446
11.527416 -23.331017 -1.214993
23.587877 -47.724308 -1.239804
0.000611 -0.037319 -0.001426
0.000611 -0.037319 -0.001426
0.000611 -0.037319 -0.001426
0.000611 -0.037319 -0.001426
31.201942 -63.341618 6.578697
0.000611 -0.037319 -0.001426
0.000611 -0.037319 -0.001426
0.000611 -0.037319 -0.001426
0.000611 -0.037319 -0.001426
0.214769 -0.474364 -0.290163
0.260463 -0.568089 -0.333568
0.277648 -0.603462 -0.336662
0.294151 -0.637740 -0.337085
0.328241 -0.708047 -0.354856
0.354746 -0.762970 -0.361026
0.393777 -0.843316 -0.376107
2.210547 -4.572279 -1.971736
2.378120 -4.920496 -1.978627
2.566671 -5.310123 -1.983301
2.803939 -5.802830 -2.002337
3.069255 -6.354156 -2.015653
3.422398 -7.084270 -2.052726
3.809418 -7.888350 -2.069605
4.289882 -8.886653 -2.092360
4.907271 -10.169462 -2.123206
5.495215 -11.258543 -2.054944
6.350621 -13.017025 -2.033106
0.000594 -0.037196 -0.001421
8.977301 -18.410656 -1.910468
9.022880 -18.520384 -1.440900
10.630651 -21.823830 -1.133371
0.000594 -0.037196 -0.001421
0.000594 -0.037196 -0.001421
0.000594 -0.037196 -0.001421
0.000594 -0.037196 -0.001421
0.000594 -0.037196 -0.001421
0.000594 -0.037196 -0.001421
0.000594 -0.037196 -0.001421
0.000594 -0.037196 -0.001421
0.000594 -0.037196 -0.001421
0.000594 -0.037196 -0.001421
0.213664 -0.478614 -0.292199
0.255781 -0.566365 -0.331604
0.276582 -0.609762 -0.339475
0.291380 -0.640992 -0.337980
0.322677 -0.706604 -0.353140
0.351338 -0.766525 -0.361835
0.385791 -0.838876 -0.373020
0.472191 -1.019611 -0.427058
2.350772 -4.935682 -1.979308
2.536165 -5.326853 -1.983939
2.766371 -5.812346 -1.999950
3.032833 -6.371606 -2.015651
3.382201 -7.107827 -2.053738
3.764151 -7.910037 -2.069603
4.242250 -8.918165 -2.094024
4.851388 -10.202752 -2.124316
0.000598 -0.037095 -0.001417
6.290406 -13.083588 -2.037840
8.620257 -17.932259 -2.321936
8.657470 -18.025652 -1.865111
8.733848 -18.192560 -1.411441
11.200470 -23.341328 -1.208752
0.000598 -0.037095 -0.001417
0.000598 -0.037095 -0.001417
0.000598 -0.037095 -0.001417
0.000598 -0.037095 -0.001417
30.683050 -64.110405 4.961903
0.000598 -0.037095 -0.001417
0.000598 -0.037095 -0.001417
30.758089 -64.412193 10.021108
0.000598 -0.037095 -0.001417
0.000598 -0.037095 -0.001417
0.204466 -0.465747 -0.283013
0.254970 -0.572439 -0.334539
0.273281 -0.611235 -0.339472
0.291726 -0.650625 -0.342464
0.320353 -0.711599 -0.354847
0.349358 -0.773445 -0.364272
0.385100 -0.849304 -0.376870
0.458565 -1.005366 -0.419779
2.323272 -4.952824 -1.980673
2.505648 -5.341241 -1.983936
2.737149 -5.836699 -2.002927
2.992756 -6.384166 -2.013995
3.343074 -7.130560 -2.054749
3.720709 -7.939167 -2.071448
4.188651 -8.941283 -2.093606
4.799370 -10.249031 -2.128021
0.000601 -0.036995 -0.001414
6.204413 -13.102667 -2.035056
8.517076 -17.981472 -2.321937
8.569105 -18.107462 -1.868459
9.738986 -20.593281 -1.593387
11.035323 -23.340298 -1.205396
0.000601 -0.036995 -0.001414
0.000601 -0.036995 -0.001414
0.000601 -0.036995 -0.001414
31.496801 -66.763046 3.435014
0.000601 -0.036995 -0.001414
0.000601 -0.036995 -0.001414
0.000601 -0.036995 -0.001414
0.000601 -0.036995 -0.001414
0.000601 -0.036995 -0.001414
0.000601 -0.036995 -0.001414
0.199750 -0.462187 -0.279950
0.251801 -0.573848 -0.334537
0.270625 -0.614344 -0.340407
0.282782 -0.640897 -0.336177
0.308049 -0.695310 -0.345429
0.348193 -0.781950 -0.367522
0.376393 -0.843115 -0.373012
0.453766 -1.009566 -0.420503
2.295729 -4.967717 -1.981356
2.474269 -5.353752 -1.983293
2.700502 -5.845333 -2.000542
2.955353 -6.399439 -2.013442
3.298932 -7.142569 -2.052721
3.676777 -7.963866 -2.072368
4.142177 -8.971525 -2.095270
4.745576 -10.282680 -2.129501
5.487381 -11.760843 -2.128899
6.115679 -13.109373 -2.030602
8.438242 -18.090952 -2.329598
9.668218 -20.741674 -2.134678
0.000607 -0.036891 -0.001410
10.871577 -23.350918 -1.202602
0.000607 -0.036891 -0.001410
0.000607 -0.036891 -0.001410
0.000607 -0.036891 -0.001410
0.000607 -0.036891 -0.001410
0.000607 -0.036891 -0.001410
0.000607 -0.036891 -0.001410
0.000607 -0.036891 -0.001410
29.022417 -62.650311 9.693324
0.000607 -0.036891 -0.001410
0.000607 -0.036891 -0.001410
0.186559 -0.439756 -0.264641
0.244403 -0.565620 -0.328653
0.268859 -0.618932 -0.342281
0.281633 -0.647214 -0.338865
0.306531 -0.701896 -0.347994
0.340838 -0.777190 -0.364264
0.371110 -0.843412 -0.372237
0.445822 -1.006970 -0.418316
2.269645 -4.985864 -1.983405
2.442045 -5.364361 -1.982010
2.672574 -5.872820 -2.004711
2.919461 -6.417975 -2.013991
3.260387 -7.166619 -2.054240
3.632709 -7.988346 -2.073290
4.085861 -8.988715 -2.093606
4.685537 -10.312332 -2.129871
5.486296 -11.930952 -2.154197
6.027050 -13.115471 -2.026147
8.265037 -17.980705 -2.309410
9.704833 -21.126282 -2.168703
0.000587 -0.036771 -0.001405
10.709574 -23.342161 -1.199061
0.000587 -0.036771 -0.001405
42.994408 -93.775330 -0.007759
0.000587 -0.036771 -0.001405
30.172379 -65.911339 3.373010
0.000587 -0.036771 -0.001405
28.781660 -62.991596 6.452355
27.969296 -61.243191 7.863883
0.000587 -0.036771 -0.001405
0.000587 -0.036771 -0.001405
0.000587 -0.036771 -0.001405
0.000591 -0.036671 -0.001401
0.243444 -0.571731 -0.331590
0.263228 -0.615597 -0.339461
0.276528 -0.645507 -0.337066
0.305568 -0.710186 -0.351414
0.333566 -0.772379 -0.361006
0.367070 -0.847164 -0.373004
0.435448 -0.999294 -0.413946
2.242671 -5.002170 -1.984772
2.411965 -5.382103 -1.983289
2.636343 -5.884984 -2.003517
2.881089 -6.431056 -2.012886
3.219613 -7.189240 -2.055251
3.588460 -8.012565 -2.074211
4.038250 -9.020887 -2.095683
4.631138 -10.349788 -2.132093
5.440133 -12.017095 -2.163929
5.943464 -13.131803 -2.023362
8.076407 -17.848368 -2.286203
9.678164 -21.401031 -2.191015
7.953953 -17.602884 -1.350987
10.598304 -23.465223 -1.202143
0.000591 -0.036671 -0.001401
43.009792 -95.251495 -0.007870
0.000591 -0.036671 -0.001401
30.232750 -67.090744 3.424164
0.000591 -0.036671 -0.001401
0.000591 -0.036671 -0.001401
27.472929 -61.112598 7.826021
27.541050 -61.292938 9.433432
0.000591 -0.036671 -0.001401
0.000591 -0.036671 -0.001401
0.000597 -0.036567 -0.001398
0.241774 -0.576195 -0.333545
0.256993 -0.610530 -0.335700
0.277399 -0.656781 -0.342448
0.297998 -0.703565 -0.347130
0.330815 -0.777517 -0.362630
0.359387 -0.842404 -0.369916
0.420813 -0.981252 -0.405211
2.214038 -5.014886 -1.984769
2.380372 -5.394054 -1.982646
2.601072 -5.896459 -2.002323
2.843464 -6.445684 -2.012334
3.178378 -7.207549 -2.055249
3.544850 -8.038324 -2.075593
3.984873 -9.040298 -2.094850
4.578835 -10.392347 -2.135426
5.371866 -12.049898 -2.164253
5.854232 -13.134947 -2.018627
8.031250 -18.023260 -2.302684
9.662897 -21.698162 -2.215743
7.825070 -17.586319 -1.346241
10.599015 -23.830523 -1.217727
0.000597 -0.036567 -0.001398
0.000597 -0.036567 -0.001398
0.000597 -0.036567 -0.001398
0.000597 -0.036567 -0.001398
0.000597 -0.036567 -0.001398
0.000597 -0.036567 -0.001398
26.956741 -60.899101 7.778643
27.149483 -61.363449 9.420059
0.000597 -0.036567 -0.001398
0.000597 -0.036567 -0.001398
0.000601 -0.036467 -0.001394
0.236546 -0.572669 -0.330601
0.254402 -0.613511 -0.336635
0.273097 -0.656616 -0.341546
0.291957 -0.700178 -0.344558
0.327872 -0.782696 -0.364253
0.354748 -0.844353 -0.369912
0.412375 -0.976722 -0.402297
2.185978 -5.031264 -1.986135
2.352524 -5.414501 -1.985205
2.568827 -5.914730 -2.003513
2.805381 -6.462315 -2.012331
3.128529 -7.206107 -2.049674
3.498880 -8.062665 -2.076514
3.935308 -9.072637 -2.096929
4.520464 -10.426422 -2.136907
5.307381 -12.091346 -2.166198
5.771646 -13.158448 -2.016956
7.918774 -18.049080 -2.300132
9.660528 -22.032267 -2.244189
7.697582 -17.579325 -1.342192
10.713782 -24.465517 -1.247022
0.000601 -0.036467 -0.001394
0.000601 -0.036467 -0.001394
0.000601 -0.036467 -0.001394
29.790758 -68.193878 3.462744
0.000601 -0.036467 -0.001394
0.000601 -0.036467 -0.001394
26.782198 -61.457420 7.830171
27.153845 -62.369434 9.549696
26.799141 -61.614182 11.027674
0.000601 -0.036467 -0.001394
0.000583 -0.036344 -0.001388
0.234064 -0.575561 -0.331578
0.250275 -0.613281 -0.335693
0.270134 -0.659765 -0.342441
0.293155 -0.713360 -0.350545
0.320670 -0.777751 -0.360994
0.350684 -0.848037 -0.370680
0.402546 -0.968718 -0.397929
2.158670 -5.047109 -1.987501
2.323008 -5.431314 -1.986483
2.534948 -5.929317 -2.003511
2.767580 -6.476482 -2.011777
3.081861 -7.211452 -2.046126
3.451079 -8.078992 -2.075590
3.886338 -9.097947 -2.097759
4.469345 -10.467634 -2.140239
5.237349 -12.126128 -2.166847
5.688145 -13.173182 -2.014172
7.814938 -18.102915 -2.301062
7.572520 -17.559341 -1.783509
7.574304 -17.571951 -1.338283
0.000583 -0.036344 -0.001388
0.000583 -0.036344 -0.001388
0.000583 -0.036344 -0.001388
0.000583 -0.036344 -0.001388
0.000583 -0.036344 -0.001388
0.000583 -0.036344 -0.001388
0.000583 -0.036344 -0.001388
26.012117 -60.641155 7.706872
26.775026 -62.479095 9.542726
26.420776 -61.682915 11.013399
0.000583 -0.036344 -0.001388
0.000587 -0.036243 -0.001385
0.231715 -0.578339 -0.332552
0.247051 -0.614564 -0.335689
0.261038 -0.647989 -0.335256
0.287844 -0.711607 -0.348830
0.315678 -0.777793 -0.360177
0.343975 -0.844767 -0.368363
0.394260 -0.964051 -0.395015
2.131989 -5.064539 -1.989551
2.294141 -5.449735 -1.988402
2.499471 -5.940175 -2.002316
2.731203 -6.493970 -2.012326
3.034461 -7.214696 -2.042070
3.407739 -8.105779 -2.077433
3.837089 -9.131552 -2.100254
4.414267 -10.510158 -2.143573
5.176758 -12.171416 -2.169766
5.611650 -13.203784 -2.013894
6.987691 -16.440977 -2.084533
9.674055 -22.770317 -2.307961
0.000587 -0.036243 -0.001385
0.000587 -0.036243 -0.001385
0.000587 -0.036243 -0.001385
0.000587 -0.036243 -0.001385
0.000587 -0.036243 -0.001385
0.000587 -0.036243 -0.001385
0.000587 -0.036243 -0.001385
26.831997 -63.526566 6.424799
0.000587 -0.036243 -0.001385
0.000587 -0.036243 -0.001385
0.000587 -0.036243 -0.001385
0.000587 -0.036243 -0.001385
0.000590 -0.036143 -0.001381
0.229842 -0.582810 -0.334508
0.242929 -0.614280 -0.334746
0.258776 -0.652709 -0.337047
0.282421 -0.709847 -0.347114
0.312125 -0.781189 -0.360988
0.337757 -0.843286 -0.366818
0.386575 -0.961091 -0.392827
2.103716 -5.078345 -1.990232
2.263446 -5.466637 -1.989681
2.466627 -5.960087 -2.004102
2.693242 -6.507705 -2.011773
2.986634 -7.219959 -2.038522
3.362703 -8.128739 -2.078353
3.783897 -9.151566 -2.099836
4.352381 -10.531651 -2.142831
5.105434 -12.203609 -2.170089
5.537264 -13.239404 -2.014450
8.000934 -19.133238 -2.420354
9.643597 -23.077017 -2.333247
9.756377 -23.358036 -1.770748
0.000590 -0.036143 -0.001381
27.725615 -66.445572 -1.676743
0.000590 -0.036143 -0.001381
0.000590 -0.036143 -0.001381
0.000590 -0.036143 -0.001381
26.181259 -62.932796 4.758250
0.000590 -0.036143 -0.001381
26.100668 -62.863377 7.950162
0.000590 -0.036143 -0.001381
0.000590 -0.036143 -0.001381
0.000590 -0.036143 -0.001381
0.000573 -0.036020 -0.001376
0.226045 -0.582422 -0.333526
0.240251 -0.617174 -0.335680
0.261343 -0.668948 -0.345120
0.279930 -0.714709 -0.348823
0.307115 -0.781157 -0.360169
0.331681 -0.841680 -0.365271
0.379837 -0.959754 -0.391369
2.078230 -5.098965 -1.993651
2.235723 -5.488222 -1.992879
2.430292 -5.968766 -2.002311
2.657404 -6.526559 -2.012874
2.940831 -7.226178 -2.035481
3.317542 -8.151465 -2.079274
3.733582 -9.178529 -2.101083
4.291893 -10.556434 -2.142830
5.033794 -12.229042 -2.169440
5.511026 -13.391796 -2.032830
7.018767 -17.063099 -2.152997
9.638160 -23.441385 -2.364482
9.758630 -23.745804 -1.795886
25.435419 -61.898418 -3.124853
0.000573 -0.036020 -0.001376
0.000573 -0.036020 -0.001376
0.000573 -0.036020 -0.001376
0.000573 -0.036020 -0.001376
0.000573 -0.036020 -0.001376
0.000573 -0.036020 -0.001376
0.000573 -0.036020 -0.001376
25.203592 -61.734608 9.361006
0.000573 -0.036020 -0.001376
0.000573 -0.036020 -0.001376
0.000576 -0.035919 -0.001372
0.224189 -0.586822 -0.335480
0.236915 -0.618450 -0.335677
0.253686 -0.660412 -0.339733
0.276021 -0.716201 -0.348819
0.302707 -0.782872 -0.360167
0.328435 -0.846901 -0.366810
0.372409 -0.956625 -0.389181
2.048148 -5.111086 -1.993647
2.202873 -5.497376 -1.991596
2.398951 -5.989635 -2.004693
2.618842 -6.542087 -2.012871
2.899400 -7.242892 -2.035480
3.272965 -8.179914 -2.081578
3.680008 -9.202214 -2.101497
4.225018 -10.570645 -2.140606
4.967244 -12.266865 -2.171063
5.506900 -13.609498 -2.060955
7.755873 -19.163109 -2.412697
9.640078 -23.834146 -2.398508
9.760757 -24.156403 -1.822560
7.952528 -19.697659 -0.991786
0.000576 -0.035919 -0.001372
0.000576 -0.035919 -0.001372
0.000576 -0.035919 -0.001372
0.000576 -0.035919 -0.001372
27.310863 -67.870476 5.107381
0.000576 -0.035919 -0.001372
24.390135 -60.708134 7.641345
0.000576 -0.035919 -0.001372
24.655155 -61.491936 10.873325
0.000576 -0.035919 -0.001372
0.000580 -0.035819 -0.001369
0.218980 -0.583178 -0.332537
0.232806 -0.618101 -0.334734
0.252616 -0.668431 -0.343318
0.273978 -0.722753 -0.351382
0.298387 -0.784480 -0.360162
0.324294 -0.850438 -0.367577
0.367640 -0.960451 -0.389906
2.020968 -5.127919 -1.995697
2.173245 -5.517295 -1.994156
2.362179 -6.000096 -2.003498
2.580635 -6.555157 -2.012317
2.854451 -7.254441 -2.033957
3.222443 -8.189462 -2.079270
3.630060 -9.230428 -2.103160
4.162130 -10.589198 -2.139493
4.893130 -12.292327 -2.170413
5.509388 -13.843208 -2.091586
6.555225 -16.481281 -2.069681
0.000580 -0.035819 -0.001369
7.344431 -18.489639 -1.391492
0.000580 -0.035819 -0.001369
0.000580 -0.035819 -0.001369
0.000580 -0.035819 -0.001369
0.000580 -0.035819 -0.001369
0.000580 -0.035819 -0.001369
26.951473 -68.106247 5.113361
0.000580 -0.035819 -0.001369
0.000580 -0.035819 -0.001369
24.553480 -62.208969 9.388802
24.295151 -61.618057 10.870720
0.000580 -0.035819 -0.001369
0.000586 -0.035715 -0.001365
0.213270 -0.577822 -0.328614
0.232666 -0.627536 -0.339425
0.246349 -0.663099 -0.339724
0.268152 -0.719103 -0.348810
0.293399 -0.784373 -0.359344
0.316246 -0.843589 -0.363718
0.360425 -0.957160 -0.387719
1.993667 -5.144609 -1.997747
2.144677 -5.534532 -1.996074
2.330942 -6.018431 -2.005285
2.543745 -6.571583 -2.012866
2.814810 -7.271963 -2.034461
3.173328 -8.202322 -2.077884
3.580775 -9.255892 -2.104405
4.101010 -10.606654 -2.138380
4.821047 -12.316515 -2.169763
5.512993 -14.086620 -2.123611
6.685158 -17.092003 -2.141628
7.496953 -19.183147 -1.921090
0.000586 -0.035715 -0.001365
7.786163 -19.952780 -0.999997
0.000586 -0.035715 -0.001365
26.093426 -66.890205 -0.005982
0.000586 -0.035715 -0.001365
0.000586 -0.035715 -0.001365
26.048882 -66.949402 5.015082
0.000586 -0.035715 -0.001365
0.000586 -0.035715 -0.001365
0.000586 -0.035715 -0.001365
24.300848 -62.654137 11.029525
0.000586 -0.035715 -0.001365
0.000566 -0.035595 -0.001360
0.212764 -0.585412 -0.332530
0.226082 -0.620522 -0.334727
0.244143 -0.667702 -0.341516
0.264864 -0.722218 -0.349663
0.289747 -0.787648 -0.360154
0.314233 -0.852179 -0.366798
0.353793 -0.955645 -0.386261
1.964227 -5.155900 -1.997744
2.114052 -5.552350 -1.997992
2.296758 -6.035596 -2.006473
2.508837 -6.593204 -2.015070
2.772537 -7.290237 -2.034967
3.117215 -8.200908 -2.072810
3.524407 -9.277478 -2.104403
4.038935 -10.632522 -2.138750
4.753829 -12.346802 -2.170411
0.000566 -0.035595 -0.001360
7.252905 -18.849033 -2.357002
7.352736 -19.127960 -1.911424
0.000566 -0.035595 -0.001360
0.000566 -0.035595 -0.001360
0.000566 -0.035595 -0.001360
26.530577 -69.182838 -0.006144
26.057693 -68.021645 1.684332
0.000566 -0.035595 -0.001360
0.000566 -0.035595 -0.001360
0.000566 -0.035595 -0.001360
0.000566 -0.035595 -0.001360
0.000566 -0.035595 -0.001360
0.000566 -0.035595 -0.001360
24.129042 -63.388458 12.766781
0.000570 -0.035495 -0.001356
0.210004 -0.588210 -0.333505
0.222598 -0.621736 -0.334722
0.239640 -0.667396 -0.340614
0.260791 -0.723669 -0.349659
0.285279 -0.789244 -0.360150
0.304821 -0.841830 -0.361398
0.348315 -0.957606 -0.386256
1.937118 -5.176137 -2.001162
2.084255 -5.569639 -1.999911
2.264188 -6.053967 -2.008257
2.467868 -6.602464 -2.013414
2.731387 -7.307768 -2.035470
3.070155 -8.218609 -2.072808
3.473452 -9.298738 -2.104818
3.982011 -10.666546 -2.140972
4.680669 -12.381032 -2.171384
5.514696 -14.588816 -2.189609
0.000570 -0.035495 -0.001356
7.045856 -18.669462 -1.861228
0.000570 -0.035495 -0.001356
0.000570 -0.035495 -0.001356
0.000570 -0.035495 -0.001356
0.000570 -0.035495 -0.001356
0.000570 -0.035495 -0.001356
0.000570 -0.035495 -0.001356
0.000570 -0.035495 -0.001356
0.000570 -0.035495 -0.001356
0.000570 -0.035495 -0.001356
0.000570 -0.035495 -0.001356
0.000570 -0.035495 -0.001356
23.661966 -63.253788 12.711985
0.000576 -0.035391 -0.001352
0.206923 -0.589270 -0.333502
0.218713 -0.621211 -0.333780
0.236727 -0.670291 -0.341508
0.254932 -0.719963 -0.347088
0.280942 -0.790775 -0.360147
0.304790 -0.855508 -0.366789
0.343011 -0.959498 -0.386253
1.908794 -5.190618 -2.002527
2.051686 -5.579646 -1.999267
2.234793 -6.081117 -2.013022
2.432016 -6.621864 -2.015066
2.688807 -7.321446 -2.034961
3.020283 -8.228722 -2.070960
3.421819 -9.328246 -2.106896
3.922264 -10.699082 -2.142822
4.617175 -12.421644 -2.173976
5.513031 -14.841066 -2.222745
7.033875 -18.936012 -2.357466
6.952132 -18.736395 -1.864017
0.000576 -0.035391 -0.001352
6.986441 -18.859018 -0.938985
0.000576 -0.035391 -0.001352
0.000576 -0.035391 -0.001352
0.000576 -0.035391 -0.001352
24.616922 -66.615540 3.304339
0.000576 -0.035391 -0.001352
22.870207 -62.024780 6.158651
0.000576 -0.035391 -0.001352
0.000576 -0.035391 -0.001352
22.700449 -61.731297 10.794829
23.341724 -63.508747 12.736033
0.000580 -0.035290 -0.001349
0.201841 -0.585469 -0.330559
0.215225 -0.622382 -0.333775
0.232952 -0.671571 -0.341504
0.252105 -0.724753 -0.348796
0.275820 -0.790591 -0.359329
0.300550 -0.858924 -0.367556
0.338148 -0.963149 -0.386976
1.880122 -5.207052 -2.004578
2.023306 -5.604088 -2.003748
2.198242 -6.092363 -2.012423
2.391586 -6.632441 -2.013960
2.648846 -7.346263 -2.037493
2.967669 -8.235414 -2.068192
3.368635 -9.353790 -2.108142
3.857609 -10.718360 -2.142080
4.546350 -12.456129 -2.175274
5.453005 -14.949671 -2.234164
6.333312 -17.367088 -2.157179
6.832201 -18.752876 -1.861601
0.000580 -0.035290 -0.001349
0.000580 -0.035290 -0.001349
0.000580 -0.035290 -0.001349
0.000580 -0.035290 -0.001349
0.000580 -0.035290 -0.001349
0.000580 -0.035290 -0.001349
23.219484 -64.069641 4.757171
22.390217 -61.850304 6.128008
0.000580 -0.035290 -0.001349
22.585827 -62.493103 9.328369
0.000580 -0.035290 -0.001349
22.952822 -63.612705 12.729361
0.000562 -0.035168 -0.001343
0.195713 -0.578302 -0.325655
0.213029 -0.626820 -0.335649
0.232309 -0.681206 -0.345988
0.248131 -0.726083 -0.348792
0.272207 -0.793722 -0.360138
0.295182 -0.858795 -0.366782
0.330295 -0.957954 -0.384062
1.853746 -5.224432 -2.007312
1.995658 -5.628021 -2.008227
2.162694 -6.103012 -2.011825
2.358592 -6.656448 -2.017266
2.604109 -7.353981 -2.035463
2.921826 -8.251726 -2.068188
3.318516 -9.377861 -2.109387
3.797913 -10.739620 -2.142079
4.478761 -12.493118 -2.177218
5.368974 -14.977895 -2.233883
6.221337 -17.369484 -2.153001
6.847983 -19.136703 -1.895810
0.000562 -0.035168 -0.001343
0.000562 -0.035168 -0.001343
0.000562 -0.035168 -0.001343
0.000562 -0.035168 -0.001343
0.000562 -0.035168 -0.001343
23.788752 -66.763016 3.297616
0.000562 -0.035168 -0.001343
0.000562 -0.035168 -0.001343
0.000562 -0.035168 -0.001343
22.608160 -63.663208 9.484160
22.716692 -64.039810 11.152306
0.000562 -0.035168 -0.001343
0.000566 -0.035067 -0.001340
0.192003 -0.577664 -0.324672
0.209044 -0.626272 -0.334707
0.226203 -0.675677 -0.342393
0.242950 -0.723979 -0.347076
0.267235 -0.793450 -0.359321
0.289835 -0.858640 -0.366008
0.323735 -0.956207 -0.382602
1.823204 -5.233126 -2.006624
1.964665 -5.642873 -2.009504
2.108826 -6.061202 -1.993947
2.322326 -6.675243 -2.018917
2.563831 -7.374214 -2.036980
2.868712 -8.251777 -2.064035
3.265967 -9.400401 -2.110218
3.738144 -10.766752 -2.143187
4.408286 -12.522315 -2.177866
5.282222 -15.006595 -2.233606
6.106905 -17.363676 -2.147894
6.759048 -19.235806 -1.901758
7.229316 -20.583353 -1.525973
0.000566 -0.035067 -0.001340
21.624403 -61.640537 -1.521480
18.667976 -53.247734 -0.005047
0.000566 -0.035067 -0.001340
0.000566 -0.035067 -0.001340
0.000566 -0.035067 -0.001340
0.000566 -0.035067 -0.001340
0.000566 -0.035067 -0.001340
0.000566 -0.035067 -0.001340
21.597799 -62.016876 10.777947
22.267744 -64.011749 12.757104
0.000569 -0.034966 -0.001336
0.184318 -0.565480 -0.316830
0.207363 -0.632359 -0.337520
0.223081 -0.678538 -0.343286
0.240160 -0.728675 -0.348784
0.262260 -0.793135 -0.358503
0.285091 -0.860187 -0.366004
0.317832 -0.956196 -0.381872
1.795099 -5.248772 -2.008675
1.936063 -5.664750 -2.013345
2.074086 -6.073124 -1.993944
2.285936 -6.693852 -2.020569
2.522173 -7.390580 -2.037485
2.821361 -8.268047 -2.064033
3.216434 -9.431901 -2.113128
3.674391 -10.782405 -2.142074
4.340196 -12.558563 -2.179811
5.182978 -14.999220 -2.228035
5.997311 -17.370287 -2.144413
6.656212 -19.296886 -1.903991
7.097223 -20.584917 -1.523041
0.000569 -0.034966 -0.001336
0.000569 -0.034966 -0.001336
6.780038 -19.722393 -0.002709
6.789510 -19.772419 0.481883
6.764092 -19.720934 0.967996
0.000569 -0.034966 -0.001336
6.715061 -19.611759 1.928149
22.099495 -64.540398 7.967908
0.000569 -0.034966 -0.001336
21.255947 -62.184898 10.785716
0.000569 -0.034966 -0.001336
0.000575 -0.034863 -0.001333
0.178437 -0.558156 -0.311926
0.202199 -0.628406 -0.334698
0.217665 -0.674639 -0.340591
0.234992 -0.726507 -0.347068
0.258343 -0.796298 -0.359313
0.279134 -0.858195 -0.364457
0.308334 -0.945539 -0.376774
1.764727 -5.260992 -2.009355
1.905435 -5.681077 -2.015263
2.033801 -6.068575 -1.988578
2.245771 -6.705358 -2.020014
2.479772 -7.404860 -2.037482
2.774335 -8.290066 -2.065415
3.154416 -9.432161 -2.108967
3.614336 -10.815091 -2.144296
4.271824 -12.594432 -2.181755
5.087737 -15.010822 -2.225249
5.884628 -17.366787 -2.139771
6.964705 -20.571888 -2.025950
6.961120 -20.584970 -1.519969
0.000575 -0.034863 -0.001333
0.000575 -0.034863 -0.001333
26.120941 -77.375069 -0.006730
0.000575 -0.034863 -0.001333
0.000575 -0.034863 -0.001333
0.000575 -0.034863 -0.001333
0.000575 -0.034863 -0.001333
20.532070 -61.109592 7.529329
21.753881 -64.819267 9.598476
0.000575 -0.034863 -0.001333
0.000575 -0.034863 -0.001333
0.000555 -0.034743 -0.001327
0.178649 -0.569031 -0.317802
0.199236 -0.631165 -0.335633
0.214424 -0.677501 -0.341484
0.230320 -0.726067 -0.346209
0.253949 -0.797659 -0.359309
0.271918 -0.852719 -0.361369
0.302350 -0.945482 -0.376043
0.000555 -0.034743 -0.001327
1.877249 -5.708348 -2.021022
1.982998 -6.035099 -1.973678
1.993963 -6.071838 -1.824816
1.997891 -6.090882 -1.671185
2.726762 -8.305789 -2.065413
3.096574 -9.438892 -2.106467
3.553438 -10.839342 -2.145035
4.202243 -12.634420 -2.184349
5.004580 -15.049162 -2.226641
5.772313 -17.373009 -2.136290
6.830217 -20.574951 -2.022233
6.831379 -20.590521 -1.517456
0.000555 -0.034743 -0.001327
0.000555 -0.034743 -0.001327
23.227699 -70.137001 -0.006227
0.000555 -0.034743 -0.001327
0.000555 -0.034743 -0.001327
6.459895 -19.587231 1.437219
6.446461 -19.569546 1.916454
20.182512 -61.269817 7.534195
0.000555 -0.034743 -0.001327
20.653299 -62.809448 10.851489
0.000555 -0.034743 -0.001327
0.000559 -0.034642 -0.001324
0.162555 -0.530155 -0.294282
0.196352 -0.633876 -0.336569
0.210713 -0.678607 -0.341480
0.226331 -0.727271 -0.346205
0.248427 -0.795530 -0.357678
0.270642 -0.864705 -0.365992
0.300536 -0.957715 -0.380404
1.701521 -5.271801 -2.005928
1.845719 -5.722554 -2.022300
1.941355 -6.024510 -1.966525
1.948512 -6.050185 -1.814888
0.000559 -0.034642 -0.001324
2.680297 -8.324945 -2.066333
3.037576 -9.441564 -2.103138
3.490555 -10.857628 -2.144661
4.130261 -12.660180 -2.184673
4.920502 -15.085131 -2.227753
5.661304 -17.371859 -2.132112
6.699506 -20.575960 -2.018515
6.702408 -20.597147 -1.515082
0.000559 -0.034642 -0.001324
0.000559 -0.034642 -0.001324
0.000559 -0.034642 -0.001324
0.000559 -0.034642 -0.001324
0.000559 -0.034642 -0.001324
6.354620 -19.646776 1.438890
6.328383 -19.589176 1.914782
0.000559 -0.034642 -0.001324
19.898540 -61.635105 9.092109
19.477736 -60.404728 10.416204
20.943886 -65.027039 12.859231
0.000565 -0.034539 -0.001320
0.163963 -0.544262 -0.302117
0.192354 -0.633200 -0.335625
0.205382 -0.674605 -0.338784
0.221784 -0.726726 -0.345345
0.242371 -0.791618 -0.355233
0.264168 -0.860859 -0.363675
0.292409 -0.950460 -0.376763
1.673630 -5.288569 -2.008662
1.814091 -5.736590 -2.023578
1.906839 -6.035483 -1.966522
1.911499 -6.053846 -1.812678
0.000565 -0.034539 -0.001320
0.000565 -0.034539 -0.001320
2.981016 -9.451333 -2.101473
3.432356 -10.890570 -2.147254
4.061122 -12.694912 -2.186617
4.836806 -15.122536 -2.229145
5.589853 -17.492964 -2.143019
6.627832 -20.760122 -2.032830
6.657390 -20.865227 -1.531978
0.000565 -0.034539 -0.001320
0.000565 -0.034539 -0.001320
0.000565 -0.034539 -0.001320
0.000565 -0.034539 -0.001320
0.000565 -0.034539 -0.001320
0.000565 -0.034539 -0.001320
6.194613 -19.558727 1.908286
19.820559 -62.584888 7.667444
0.000565 -0.034539 -0.001320
21.693790 -68.622070 11.812458
20.484711 -64.878410 12.806290
0.000569 -0.034438 -0.001316
0.155265 -0.526783 -0.291334
0.188899 -0.634186 -0.335621
0.202741 -0.679064 -0.340574
0.218332 -0.729608 -0.346196
0.239100 -0.796379 -0.356857
0.258867 -0.860504 -0.362901
0.284896 -0.944898 -0.373848
1.645023 -5.303381 -2.010711
1.781803 -5.748644 -2.024216
1.872818 -6.048065 -1.967115
1.875114 -6.059148 -1.811022
0.000569 -0.034438 -0.001316
0.000569 -0.034438 -0.001316
1.897445 -6.149856 -1.362734
3.370361 -10.911901 -2.147621
3.991129 -12.727387 -2.188238
4.755805 -15.168922 -2.231929
5.574906 -17.797682 -2.176439
6.645965 -21.236759 -2.075776
6.628610 -21.194405 -1.553345
0.000569 -0.034438 -0.001316
0.000569 -0.034438 -0.001316
0.000569 -0.034438 -0.001316
0.000569 -0.034438 -0.001316
0.000569 -0.034438 -0.001316
0.000569 -0.034438 -0.001316
6.111684 -19.689045 1.917568
6.040914 -19.485495 2.379106
0.000569 -0.034438 -0.001316
0.000569 -0.034438 -0.001316
0.000569 -0.034438 -0.001316
0.000549 -0.034318 -0.001311
0.147816 -0.512569 -0.282513
0.184930 -0.633474 -0.334679
0.197979 -0.676696 -0.338775
0.212722 -0.725549 -0.343624
0.234040 -0.795926 -0.356039
0.254086 -0.861854 -0.362896
0.280743 -0.949979 -0.375300
1.613191 -5.311141 -2.010024
1.745544 -5.747819 -2.020370
1.839293 -6.062303 -1.968305
1.844386 -6.086606 -1.815982
1.850579 -6.110782 -1.664588
1.851890 -6.122773 -1.509596
0.000549 -0.034318 -0.001311
3.306349 -10.933475 -2.147990
3.919134 -12.753809 -2.188884
4.667682 -15.202426 -2.232763
5.574140 -18.159750 -2.216821
6.622600 -21.596272 -2.107197
6.498874 -21.219877 -1.552367
0.000549 -0.034318 -0.001311
0.000549 -0.034318 -0.001311
0.000549 -0.034318 -0.001311
0.000549 -0.034318 -0.001311
0.000549 -0.034318 -0.001311
0.000549 -0.034318 -0.001311
0.000549 -0.034318 -0.001311
0.000549 -0.034318 -0.001311
5.946949 -19.604025 2.871796
0.000549 -0.034318 -0.001311
19.134409 -63.123581 12.415371
0.000552 -0.034218 -0.001307
0.140946 -0.499969 -0.274670
0.181882 -0.636144 -0.335614
0.194691 -0.679471 -0.339670
0.210710 -0.733625 -0.347044
0.229642 -0.797146 -0.356035
0.249704 -0.865010 -0.363663
0.275298 -0.951513 -0.375296
1.585495 -5.329250 -2.013443
1.714872 -5.768847 -2.024209
1.813865 -6.107741 -1.979622
1.818290 -6.126481 -1.824801
1.823336 -6.151207 -1.672691
0.000552 -0.034218 -0.001307
2.809582 -9.479069 -2.096474
3.248592 -10.969186 -2.151322
3.848752 -12.793732 -2.191802
4.582003 -15.234632 -2.233598
0.000552 -0.034218 -0.001307
6.662004 -22.191923 -2.161485
6.446842 -21.489946 -1.569404
0.000552 -0.034218 -0.001307
0.000552 -0.034218 -0.001307
20.535128 -68.599312 -0.006122
20.476950 -68.492348 1.652853
0.000552 -0.034218 -0.001307
19.403601 -65.028488 4.737148
19.102926 -64.103233 6.231514
5.806343 -19.531702 2.376322
0.000552 -0.034218 -0.001307
5.789895 -19.513924 3.336033
0.000552 -0.034218 -0.001307
0.000558 -0.034114 -0.001304
0.125431 -0.457191 -0.249192
0.178914 -0.638765 -0.336549
0.191965 -0.683889 -0.341460
0.206688 -0.734723 -0.347041
0.227839 -0.807126 -0.360100
0.244404 -0.864557 -0.362889
0.271062 -0.956551 -0.376747
1.555512 -5.339982 -2.014124
1.682370 -5.780343 -2.024847
1.809940 -6.224264 -2.014180
1.990193 -6.845366 -2.036538
0.000558 -0.034114 -0.001304
2.440723 -8.404117 -2.067702
2.758975 -9.508116 -2.099382
3.187225 -10.993253 -2.152431
3.775788 -12.817457 -2.192124
4.501144 -15.283446 -2.236938
5.590487 -18.998966 -2.311280
7.679796 -26.121054 -2.540199
7.775916 -26.464752 -1.929693
0.000558 -0.034114 -0.001304
0.000558 -0.034114 -0.001304
21.144569 -72.142029 -0.006369
20.106102 -68.689583 1.654789
19.689932 -67.355949 3.264959
18.903742 -64.710045 4.705921
18.821926 -64.514061 6.260839
5.729580 -19.686749 2.391181
5.669165 -19.492241 2.845645
