# This PCD file was generated using the MATLAB® pcwrite function
# from Computer Vision Toolbox®.
# .PCD v.7 - Point Cloud Data file format
VERSION .7
FIELDS x y z
SIZE 4 4 4
TYPE F F F
COUNT 1 1 1
WIDTH 1670
HEIGHT 1
VIEWPOINT 0 0 0 1 0 0 0
POINTS 1670
DATA ascii
5.471986 7.615249 -1.557356
5.868124 8.169338 -1.429153
7.785153 10.855688 -1.575131
7.544444 10.510085 -1.220734
7.444707 10.366570 -0.904707
0.001978 -0.074633 -0.003407
24.089247 33.668644 -0.980982
24.245518 33.875954 -0.018520
19.255320 26.868557 0.753438
0.001978 -0.074633 -0.003407
19.367744 26.997421 2.312047
36.882011 51.444553 5.884584
36.974472 51.537075 7.397770
0.001978 -0.074633 -0.003407
37.106308 51.666725 10.433617
37.168308 51.716511 11.983294
0.330609 0.381862 -0.337204
0.324028 0.372398 -0.313178
0.339575 0.393815 -0.310644
0.349065 0.406649 -0.301548
0.370105 0.435464 -0.301398
0.391337 0.464509 -0.299744
0.398598 0.474357 -0.286545
0.435304 0.524718 -0.292476
2.763798 3.741999 -1.719979
2.954771 4.004542 -1.706947
3.188111 4.323802 -1.700252
3.455554 4.689615 -1.692958
3.781636 5.137702 -1.691345
4.131267 5.615822 -1.671935
4.566321 6.210881 -1.657411
5.063455 6.890541 -1.628779
5.471159 7.521310 -1.544641
5.928471 8.150594 -1.431898
7.856068 10.822098 -1.576704
7.633183 10.505374 -1.225155
7.448102 10.241484 -0.897640
0.001959 -0.074515 -0.003401
0.001959 -0.074515 -0.003401
24.186228 33.371914 -0.018191
24.273186 33.480801 0.943248
0.001959 -0.074515 -0.003401
20.013636 27.552778 2.369784
36.886440 50.810688 5.837276
0.001959 -0.074515 -0.003401
0.001959 -0.074515 -0.003401
37.092327 51.005116 10.344579
37.123768 51.031120 11.874142
0.335335 0.382789 -0.339239
0.327702 0.371989 -0.314152
0.345468 0.396186 -0.313455
0.351904 0.404693 -0.301540
0.373043 0.433436 -0.301391
0.393350 0.460893 -0.298922
0.402943 0.473583 -0.287309
0.443139 0.528339 -0.295380
2.783490 3.723122 -1.718586
2.979322 3.989109 -1.707564
3.215647 4.308574 -1.701420
3.497685 4.689927 -1.700105
3.815021 5.120644 -1.692838
4.165106 5.593626 -1.672366
4.598994 6.182281 -1.656543
5.112723 6.876547 -1.632081
5.471937 7.428258 -1.532252
5.986221 8.130857 -1.434366
7.931082 10.789886 -1.578740
7.292946 9.908483 -1.161132
7.617986 10.349988 -0.910768
7.512768 10.198746 -0.601384
0.001964 -0.074418 -0.003397
24.185743 32.969242 -0.017910
24.262598 33.050884 0.935326
0.001964 -0.074418 -0.003397
0.001964 -0.074418 -0.003397
36.855343 50.175396 5.788100
36.945374 50.262711 7.275986
0.001964 -0.074418 -0.003397
37.091621 50.409336 10.265877
0.001964 -0.074418 -0.003397
0.341958 0.386566 -0.343314
0.335358 0.377292 -0.319045
0.343890 0.388687 -0.309690
0.354579 0.402830 -0.301534
0.377023 0.432856 -0.302239
0.398614 0.461657 -0.300544
0.402679 0.467009 -0.284986
0.444378 0.522904 -0.293916
2.806422 3.708673 -1.719247
3.003768 3.973556 -1.708179
3.238538 4.287055 -1.700201
3.528486 4.674475 -1.701733
3.843703 5.097165 -1.692301
4.198823 5.571245 -1.672796
4.637197 6.156574 -1.656926
5.153836 6.846241 -1.632041
5.469205 7.337369 -1.519865
6.042745 8.109141 -1.436554
7.287134 9.791590 -1.439791
7.812433 10.495533 -1.234182
7.707490 10.346207 -0.914217
7.598494 10.195323 -0.603584
21.420576 28.860847 -0.851840
24.189783 32.578922 -0.017638
24.232800 32.625912 0.927254
0.001945 -0.074300 -0.003391
0.001945 -0.074300 -0.003391
36.815434 49.502037 5.735787
36.912209 49.615601 7.213234
0.001945 -0.074300 -0.003391
37.055717 49.738888 10.174240
37.107464 49.791702 11.685025
0.339539 0.377759 -0.338203
0.339081 0.376799 -0.320019
0.349783 0.391012 -0.312500
0.357393 0.400846 -0.301526
0.376784 0.426381 -0.299664
0.400673 0.457954 -0.299721
0.406993 0.466200 -0.285750
0.440095 0.509932 -0.288812
2.826545 3.689084 -1.717854
3.028862 3.957303 -1.708796
3.271211 4.277058 -1.703753
3.568144 4.668949 -1.707225
3.869632 5.068235 -1.690241
4.232221 5.546372 -1.672763
4.671696 6.125977 -1.656056
5.192429 6.812532 -1.631261
5.469369 7.246427 -1.507801
6.100647 8.085984 -1.438741
8.075804 10.725183 -1.582580
7.914337 10.501765 -1.240279
7.799047 10.340363 -0.917667
7.690394 10.191774 -0.605970
24.033138 31.990993 -0.947620
24.189766 32.177433 -0.017360
24.241446 32.235477 0.920379
0.001950 -0.074203 -0.003386
0.001950 -0.074203 -0.003386
36.798775 48.870716 5.688097
36.926750 49.024445 7.159286
0.001950 -0.074203 -0.003386
37.019108 49.078537 10.084220
37.072464 49.132889 11.582150
0.344201 0.378661 -0.340237
0.339543 0.372197 -0.318050
0.351408 0.387685 -0.311555
0.362276 0.401747 -0.303315
0.382928 0.428648 -0.302225
0.401424 0.452921 -0.298085
0.410085 0.463977 -0.285742
0.450206 0.516414 -0.293173
2.849772 3.676375 -1.719200
3.054312 3.942949 -1.710053
3.292749 4.253712 -1.701938
3.599215 4.655198 -1.709406
3.906211 5.055228 -1.693255
4.262342 5.521247 -1.672269
4.705049 6.098374 -1.655606
5.235542 6.789828 -1.632707
5.473323 7.164584 -1.497363
6.154449 8.062993 -1.440651
8.151021 10.696071 -1.585083
8.008711 10.500626 -1.245443
7.890745 10.341346 -0.921537
7.780709 10.188873 -0.608354
24.025131 31.599005 -0.939969
24.190435 31.806267 -0.017101
24.233513 31.840754 0.913222
24.258492 31.851353 1.852652
0.001957 -0.074102 -0.003382
36.778351 48.279549 5.643353
36.891029 48.393925 7.098382
0.001957 -0.074102 -0.003382
37.010502 48.500790 10.008095
37.053467 48.523376 11.488877
0.348902 0.379514 -0.342273
0.345286 0.374501 -0.320984
0.354048 0.385781 -0.311547
0.366104 0.401182 -0.304206
0.384701 0.425125 -0.301361
0.407887 0.454985 -0.300521
0.413182 0.461714 -0.285735
0.445649 0.503591 -0.288068
2.875396 3.664001 -1.721231
3.075068 3.922420 -1.708747
3.321090 4.239361 -1.703701
3.623664 4.629342 -1.707720
3.928582 5.023592 -1.690182
4.290679 5.489841 -1.670388
4.739167 6.067390 -1.654737
5.283343 6.768130 -1.634892
5.469315 7.073536 -1.484975
6.219447 8.048491 -1.444512
8.224930 10.664889 -1.587351
8.103357 10.498731 -1.250609
7.985146 10.337239 -0.925266
7.867600 10.180512 -0.610458
24.031687 31.231945 -0.933028
24.197517 31.426050 -0.016838
24.240118 31.470999 0.906750
24.256691 31.470602 1.838753
0.001938 -0.073985 -0.003376
36.767929 47.675743 5.598432
36.868675 47.790627 7.041179
0.001938 -0.073985 -0.003376
36.996475 47.889889 9.927447
37.028706 47.915722 11.395599
0.355794 0.382995 -0.346348
0.350079 0.375314 -0.322938
0.353521 0.379605 -0.308721
0.366716 0.396301 -0.302403
0.385427 0.420103 -0.299640
0.407557 0.448418 -0.298071
0.416341 0.459381 -0.285727
0.459343 0.514301 -0.294612
2.898007 3.649001 -1.721892
3.102192 3.908731 -1.710644
3.347783 4.221220 -1.704271
3.663683 4.625203 -1.713765
3.963503 5.006426 -1.692181
4.326230 5.469769 -1.671743
4.772026 6.037055 -1.653869
5.321420 6.736183 -1.634483
5.468116 6.984916 -1.473239
6.275783 8.025216 -1.446699
8.303077 10.634873 -1.590086
8.200063 10.494686 -1.255771
8.077962 10.333782 -0.928996
7.962570 10.177977 -0.613029
24.042690 30.864820 -0.926181
24.577219 31.542208 -0.016788
24.237675 31.083769 0.899866
24.262897 31.094587 1.825319
0.001943 -0.073887 -0.003372
36.749569 47.088024 5.554426
36.848858 47.182762 6.983976
0.001943 -0.073887 -0.003372
36.976753 47.298218 9.849056
37.034275 47.339123 11.310825
0.353102 0.374294 -0.341237
0.356954 0.378900 -0.326851
0.363759 0.387394 -0.315291
0.377138 0.404136 -0.308681
0.389388 0.419407 -0.300490
0.412822 0.449044 -0.299692
0.420544 0.458538 -0.286491
0.476538 0.529331 -0.303341
2.919401 3.632368 -1.721870
3.126251 3.892411 -1.711261
3.372443 4.202007 -1.704245
3.685914 4.598114 -1.711529
3.995069 4.986692 -1.693165
4.359269 5.446428 -1.672172
4.809540 6.012684 -1.654667
5.365402 6.711733 -1.635929
5.475778 6.911522 -1.464427
6.333285 8.003111 -1.449166
8.374364 10.599547 -1.591889
9.653809 12.222124 -1.466955
8.170976 10.329623 -0.932724
8.052291 10.171375 -0.615320
21.542173 27.320103 -0.823994
24.198618 30.688271 -0.016328
24.247139 30.728653 0.893755
24.255186 30.717566 1.811508
0.001947 -0.073790 -0.003367
36.741657 46.522461 5.512825
36.838394 46.612873 6.931165
0.001947 -0.073790 -0.003367
36.967361 46.728504 9.774867
37.029800 46.775269 11.227150
0.364232 0.383144 -0.349396
0.362805 0.381049 -0.329785
0.360909 0.378502 -0.310586
0.370981 0.390887 -0.301490
0.389966 0.414449 -0.298770
0.415902 0.446715 -0.299684
0.422463 0.454771 -0.285713
0.463765 0.506284 -0.293141
2.941317 3.615125 -1.721846
3.145478 3.870035 -1.709314
3.399374 4.185625 -1.705412
3.713540 4.576302 -1.711500
4.021696 4.960732 -1.692119
4.396781 5.426686 -1.673986
4.849210 5.988767 -1.655880
5.410461 6.686056 -1.637374
5.488912 6.845995 -1.457240
6.373662 7.956240 -1.447445
8.445524 10.563753 -1.593692
9.734334 12.178944 -1.468383
8.236251 10.285787 -0.933088
8.148418 10.171893 -0.618080
24.037392 30.134134 -0.912263
24.193733 30.309656 -0.016071
24.242111 30.360378 0.887229
24.242678 30.340132 1.797603
0.001929 -0.073672 -0.003361
36.745232 45.963024 5.472519
36.822575 46.044712 6.878352
0.001929 -0.073672 -0.003361
36.959473 46.152504 9.700358
36.996761 46.183872 11.136449
0.365851 0.379756 -0.348368
0.365489 0.379011 -0.329777
0.365793 0.379226 -0.312458
0.379339 0.395751 -0.305973
0.395030 0.415131 -0.300474
0.418896 0.444426 -0.299677
0.427895 0.455256 -0.287248
0.458903 0.493576 -0.288036
2.967224 3.604107 -1.724561
3.172884 3.857884 -1.711853
3.428613 4.172071 -1.707770
3.749915 4.566936 -1.715888
4.051820 4.939126 -1.692597
4.425909 5.398394 -1.673030
4.884203 5.963247 -1.656263
5.439430 6.645197 -1.634739
5.533545 6.818072 -1.458175
0.001933 -0.073575 -0.003357
8.514680 10.521346 -1.594797
10.488083 12.968472 -1.570105
13.439792 16.634125 -1.509645
8.216523 10.132872 -0.618584
24.015213 29.752470 -0.904766
24.189985 29.948896 -0.015823
24.236389 29.985846 0.880614
24.240461 29.980938 1.784712
0.001933 -0.073575 -0.003357
36.707558 45.393234 5.429238
36.811443 45.490646 6.827389
0.001933 -0.073575 -0.003357
36.933846 45.595741 9.626805
36.991520 45.635681 11.055726
0.370535 0.380497 -0.350402
0.369101 0.378438 -0.330750
0.369422 0.378669 -0.313390
0.375170 0.385434 -0.300577
0.395555 0.410159 -0.298755
0.419556 0.439290 -0.298041
0.430825 0.452987 -0.287239
2.800977 3.359789 -1.734710
2.990723 3.589993 -1.725908
3.196657 3.841145 -1.712470
3.456614 4.156822 -1.709533
3.775338 4.543909 -1.715308
4.076932 4.911348 -1.691046
4.454862 5.369948 -1.672074
4.913701 5.926745 -1.654144
5.445555 6.571891 -1.624685
5.581867 6.799459 -1.460736
7.271137 8.874025 -1.627299
8.586202 10.489203 -1.597066
10.572008 12.923761 -1.571716
13.593665 16.627796 -1.516006
8.245616 10.052875 -0.616468
21.905787 26.814280 -0.819622
24.179108 29.584545 -0.015576
24.219275 29.623997 0.874078
24.237432 29.625904 1.772004
0.001938 -0.073477 -0.003353
36.720669 44.861862 5.391891
36.806484 44.952072 6.778506
0.001938 -0.073477 -0.003353
36.916439 45.024765 9.552610
36.956291 45.058681 10.967606
0.372128 0.377080 -0.349374
0.372889 0.377696 -0.331724
0.381066 0.387493 -0.320898
0.385828 0.392981 -0.306855
0.399557 0.409325 -0.299603
0.423667 0.438391 -0.298848
0.436295 0.453378 -0.288776
1.871630 2.192398 -1.151507
3.010542 3.571412 -1.725199
3.219809 3.822251 -1.712444
3.492603 4.149601 -1.714875
3.799392 4.519272 -1.714176
4.110107 4.891685 -1.692536
4.489832 5.348844 -1.673427
4.954398 5.906019 -1.656192
5.441059 6.489123 -1.612035
5.632538 6.778563 -1.463294
7.331310 8.842861 -1.629202
8.660042 10.452035 -1.599101
0.001919 -0.073360 -0.003347
0.001919 -0.073360 -0.003347
17.451374 21.103460 -1.291662
24.005894 29.038145 -0.891281
24.159769 29.215132 -0.015330
24.205273 29.250227 0.867413
24.233688 29.264597 1.759114
32.030224 38.691326 3.496952
32.105930 38.756378 4.681118
36.780251 44.379585 6.725224
36.825672 44.419895 8.095057
36.892059 44.469669 9.480027
36.962326 44.524075 10.890946
0.373615 0.373727 -0.348346
0.386629 0.389059 -0.341519
0.382588 0.384048 -0.319952
0.386217 0.388123 -0.305052
0.401186 0.405731 -0.298741
0.425422 0.434665 -0.298026
0.438130 0.449562 -0.287996
1.864326 2.157411 -1.139113
1.914812 2.217130 -1.090527
3.240961 3.802320 -1.711779
3.525416 4.139814 -1.719023
3.823291 4.494506 -1.713044
4.139856 4.869555 -1.693014
4.519714 5.321543 -1.672933
4.988729 5.877528 -1.656157
5.433279 6.403611 -1.598644
5.681972 6.758295 -1.465854
7.386292 8.805217 -1.629990
8.730618 10.414369 -1.600903
8.238127 9.815880 -1.208083
0.001926 -0.073259 -0.003342
17.514111 20.932224 -1.287236
23.996267 28.687754 -0.884639
24.157467 28.871508 -0.015095
24.192894 28.894180 0.861107
24.234289 28.923935 1.747142
31.876541 38.056423 3.456317
31.907166 38.067039 4.620214
36.775311 43.856544 6.678188
36.789894 43.859589 8.031685
36.898022 43.958717 9.416502
36.925327 43.961296 10.805406
0.377290 0.372997 -0.349360
0.384787 0.381614 -0.337590
0.388613 0.386014 -0.322763
0.390034 0.387361 -0.305944
0.403933 0.403531 -0.298734
0.428426 0.432250 -0.298018
0.437560 0.442917 -0.285675
1.885563 2.156708 -1.144194
1.933207 2.211591 -1.093249
3.264425 3.785182 -1.712395
3.555755 4.126870 -1.721977
3.854050 4.476271 -1.714672
4.168235 4.845774 -1.692984
4.557930 5.302180 -1.675210
5.025186 5.849457 -1.656537
5.439804 6.333933 -1.589334
5.732640 6.739186 -1.468739
7.443908 8.767447 -1.631055
8.224025 9.690937 -1.497819
10.853510 12.804798 -1.579707
8.849010 10.418868 -0.967277
0.001931 -0.073162 -0.003338
23.988558 28.344572 -0.878186
24.155724 28.523144 -0.014858
24.197878 28.563677 0.855532
24.218861 28.569006 1.734244
18.302692 21.557026 1.969179
31.877958 37.576344 4.583751
32.501831 38.300694 5.861702
36.785896 43.329525 7.974703
36.889061 43.421661 9.348446
36.908504 43.430412 10.727257
0.381046 0.372176 -0.350374
0.384084 0.375460 -0.334643
0.393618 0.386504 -0.324634
0.395070 0.387879 -0.307732
0.406667 0.401317 -0.298726
0.432515 0.431279 -0.298825
0.440618 0.440424 -0.285667
1.908029 2.157283 -1.150001
3.072441 3.517274 -1.724445
3.287824 3.767877 -1.713012
3.588562 4.116612 -1.726126
3.882660 4.457067 -1.715747
4.195218 4.820356 -1.692447
4.581184 5.267122 -1.672407
5.063262 5.827374 -1.658169
5.442187 6.264831 -1.579653
5.784439 6.718723 -1.471622
7.503671 8.735120 -1.632959
8.875766 10.339087 -1.604973
10.941306 12.753976 -1.581313
8.936446 10.399742 -0.970163
8.774409 10.202838 -0.637530
24.006256 28.035894 -0.872769
24.158781 28.195236 -0.014634
24.197018 28.220736 0.849683
18.506763 21.559505 1.315559
18.356785 21.369610 1.961793
31.901009 37.180176 4.557276
32.396374 37.732971 5.803512
36.760437 42.796936 7.915766
36.852333 42.890144 9.278436
36.890675 42.905663 10.650212
0.388011 0.375369 -0.354450
0.389987 0.377391 -0.337576
0.400788 0.389765 -0.328385
0.395303 0.383077 -0.305930
0.414028 0.404628 -0.302144
0.430531 0.423452 -0.295561
0.445888 0.440863 -0.287203
0.001917 -0.072947 -0.003327
3.094870 3.503052 -1.725790
3.316645 3.758191 -1.716833
3.614387 4.099526 -1.727293
3.905353 4.432548 -1.714615
4.222455 4.796988 -1.692417
4.612177 5.243069 -1.672837
5.097390 5.800635 -1.658551
5.441398 6.192927 -1.569232
5.832548 6.698429 -1.474182
7.561748 8.703744 -1.634863
8.941503 10.298551 -1.606312
11.036123 12.719979 -1.584599
9.049486 10.413278 -0.975991
8.932149 10.270268 -0.644694
23.981081 27.691271 -0.866090
24.139570 27.855833 -0.014407
24.198868 27.905416 0.844376
19.082056 21.981808 1.347885
18.632864 21.447964 1.978573
18.478634 21.262884 2.621333
32.394753 37.307003 5.765937
36.743420 42.296463 7.861268
36.819893 42.370838 9.210687
36.865753 42.394951 10.574638
0.383880 0.365403 -0.348318
0.398373 0.381764 -0.342469
0.407008 0.391490 -0.331196
0.407382 0.391627 -0.313104
0.415742 0.400852 -0.301280
0.438287 0.426503 -0.298810
0.450124 0.439733 -0.287965
2.912875 3.253742 -1.730936
3.116028 3.484759 -1.725767
3.342451 3.740858 -1.718088
3.639798 4.077505 -1.727266
3.925668 4.402206 -1.711828
4.257224 4.777054 -1.694416
4.646200 5.218665 -1.673728
5.134432 5.771006 -1.658931
5.438028 6.112480 -1.557325
5.881674 6.674259 -1.476416
7.626671 8.673804 -1.637601
0.001901 -0.072826 -0.003321
11.126188 12.670943 -1.586577
9.161363 10.416673 -0.981254
0.001901 -0.072826 -0.003321
23.976370 27.345816 -0.859730
19.414425 22.121269 -0.012056
18.705664 21.296459 0.647597
18.908287 21.513367 1.326346
18.623388 21.181147 1.964244
18.506100 21.033020 2.607008
32.465057 36.929504 5.738338
36.757481 41.808529 7.811222
36.812546 41.842896 9.144895
36.854351 41.862148 10.497971
0.389800 0.367177 -0.351373
0.403304 0.382177 -0.344424
0.415506 0.395881 -0.335886
0.413611 0.393398 -0.315792
0.420838 0.401293 -0.302984
0.441140 0.424099 -0.298802
0.455525 0.439998 -0.289502
2.927026 3.231473 -1.728002
3.136455 3.466884 -1.725744
3.359314 3.716009 -1.715500
3.666163 4.059458 -1.728433
3.947532 4.375349 -1.710144
4.282477 4.749712 -1.693370
4.680457 5.196328 -1.675081
5.174475 5.748792 -1.660978
5.439569 6.043020 -1.547645
5.933468 6.655210 -1.479625
7.682119 8.635834 -1.638667
9.076526 10.210003 -1.608752
11.212515 12.621753 -1.588370
9.265155 10.413243 -0.985818
9.138370 10.262744 -0.650670
24.006569 27.063751 -0.855070
19.312531 21.750179 -0.011836
24.174152 27.225811 0.832574
18.905005 21.260746 1.317572
32.179314 36.229973 3.374643
18.615358 20.912870 2.605453
32.558758 36.608440 5.717678
36.724358 41.288319 7.753664
36.821091 41.369305 9.087826
36.842991 41.365936 10.426831
0.385457 0.357341 -0.345241
0.403587 0.377371 -0.342455
0.421718 0.397551 -0.338697
0.416267 0.391141 -0.315783
0.425962 0.401673 -0.304688
0.446430 0.424384 -0.300423
0.457226 0.436121 -0.288722
2.950982 3.220237 -1.730893
3.163036 3.455904 -1.729143
3.384872 3.700953 -1.717399
3.689874 4.038420 -1.728406
3.974352 4.354103 -1.710668
4.312747 4.727989 -1.694355
4.704195 5.162186 -1.672741
5.210510 5.721944 -1.661776
5.440503 5.973748 -1.537966
5.976013 6.625506 -1.480559
7.745278 8.606385 -1.641406
9.146145 10.169575 -1.610555
11.305275 12.579425 -1.591094
9.391813 10.434251 -0.992764
9.246989 10.265187 -0.654082
23.974323 26.715179 -0.848299
19.190996 21.363129 -0.011611
24.168079 26.904665 0.827127
18.664715 20.747084 1.292503
18.688259 20.766571 1.945854
18.815615 20.894432 2.616679
19.069866 21.163465 3.325954
36.704979 40.790554 7.699995
0.001910 -0.072631 -0.003313
36.825802 40.869823 10.355322
0.387919 0.355234 -0.345234
0.408493 0.377755 -0.344408
0.426793 0.397843 -0.340569
0.423723 0.394157 -0.319368
0.431122 0.402002 -0.306394
0.454185 0.427341 -0.303671
0.471297 0.445903 -0.295657
2.967376 3.200559 -1.729414
3.178257 3.432180 -1.726383
3.410343 3.685750 -1.719296
3.709629 4.012995 -1.726591
3.994595 4.325581 -1.708433
4.336421 4.698895 -1.692805
4.732932 5.133718 -1.672246
5.247717 5.696331 -1.662989
5.438173 5.901755 -1.527545
6.021072 6.598449 -1.482144
7.799088 8.566198 -1.642193
9.216916 10.130157 -1.612590
0.001892 -0.072514 -0.003307
9.506978 10.440830 -0.998447
9.374666 10.287491 -0.658803
19.287830 21.230396 -0.678660
19.271082 21.205006 -0.011478
18.987160 20.877367 0.645053
18.849976 20.711960 1.297153
19.248888 21.144979 1.991680
18.985453 20.840490 2.623647
32.837132 36.075642 5.693503
36.694405 40.309040 7.649100
0.001892 -0.072514 -0.003307
36.802834 40.373825 10.283439
0.395008 0.358197 -0.349309
0.409900 0.374222 -0.343420
0.431878 0.398101 -0.342441
0.431231 0.397092 -0.322952
0.435064 0.400961 -0.307243
0.460845 0.428795 -0.306106
0.474262 0.443304 -0.295649
2.987431 3.184918 -1.730121
3.201514 3.416168 -1.727728
3.437039 3.671767 -1.721835
3.729195 3.987492 -1.724775
4.021902 4.303359 -1.708956
4.365106 4.675415 -1.693282
4.770307 5.112839 -1.674522
5.287129 5.670997 -1.664619
5.437554 5.830495 -1.517495
6.063362 6.568178 -1.483079
7.864867 8.536006 -1.645210
9.290215 10.093199 -1.615089
9.723501 10.560251 -1.351502
0.001896 -0.072416 -0.003302
18.591219 20.238726 -1.295067
23.971813 26.100046 -0.837254
18.152363 19.732517 -0.010842
19.223608 20.894619 0.649110
18.819342 20.439844 1.286988
18.997910 20.620512 1.953030
18.842371 20.437279 2.587088
18.782055 20.365011 3.234645
36.686497 39.822594 7.598207
0.001896 -0.072416 -0.003302
36.792679 39.898251 10.216359
0.381216 0.338275 -0.335013
0.414916 0.374454 -0.345374
0.438252 0.399538 -0.345252
0.437655 0.398576 -0.325639
0.444000 0.405121 -0.311516
0.464946 0.427606 -0.306911
0.482335 0.446006 -0.298727
3.005418 3.165914 -1.729370
3.226662 3.403309 -1.730443
3.463055 3.655610 -1.723732
3.750615 3.962626 -1.723556
4.047021 4.280265 -1.708929
4.394505 4.650984 -1.693758
4.797418 5.082570 -1.673567
5.322761 5.643457 -1.665417
0.001901 -0.072319 -0.003298
6.111997 6.542380 -1.485312
7.925033 8.502353 -1.647392
9.361114 10.049731 -1.616890
11.576921 12.437730 -1.598149
14.865625 15.986880 -1.539543
0.001901 -0.072319 -0.003298
0.001901 -0.072319 -0.003298
24.145584 25.969666 -0.013128
18.915127 20.314262 0.634643
19.896212 21.357315 1.352210
18.691696 20.053370 1.909649
19.305746 20.700607 2.634435
19.707798 21.118971 3.372652
36.678020 39.355671 7.549527
0.001901 -0.072319 -0.003298
36.799915 39.433548 10.153348
0.398846 0.352518 -0.348275
0.415101 0.369628 -0.343407
0.440944 0.397137 -0.345243
0.441576 0.397468 -0.326530
0.451677 0.407958 -0.314933
0.475313 0.433033 -0.311788
0.484042 0.441998 -0.297948
3.027826 3.152757 -1.731532
3.246594 3.384823 -1.730419
3.505204 3.657828 -1.733960
3.775076 3.942494 -1.724126
4.077276 4.262614 -1.711108
4.421607 4.625746 -1.693728
4.824332 5.052169 -1.672611
5.356905 5.614279 -1.665798
5.448541 5.707681 -1.501849
6.159398 6.517309 -1.487545
7.980995 8.463973 -1.648735
9.431429 10.008865 -1.618925
11.666430 12.389900 -1.600502
14.960517 15.904107 -1.539733
9.590773 10.162161 -0.661155
23.314571 24.793011 -0.803948
24.136324 25.661186 -0.012922
19.501463 20.705265 0.650489
19.652655 20.852278 1.327504
18.697905 19.829252 1.898643
19.688206 20.869305 2.670301
19.621151 20.783937 3.337309
36.647758 38.871429 7.497233
0.001882 -0.072201 -0.003292
36.790707 38.970890 10.088854
0.402461 0.351582 -0.349289
0.424816 0.374953 -0.349280
0.443647 0.394702 -0.345236
0.450410 0.401529 -0.331011
0.460651 0.412022 -0.319207
0.482059 0.434306 -0.314221
0.493333 0.446017 -0.301797
3.047630 3.136737 -1.732239
3.264465 3.362895 -1.729027
3.525318 3.636340 -1.733295
3.792863 3.915283 -1.721715
4.101577 4.237102 -1.710528
4.451231 4.603148 -1.694712
4.865382 5.034858 -1.676272
5.387833 5.579700 -1.664930
0.001887 -0.072103 -0.003287
6.210777 6.496209 -1.490754
8.041007 8.426690 -1.650637
9.494736 9.960322 -1.619796
11.751631 12.337152 -1.602293
0.001887 -0.072103 -0.003287
9.646761 10.104012 -0.660909
23.962223 25.190975 -0.821046
18.231962 19.136244 -0.010410
19.396299 20.356457 0.643126
19.547062 20.501413 1.312429
18.529640 19.417374 1.869848
25.449114 26.678030 3.431240
33.678867 35.317749 5.696366
36.653999 38.418320 7.451888
0.001887 -0.072103 -0.003287
36.774719 38.506779 10.023613
0.401382 0.345590 -0.346218
0.425037 0.370029 -0.347312
0.450068 0.396006 -0.348047
0.460613 0.406720 -0.336390
0.466004 0.412015 -0.320911
0.487509 0.434263 -0.315843
0.501514 0.448519 -0.304875
3.067893 3.120082 -1.732944
3.285481 3.345519 -1.729689
3.551178 3.619589 -1.735191
3.819089 3.895592 -1.722881
4.124963 4.212167 -1.709947
4.481581 4.579568 -1.695697
4.891984 5.004102 -1.675316
5.413481 5.541682 -1.662813
0.001894 -0.072003 -0.003283
6.257802 6.467945 -1.492662
8.096625 8.387546 -1.651981
9.569175 9.919748 -1.622294
9.591812 9.936668 -1.300208
15.202770 15.787504 -1.545295
19.467295 20.223160 -1.322164
23.949612 24.879787 -0.815410
18.166290 18.847897 -0.010237
19.429815 20.150366 0.640350
19.840393 20.563858 1.324033
18.826797 19.503241 1.888581
20.028181 20.738504 2.683503
33.961105 35.193382 5.708848
36.628906 37.951519 7.402368
0.001894 -0.072003 -0.003283
36.761257 38.037754 9.958376
0.408563 0.348334 -0.350294
0.427579 0.367689 -0.347305
0.455213 0.396054 -0.349919
0.469596 0.410580 -0.340873
0.470032 0.410747 -0.321759
0.495485 0.436823 -0.319090
0.534070 0.476184 -0.322608
3.083617 3.099824 -1.731466
3.309026 3.330727 -1.731719
3.572355 3.599230 -1.735166
3.844530 3.876398 -1.724048
4.154918 4.193989 -1.712127
4.506907 4.552446 -1.695159
4.921117 4.975987 -1.675284
5.415649 5.479749 -1.653618
5.514181 5.576992 -1.492471
6.287103 6.423439 -1.490674
8.146548 8.342364 -1.652210
9.589190 9.826114 -1.615959
11.901369 12.204953 -1.602896
15.336825 15.744287 -1.549546
19.482216 20.006247 -1.315212
23.954922 24.599644 -0.810625
17.998978 18.459072 -0.010028
20.501812 21.021969 0.671949
18.168964 18.609016 1.205099
18.997553 19.454746 1.894527
18.182043 18.603903 2.421470
34.239712 35.075729 5.721790
36.620377 37.507572 7.357012
0.001875 -0.071885 -0.003277
36.738331 37.578072 9.893501
0.401352 0.336257 -0.342122
0.422780 0.357862 -0.341417
0.461606 0.397327 -0.352730
0.477352 0.413104 -0.344456
0.480406 0.415879 -0.326889
0.503534 0.439282 -0.322339
2.928062 2.907361 -1.748772
3.103129 3.083472 -1.732172
3.329859 3.313095 -1.732379
3.590768 3.576026 -1.733860
3.865836 3.852983 -1.723425
4.174003 4.164656 -1.709892
4.533464 4.526540 -1.695130
4.954177 4.951869 -1.676636
5.411805 5.412391 -1.642760
5.547987 5.546679 -1.492807
6.328508 6.391508 -1.491608
8.201769 8.302535 -1.653555
9.701609 9.827638 -1.625200
11.991349 12.156285 -1.605434
15.463913 15.692921 -1.553097
19.489679 19.784132 -1.307886
23.949402 24.311714 -0.805560
24.095877 24.452972 -0.012124
24.129995 24.471222 0.786928
18.267761 18.495710 1.204648
0.001880 -0.071788 -0.003273
18.264050 18.473532 2.418240
34.590569 35.029606 5.746785
36.601044 37.057915 7.310262
0.001880 -0.071788 -0.003273
36.736195 37.145115 9.835281
0.406121 0.336492 -0.344157
0.426472 0.356778 -0.342390
0.463034 0.393543 -0.351781
0.481400 0.411723 -0.345347
0.485737 0.415799 -0.328593
0.511613 0.441680 -0.325587
2.937374 2.882717 -1.744125
3.121234 3.065684 -1.732150
3.350614 3.295328 -1.733041
3.609025 3.552737 -1.732554
3.893748 3.836199 -1.725783
4.198338 4.140666 -1.709865
4.559834 4.500513 -1.695099
4.980271 4.920625 -1.675682
5.401815 5.339734 -1.630236
5.588552 5.523126 -1.494996
0.001862 -0.071670 -0.003267
8.258184 8.263767 -1.655177
9.772413 9.785866 -1.627467
12.072738 12.098509 -1.606854
15.582497 15.632106 -1.555809
19.586720 19.654762 -1.306649
23.945581 24.028931 -0.800637
24.445259 24.523966 -0.012063
24.122780 24.183208 0.782244
18.420807 18.437126 1.207811
17.979523 17.987890 1.772142
19.157494 19.158306 2.522101
18.124081 18.108694 2.992044
36.605705 36.637798 7.269070
0.001862 -0.071670 -0.003267
36.746956 36.730114 9.781494
0.414533 0.340356 -0.349251
0.425222 0.350742 -0.339442
0.466967 0.392221 -0.352715
0.491765 0.416634 -0.350726
0.489830 0.414374 -0.329443
0.514631 0.438771 -0.325578
2.962170 2.873699 -1.748731
3.141885 3.050414 -1.733584
3.369179 3.274204 -1.732332
3.633866 3.536027 -1.734452
3.912100 3.809822 -1.723968
4.223227 4.115825 -1.709836
4.583331 4.471585 -1.694056
5.016681 4.897995 -1.677956
5.404613 5.278833 -1.621458
5.628615 5.496927 -1.496814
7.187363 7.102079 -1.674030
8.313068 8.220377 -1.656241
9.840219 9.740818 -1.629267
12.160897 12.047236 -1.609203
15.719142 15.583219 -1.560056
0.001866 -0.071573 -0.003262
23.940706 23.748430 -0.795761
24.095711 23.886545 -0.011747
18.567038 18.383095 0.597956
18.025242 17.832514 1.175112
18.192474 17.986500 1.782673
18.459671 18.239460 2.415858
18.204426 17.980419 2.988206
36.575096 36.174839 7.220376
0.001866 -0.071573 -0.003262
36.717854 36.280277 9.718091
0.409622 0.330753 -0.343121
0.428951 0.349560 -0.340414
0.475984 0.395767 -0.357403
0.501012 0.420100 -0.355207
0.499130 0.417929 -0.333715
0.531893 0.449999 -0.334524
2.976955 2.853615 -1.747167
3.157670 3.029251 -1.732105
3.389724 3.256196 -1.732994
3.659263 3.518515 -1.736349
3.929610 3.781321 -1.721557
4.252745 4.096964 -1.712015
4.612947 4.447168 -1.695039
5.049384 4.873236 -1.679310
5.400364 5.213554 -1.611016
5.661979 5.465927 -1.497150
7.235402 7.064993 -1.675285
8.366300 8.178069 -1.657308
9.920865 9.704737 -1.632927
12.245296 11.987623 -1.610807
15.833147 15.516402 -1.562347
18.776323 18.401936 -1.238053
0.001873 -0.071473 -0.003258
18.818968 18.425503 -0.009745
18.857279 18.450754 0.603897
18.313570 17.904570 1.187079
18.380108 17.964064 1.790978
0.001873 -0.071473 -0.003258
18.355097 17.915388 2.995499
36.572250 35.757332 7.179178
0.001873 -0.071473 -0.003258
36.693874 35.828346 9.655430
0.411925 0.328511 -0.343113
0.430117 0.345985 -0.339427
0.476132 0.390674 -0.355517
0.503826 0.417329 -0.355199
0.503234 0.416423 -0.334563
0.569024 0.480069 -0.355678
2.987111 2.830138 -1.743289
3.179477 3.015038 -1.734267
3.413448 3.240080 -1.735024
3.671690 3.489608 -1.732480
3.955836 3.762748 -1.723320
4.270477 4.065113 -1.709227
4.641667 4.423353 -1.696024
5.082802 4.847393 -1.680662
5.404894 5.155720 -1.603071
5.698937 5.436493 -1.498225
7.280587 7.027497 -1.676214
8.420732 8.133978 -1.658371
9.992610 9.662851 -1.635425
12.330186 11.932358 -1.612785
15.961029 15.457167 -1.565754
20.291477 19.664391 -1.330099
23.939238 23.196953 -0.786390
24.088490 23.326303 -0.011376
18.957811 18.336473 0.603820
18.184452 17.573595 1.172167
18.598417 17.963230 1.801930
18.474989 17.831499 2.390498
36.154259 34.953743 5.870895
36.566292 35.329185 7.136871
0.001855 -0.071355 -0.003252
36.685085 35.408985 9.599417
0.413053 0.324980 -0.342086
0.427564 0.338702 -0.335500
0.473767 0.383064 -0.351751
0.513148 0.420648 -0.359680
0.511233 0.418653 -0.337980
2.849580 2.665718 -1.762919
3.006935 2.815046 -1.744810
3.201229 3.000671 -1.736430
3.436510 3.224412 -1.737054
3.690771 3.467221 -1.731816
3.979200 3.741365 -1.723890
4.296993 4.043241 -1.710304
4.663260 4.392674 -1.694473
5.118050 4.824920 -1.682937
5.402889 5.095843 -1.593880
5.740953 5.415586 -1.501157
7.328222 6.989810 -1.677468
8.474957 8.092362 -1.659716
10.067338 9.620077 -1.638155
12.418374 11.875724 -1.614948
16.083218 15.396976 -1.568885
20.416782 19.552158 -1.330545
23.931456 22.923162 -0.781661
24.087120 23.057203 -0.011198
24.133249 23.085934 0.765290
18.461575 17.637506 1.183577
18.907829 18.053463 1.821917
18.869318 18.010719 2.428588
18.202209 17.359644 2.937747
36.561901 34.919701 7.096778
0.001859 -0.071257 -0.003247
36.658489 34.977322 9.539701
0.416491 0.323981 -0.343099
0.431103 0.337630 -0.336472
0.478860 0.382959 -0.353623
0.523668 0.425272 -0.365061
0.529772 0.430756 -0.348246
2.876718 2.661225 -1.770224
3.016311 2.791979 -1.740934
3.220199 2.983607 -1.737135
3.472569 3.222115 -1.745929
3.719311 3.453875 -1.735634
4.005248 3.722450 -1.725653
4.319884 4.019320 -1.710276
4.693084 4.369882 -1.695964
5.148127 4.799074 -1.683829
5.405535 5.039245 -1.585938
5.781014 5.390668 -1.503347
7.371814 6.953001 -1.678400
8.527547 8.051896 -1.661061
10.137068 9.578953 -1.640654
12.499282 11.820073 -1.616742
16.214083 15.349748 -1.573135
20.583895 19.493092 -1.334181
23.925667 22.654348 -0.777075
24.379688 23.078167 -0.011122
24.124310 22.820259 0.761053
18.516773 17.487089 1.180714
19.293907 18.218195 1.849411
18.628988 17.575975 2.384587
18.358448 17.307993 2.946891
36.539364 34.509647 7.055011
0.001864 -0.071160 -0.003243
36.642403 34.560677 9.483686
0.416262 0.319325 -0.341051
0.438527 0.340034 -0.340386
0.480180 0.379098 -0.352677
0.527817 0.423589 -0.365951
0.535288 0.430286 -0.349951
2.878212 2.630492 -1.761250
3.043500 2.784802 -1.747083
3.239097 2.966414 -1.737842
3.494776 3.204162 -1.747275
3.734008 3.427343 -1.733047
4.024211 3.696868 -1.724433
4.341263 3.991122 -1.709145
4.719988 4.344229 -1.696442
5.178334 4.769906 -1.684258
5.407154 4.980513 -1.577578
5.821907 5.364474 -1.505535
7.420718 6.918718 -1.680303
8.579885 8.005390 -1.661846
10.217044 9.543703 -1.644548
12.584903 11.764451 -1.618906
16.343040 15.288970 -1.576683
20.834452 19.504395 -1.342962
23.930695 22.398701 -0.772912
24.090647 22.533712 -0.010850
24.122921 22.556690 0.757004
0.001845 -0.071042 -0.003237
18.513832 17.271509 1.764697
18.715834 17.448990 2.382469
19.318235 18.007113 3.084477
36.538319 34.100384 7.015752
0.001845 -0.071042 -0.003237
36.641434 34.162815 9.432473
0.427367 0.325183 -0.348187
0.437134 0.333973 -0.337439
0.480247 0.373959 -0.350790
0.537282 0.426655 -0.370432
0.554130 0.441992 -0.360215
2.888373 2.609021 -1.757976
3.061720 2.768092 -1.747832
3.259765 2.949820 -1.739274
3.510826 3.181548 -1.745883
3.754694 3.405264 -1.733022
4.040879 3.667868 -1.722022
4.361754 3.963581 -1.708014
4.748933 4.318909 -1.697426
5.207525 4.741478 -1.684687
5.408839 4.924210 -1.569636
5.860301 5.337669 -1.507352
7.472157 6.884110 -1.682532
8.633457 7.962753 -1.663190
10.295689 9.503370 -1.647974
12.667985 11.701944 -1.620509
16.457457 15.219249 -1.579110
21.039442 19.463575 -1.348555
23.928669 22.131411 -0.768466
24.081036 22.265598 -0.010676
24.130548 22.296480 0.753185
19.120747 17.640440 1.206233
18.986603 17.510487 1.800259
19.343967 17.829388 2.449476
19.651123 18.101431 3.120523
36.520554 33.692013 6.975097
0.001850 -0.070945 -0.003233
36.627136 33.745041 9.377195
0.425844 0.319336 -0.345118
0.445858 0.337481 -0.342331
0.478895 0.367724 -0.347964
0.544073 0.427305 -0.373117
2.742041 2.444894 -1.765011
2.905096 2.593714 -1.758770
3.076648 2.749303 -1.747040
3.274368 2.928607 -1.737797
3.528095 3.160151 -1.745175
3.776028 3.385001 -1.733638
4.067971 3.649825 -1.724382
4.387729 3.941139 -1.709089
4.769831 4.287714 -1.695875
5.225094 4.702353 -1.681425
5.405724 4.864087 -1.560446
5.892788 5.305296 -1.507688
7.516413 6.845136 -1.683462
8.682474 7.915729 -1.663698
10.368146 9.460231 -1.650703
12.758984 11.650528 -1.623418
16.599550 15.174332 -1.584199
21.313406 19.490896 -1.358738
23.923428 21.871819 -0.764119
24.103050 22.029438 -0.010514
24.151253 22.058744 0.749959
18.868731 17.206408 1.184084
18.996202 17.317522 1.791741
0.001854 -0.070847 -0.003228
19.494383 17.749573 3.079359
36.513924 33.298332 6.937218
0.001854 -0.070847 -0.003228
36.620754 33.350945 9.326347
0.438253 0.326259 -0.353275
0.441742 0.329167 -0.337423
0.476186 0.360324 -0.344200
0.533710 0.412258 -0.364132
2.760498 2.432827 -1.767560
2.923549 2.579012 -1.760377
3.095562 2.734146 -1.748562
3.302600 2.919856 -1.743597
3.551381 3.143069 -1.747206
3.798674 3.365872 -1.734896
4.085074 3.622625 -1.722567
4.417156 3.920318 -1.711269
4.800574 4.265505 -1.697873
5.264847 4.681847 -1.685084
5.411651 4.811108 -1.553752
5.934780 5.279600 -1.510247
7.564843 6.809849 -1.685366
8.732596 7.866903 -1.664204
10.439013 9.415210 -1.653202
12.849810 11.598451 -1.626326
0.001836 -0.070730 -0.003222
22.106232 19.985561 -1.401682
23.920422 21.617064 -0.759913
24.092863 21.758673 -0.010340
24.130016 21.785273 0.745490
19.235918 17.340332 1.200971
18.817837 16.950392 1.765422
19.446882 17.507557 2.436530
36.483898 32.898376 5.736209
36.500904 32.891529 6.897676
0.001836 -0.070730 -0.003222
36.602291 32.950161 9.273280
0.422698 0.307665 -0.338981
0.440227 0.323152 -0.334476
0.487917 0.365875 -0.350767
0.545861 0.417568 -0.370408
2.769490 2.412187 -1.764118
2.938749 2.562269 -1.760357
3.108014 2.712169 -1.746226
3.314215 2.895944 -1.740664
3.562807 3.116441 -1.743760
3.818388 3.344077 -1.734871
4.109102 3.601727 -1.723734
4.438604 3.893683 -1.710688
4.824004 4.236637 -1.697337
5.299387 4.658056 -1.687361
5.412539 4.757502 -1.546228
5.973342 5.254363 -1.512437
7.608443 6.767642 -1.685970
8.782556 7.820605 -1.664991
10.514285 9.370527 -1.656163
12.948417 11.548776 -1.629978
16.846321 15.042225 -1.590592
0.001843 -0.070629 -0.003218
23.918289 21.365725 -0.755803
24.094412 21.509041 -0.010175
24.148914 21.543255 0.742219
24.172991 21.557816 1.502380
19.123692 17.028118 1.784995
19.961842 17.771826 2.488718
36.465603 32.502693 5.703938
36.511196 32.521416 6.864238
0.001843 -0.070629 -0.003218
36.595127 32.563763 9.223907
0.435082 0.314559 -0.347138
0.448931 0.326591 -0.339370
0.485078 0.358559 -0.347004
0.543221 0.409889 -0.366809
2.778310 2.391536 -1.760674
2.956598 2.547852 -1.761965
3.122133 2.693664 -1.745436
3.336823 2.881873 -1.743555
3.583915 3.098487 -1.745106
3.832294 3.317152 -1.732284
4.130169 3.578136 -1.723708
4.458463 3.865652 -1.709557
4.853055 4.212777 -1.698827
5.325051 4.626316 -1.686867
5.423451 4.709935 -1.541199
6.015136 5.228069 -1.514996
7.650909 6.729131 -1.686902
8.833745 7.775319 -1.666056
10.581654 9.325021 -1.658429
13.042836 11.502904 -1.633632
17.050941 15.049715 -1.601556
22.366978 19.757893 -1.403410
23.912539 21.113823 -0.751647
24.086439 21.253462 -0.010011
24.143379 21.296957 0.738479
24.156397 21.294027 1.493788
19.175426 16.876925 1.780785
19.907578 17.512196 2.468993
36.466297 32.128052 5.675143
36.475365 32.114300 6.822740
0.001847 -0.070532 -0.003214
36.575874 32.170765 9.172314
0.429601 0.305279 -0.341008
0.446042 0.319435 -0.335443
0.490252 0.358129 -0.348874
0.542027 0.403242 -0.364108
2.803736 2.384679 -1.767502
2.976190 2.534009 -1.764386
3.141239 2.677659 -1.746957
3.358464 2.865847 -1.745715
3.599797 3.074845 -1.743712
3.859442 3.300725 -1.735462
4.150296 3.552447 -1.723085
4.483177 3.840519 -1.710082
4.875463 4.181496 -1.697784
5.357209 4.598616 -1.688219
5.429588 4.658528 -1.534923
6.052372 5.197592 -1.516442
7.704440 6.695481 -1.689779
8.892012 7.733378 -1.668234
10.661059 9.283210 -1.662086
13.153166 11.462233 -1.638774
17.107273 14.919553 -1.598383
22.599869 19.726404 -1.410495
23.920376 20.869064 -0.747864
24.072458 20.987919 -0.009842
24.134174 21.035088 0.734470
19.495966 16.967087 1.198779
19.204920 16.701380 1.774354
20.057983 17.434557 2.474848
36.454449 31.735075 5.644033
36.475933 31.732260 6.787637
0.001829 -0.070414 -0.003208
36.569233 31.781731 9.123312
0.439549 0.309684 -0.347124
0.453539 0.321553 -0.339355
0.491392 0.354248 -0.347928
0.538002 0.394372 -0.359612
2.821925 2.372167 -1.770051
2.985596 2.512186 -1.761110
3.152824 2.656037 -1.744623
3.373898 2.845367 -1.744966
3.617860 3.054181 -1.743691
3.880213 3.279820 -1.736078
4.171081 3.528627 -1.723059
4.502716 3.812261 -1.708951
4.902774 4.156025 -1.698768
5.388396 4.571665 -1.689570
5.438909 4.612021 -1.529895
6.091534 5.170490 -1.518631
7.744743 6.652452 -1.690060
8.939780 7.684789 -1.668743
10.726716 9.232232 -1.663886
13.258431 11.420389 -1.643543
17.125410 14.762187 -1.591997
22.737572 19.617081 -1.411872
23.916489 20.623898 -0.743898
24.057068 20.731436 -0.009678
24.111542 20.771736 0.730224
24.130690 20.774187 1.477258
19.974678 17.172176 1.836497
20.155350 17.316355 2.474584
36.441311 31.356205 5.614075
36.467762 31.357735 6.752527
0.001833 -0.070317 -0.003203
36.556767 31.402870 9.075045
0.444408 0.309420 -0.349158
0.451886 0.315567 -0.336408
0.492555 0.350300 -0.346981
0.547536 0.397099 -0.364093
2.817132 2.339058 -1.758048
3.007365 2.501012 -1.765160
3.168934 2.637410 -1.744602
3.395379 2.829067 -1.747127
3.634345 3.032213 -1.742983
3.894258 3.251941 -1.733492
4.193791 3.505200 -1.723628
4.527895 3.788912 -1.710026
4.932172 4.130754 -1.700259
5.397247 4.525549 -1.684001
5.440454 4.559200 -1.522788
6.126083 5.139282 -1.519708
7.791951 6.612960 -1.691638
8.991768 7.639788 -1.670086
9.623318 8.175796 -1.485380
13.373228 11.381848 -1.649242
17.165020 14.624584 -1.587709
22.932848 19.549572 -1.416616
23.917189 20.377897 -0.740025
24.063869 20.496609 -0.009523
24.078081 20.494766 0.725613
24.124687 20.520603 1.469501
40.515633 34.500305 3.710345
36.336727 30.913399 4.442205
36.431927 30.973484 5.584351
36.452011 30.980473 6.716579
0.001817 -0.070196 -0.003197
36.554081 31.025177 9.028626
0.438705 0.300304 -0.343027
0.456744 0.315339 -0.338360
0.494963 0.347576 -0.346974
0.543394 0.388281 -0.359597
2.840603 2.331103 -1.764020
3.013742 2.476707 -1.760257
3.190099 2.624025 -1.747665
3.407748 2.805986 -1.744922
3.659306 3.017438 -1.746381
3.911864 3.228381 -1.732826
4.214307 3.481119 -1.723603
4.550021 3.762912 -1.709998
4.956272 4.102415 -1.700230
5.405743 4.479491 -1.678431
5.478984 4.538010 -1.526086
6.172508 5.117981 -1.523750
7.842335 6.578335 -1.694192
9.039009 7.590597 -1.670594
0.001822 -0.070099 -0.003193
0.001822 -0.070099 -0.003193
17.113754 14.410976 -1.575167
23.167404 19.520609 -1.423981
23.912300 20.136787 -0.736156
24.048903 20.245617 -0.009364
24.082960 20.260542 0.722332
24.132839 20.288771 1.462945
41.000618 34.508507 3.736705
36.334740 30.552439 4.420514
36.432186 30.613678 5.557403
36.461880 30.628702 6.685913
0.001822 -0.070099 -0.003193
36.539833 30.652493 8.981463
0.446098 0.302315 -0.347102
0.456291 0.310574 -0.336394
0.494654 0.342564 -0.345088
0.541892 0.381838 -0.356895
2.851622 2.312504 -1.762290
3.028332 2.459454 -1.760236
3.211204 2.610480 -1.750728
3.437108 2.797191 -1.751450
3.677035 2.996439 -1.746359
3.930771 3.205943 -1.732801
4.233208 3.455703 -1.722982
4.569062 3.734319 -1.708868
4.978719 4.072704 -1.699694
5.397429 4.419805 -1.667785
5.503896 4.505276 -1.525637
6.211332 5.090029 -1.525939
7.884992 6.537027 -1.695121
9.079915 7.536031 -1.669987
9.668841 8.023934 -1.477839
0.001826 -0.070001 -0.003188
17.132513 14.258624 -1.569200
18.141634 15.092319 -1.110278
18.158552 15.096128 -0.556999
18.178242 15.107615 -0.007740
18.207695 15.121835 0.542771
24.162121 20.076754 1.457782
41.442566 34.475231 3.759035
36.329792 30.192547 4.398821
36.408138 30.237127 5.527205
36.468929 30.277842 6.655243
0.001826 -0.070001 -0.003188
36.528553 30.286034 8.935778
0.442949 0.295453 -0.343014
0.459795 0.309183 -0.337365
0.507888 0.348843 -0.352594
0.538979 0.374266 -0.353297
2.873637 2.303093 -1.767407
3.051740 2.448549 -1.765099
3.226597 2.592056 -1.750709
3.463603 2.785792 -1.756523
3.696589 2.975910 -1.747019
3.951026 3.184587 -1.733418
4.250478 3.428977 -1.721763
4.593021 3.708509 -1.709392
5.005456 4.046579 -1.700677
5.393911 4.363110 -1.658525
5.540000 4.480134 -1.528102
6.243343 5.054471 -1.526274
7.933537 6.500463 -1.697351
9.138579 7.493548 -1.672444
9.765776 8.010065 -1.485454
0.001808 -0.069884 -0.003182
17.127993 14.083183 -1.560997
23.579254 19.408133 -1.435156
18.364250 15.089514 -0.560508
18.352770 15.069678 -0.007665
18.288641 15.011828 0.542681
18.281921 14.995996 1.097041
18.271591 14.977174 1.647411
18.268269 14.964159 2.199488
18.308748 14.992538 2.764654
18.311239 14.984320 3.323623
0.001808 -0.069884 -0.003182
36.517311 29.923214 8.890829
0.446426 0.294034 -0.344027
0.460702 0.305450 -0.336379
0.503522 0.340353 -0.347890
0.549907 0.377964 -0.358676
2.890473 2.288409 -1.769101
3.063360 2.428742 -1.763453
3.238027 2.569514 -1.748374
3.481920 2.766500 -1.757228
3.712610 2.953506 -1.746312
3.968779 3.160036 -1.732752
4.275585 3.407458 -1.723525
4.610231 3.678476 -1.707711
5.035791 4.021817 -1.702675
5.396660 4.313717 -1.651570
5.564578 4.447064 -1.527654
6.277320 5.022285 -1.527351
7.976938 6.457174 -1.698280
9.189634 7.447203 -1.673790
11.083791 8.990723 -1.677298
13.760109 11.171170 -1.664032
0.001813 -0.069786 -0.003178
23.649435 19.231478 -1.432319
23.901554 19.423906 -0.724928
24.047651 19.536602 -0.008907
24.094343 19.561243 0.712621
24.104595 19.556143 1.440585
42.406559 34.447350 3.810106
18.501213 14.978289 2.217198
36.406715 29.522940 5.474463
36.405956 29.512648 6.580561
18.388222 14.860991 3.883695
18.395456 14.856634 4.455388
0.457861 0.299156 -0.351162
0.461491 0.301814 -0.335392
0.509999 0.340888 -0.350701
0.574711 0.392880 -0.373031
2.897941 2.267837 -1.765656
3.081952 2.414640 -1.765874
3.254588 2.552117 -1.749124
3.489005 2.740125 -1.752841
3.729954 2.932206 -1.746290
3.988219 3.139141 -1.733369
4.290483 3.380061 -1.721713
4.640717 3.659235 -1.710993
5.067595 4.001044 -1.705688
5.386896 4.254694 -1.640925
5.594265 4.419734 -1.528871
6.301026 4.983617 -1.526204
8.025093 6.419978 -1.700507
9.249681 7.408014 -1.676806
11.160480 8.946878 -1.680957
13.846270 11.109425 -1.666567
17.091021 13.724963 -1.542915
23.679277 19.029945 -1.427337
23.904125 19.204988 -0.721630
24.041718 19.302641 -0.008758
24.074535 19.315779 0.708828
24.104778 19.333752 1.434208
42.912277 34.450474 3.837869
36.789345 29.515009 4.392509
18.703829 14.960247 2.798243
36.759331 29.450329 6.613823
0.001817 -0.069689 -0.003174
36.656113 29.337572 8.841992
0.447836 0.287028 -0.341972
0.471728 0.305880 -0.341265
0.509514 0.335954 -0.348815
0.001799 -0.069571 -0.003168
2.911351 2.251232 -1.765638
3.091914 2.393567 -1.763412
3.276405 2.539774 -1.752961
3.508030 2.722445 -1.754274
3.744217 2.908480 -1.744897
4.002186 3.112712 -1.731424
4.319223 3.362562 -1.725263
4.653061 3.625410 -1.707656
5.092447 3.973143 -1.706165
5.390356 4.206800 -1.634434
5.620794 4.386608 -1.528838
7.145697 5.592033 -1.722241
8.073521 6.385068 -1.703062
9.295640 7.357268 -1.677312
11.226122 8.896991 -1.683221
13.930213 11.049511 -1.669102
17.092155 13.564278 -1.535835
23.768280 18.883951 -1.426191
23.902056 18.977518 -0.718141
24.033892 19.069395 -0.008610
24.066582 19.089081 0.705536
24.098791 19.101530 1.427367
43.388203 34.424068 3.862850
37.235378 29.512014 4.424961
37.184658 29.461937 5.541159
37.147320 29.412003 6.653201
0.001799 -0.069571 -0.003168
37.071129 29.321602 8.901365
0.459382 0.291952 -0.349108
0.467088 0.297802 -0.336357
0.517462 0.337412 -0.352565
0.001803 -0.069474 -0.003163
2.927913 2.236281 -1.767331
3.106026 2.375860 -1.763392
3.287466 2.516998 -1.750626
3.521602 2.699407 -1.752797
3.767193 2.891661 -1.747611
4.025437 3.092566 -1.733320
4.331997 3.331111 -1.722257
4.680303 3.603441 -1.709835
5.113278 3.940617 -1.705121
0.001803 -0.069474 -0.003163
5.654035 4.360343 -1.530887
7.182811 5.554570 -1.723315
8.119402 6.343320 -1.704641
9.363096 7.323406 -1.681722
11.297822 8.845152 -1.685950
14.020931 10.986551 -1.672008
17.095118 13.406536 -1.529034
23.822187 18.697058 -1.422609
23.893608 18.740337 -0.714418
24.033617 18.844301 -0.008465
24.061867 18.853466 0.702204
24.109919 18.878185 1.421458
43.910706 34.429077 3.891872
37.661865 29.499020 4.455555
37.630997 29.454426 5.581709
37.584404 29.408083 6.701200
0.001803 -0.069474 -0.003163
37.496933 29.298931 8.961857
0.453314 0.283069 -0.342978
0.478818 0.302727 -0.343209
0.523971 0.337798 -0.355375
0.001808 -0.069376 -0.003159
2.941139 2.219512 -1.767313
3.121504 2.359179 -1.764187
3.306677 2.501551 -1.752919
3.543349 2.683797 -1.755686
3.779722 2.866594 -1.745535
4.043566 3.069472 -1.733296
4.352987 3.307436 -1.722826
4.702868 3.577757 -1.710358
5.128623 3.905319 -1.702557
5.388472 4.105363 -1.619146
5.682538 4.330235 -1.531688
7.221271 5.518069 -1.724758
8.165504 6.303895 -1.706544
9.413295 7.275620 -1.683066
11.369292 8.795990 -1.688911
14.101594 10.919276 -1.673983
17.106285 13.256558 -1.523074
23.813129 18.468962 -1.415571
23.890987 18.516697 -0.711026
42.275284 32.808956 -0.012244
24.064575 18.632601 0.699237
24.086010 18.636301 1.413780
44.409489 34.409626 3.918668
38.097256 29.488224 4.487082
38.048313 29.429790 5.618542
38.016361 29.395262 6.748090
19.277746 14.860828 3.998409
19.285835 14.856788 4.587103
0.462140 0.285829 -0.348073
0.472676 0.293687 -0.337323
0.533285 0.340292 -0.360063
0.001792 -0.069256 -0.003153
2.952828 2.201565 -1.766438
3.143094 2.346316 -1.768236
3.321407 2.482602 -1.752898
3.556182 2.661214 -1.754208
3.798563 2.845391 -1.746197
4.058568 3.043952 -1.731991
4.375386 3.284770 -1.723993
4.721370 3.547576 -1.709229
5.154495 3.878208 -1.703542
5.388413 4.054535 -1.611732
5.711643 4.298960 -1.532488
7.257388 5.477675 -1.725459
8.209854 6.262950 -1.708123
9.478647 7.236712 -1.686918
11.437433 8.743872 -1.691407
14.185117 10.853857 -1.676331
17.109102 13.096611 -1.516273
23.826010 18.259846 -1.409938
23.884998 18.292501 -0.707588
24.043606 18.401596 -0.008180
24.076668 18.420835 0.696589
24.099752 18.425722 1.408421
0.001792 -0.069256 -0.003153
38.540531 29.467857 4.518798
38.509129 29.433979 5.661644
38.473450 29.386152 6.798323
0.001792 -0.069256 -0.003153
38.358501 29.268032 9.086907
0.458763 0.279030 -0.343984
0.477589 0.293106 -0.339276
0.537118 0.338298 -0.360996
2.826852 2.079671 -1.785944
2.973423 2.189625 -1.770697
3.150090 2.322231 -1.764147
3.335004 2.461876 -1.752105
3.576768 2.643567 -1.756370
3.818777 2.825209 -1.747542
4.076962 3.019956 -1.731967
4.393676 3.257729 -1.723371
4.745791 3.521970 -1.710303
5.182446 3.851193 -1.705033
5.384825 4.001504 -1.603395
5.743683 4.269852 -1.534121
7.299566 5.441771 -1.727643
8.256673 6.221466 -1.710026
9.532818 7.188916 -1.688816
11.500545 8.684452 -1.692972
14.265483 10.781728 -1.678119
17.097935 12.927431 -1.508355
23.827698 18.037388 -1.403554
