# This PCD file was generated using the MATLAB® pcwrite function
# from Computer Vision Toolbox®.
# .PCD v.7 - Point Cloud Data file format
VERSION .7
FIELDS x y z
SIZE 4 4 4
TYPE F F F
COUNT 1 1 1
WIDTH 1587
HEIGHT 1
VIEWPOINT 0 0 0 1 0 0 0
POINTS 1587
DATA ascii
-6.962197 -29.631899 -1.414866
0.000963 -0.024539 -0.001055
-8.049417 -34.174488 0.004206
0.000963 -0.024539 -0.001055
0.000963 -0.024539 -0.001055
-3.214407 -13.611001 0.977350
0.000963 -0.024539 -0.001055
-3.252535 -13.729407 1.648306
-3.614648 -15.242867 2.199669
-3.258598 -13.722935 2.314517
-3.324207 -13.977003 2.703576
0.000945 -0.024421 -0.001050
0.000945 -0.024421 -0.001050
-0.140074 -0.611721 -0.322080
-0.148274 -0.644875 -0.321324
-0.154427 -0.669458 -0.314980
-0.165213 -0.713631 -0.316571
-0.203942 -0.873004 -0.365530
-0.225011 -0.958856 -0.376285
-1.262488 -5.245304 -1.955236
-1.386234 -5.747923 -1.990019
0.000945 -0.024421 -0.001050
-1.674204 -6.920208 -2.034746
-1.860216 -7.674285 -2.060836
-2.118288 -8.728436 -2.122242
-2.370193 -9.748217 -2.126909
-2.480231 -10.184138 -1.969880
-2.806692 -11.733387 -1.977448
-3.342779 -13.958318 -2.012746
-4.605542 -19.191063 -2.299796
-5.933985 -24.680410 -2.363223
-7.780694 -32.327579 -2.319541
0.000945 -0.024421 -0.001050
0.000945 -0.024421 -0.001050
-14.458971 -59.820930 0.008129
-14.457577 -59.723755 1.434233
-13.977251 -57.652534 2.773175
-3.287840 -13.572782 0.975947
-14.542922 -59.847691 5.752015
-3.330423 -13.706484 1.647836
0.000945 -0.024421 -0.001050
0.000945 -0.024421 -0.001050
-3.345658 -13.716972 2.656875
0.000950 -0.024324 -0.001046
0.000950 -0.024324 -0.001046
-0.146413 -0.622797 -0.328646
-0.157404 -0.666465 -0.332983
-0.160312 -0.677218 -0.319252
-0.168854 -0.710758 -0.315755
-0.207924 -0.868133 -0.363986
-0.229498 -0.953811 -0.374827
-1.294330 -5.241263 -1.956603
-1.418249 -5.736051 -1.988738
-1.552800 -6.268236 -2.007766
-1.713659 -6.904458 -2.033094
-1.907473 -7.676495 -2.064382
-2.169400 -8.713713 -2.121783
0.000950 -0.024324 -0.001046
-2.536623 -10.153875 -1.966922
-2.864125 -11.676688 -1.970650
-3.397870 -13.826601 -1.996625
-4.720063 -19.181473 -2.301889
-6.067645 -24.612888 -2.360085
-7.885915 -31.932138 -2.294502
-14.720586 -59.538376 -2.850954
0.000950 -0.024324 -0.001046
0.000950 -0.024324 -0.001046
0.000950 -0.024324 -0.001046
0.000950 -0.024324 -0.001046
0.000950 -0.024324 -0.001046
0.000950 -0.024324 -0.001046
-3.392267 -13.619534 1.639688
-3.825354 -15.331953 2.218881
0.000950 -0.024324 -0.001046
0.000950 -0.024324 -0.001046
0.000932 -0.024206 -0.001041
0.000932 -0.024206 -0.001041
-0.151267 -0.626935 -0.331457
-0.158152 -0.653271 -0.326698
-0.163617 -0.674429 -0.318393
-0.174604 -0.716747 -0.319003
-0.215207 -0.875709 -0.367834
-0.235744 -0.955993 -0.376279
-1.325733 -5.239069 -1.958653
-1.450617 -5.725859 -1.988099
-1.588710 -6.259085 -2.007766
-1.751795 -6.888785 -2.031442
-1.952926 -7.670891 -2.065901
-2.224196 -8.719828 -2.126393
-2.332962 -9.138239 -1.999345
-2.591147 -10.131845 -1.965445
-2.928829 -11.642161 -1.967738
-3.431187 -13.624283 -1.970217
-4.840364 -19.180016 -2.305144
-6.207484 -24.553186 -2.357872
-7.955767 -31.437397 -2.262222
-16.405409 -64.701744 -3.102862
0.000932 -0.024206 -0.001041
0.000932 -0.024206 -0.001041
-3.729990 -14.678599 0.352280
-3.732939 -14.679486 0.706466
-3.490802 -13.709141 0.988657
0.000932 -0.024206 -0.001041
-3.482260 -13.645866 1.645265
0.000932 -0.024206 -0.001041
-3.459815 -13.528587 2.291456
-3.386761 -13.224268 2.568662
0.000937 -0.024108 -0.001037
0.000937 -0.024108 -0.001037
-0.157298 -0.636221 -0.337085
-0.158072 -0.638434 -0.319518
-0.164529 -0.662891 -0.313257
-0.177537 -0.712127 -0.317374
-0.219956 -0.874387 -0.367830
-0.241420 -0.956347 -0.377001
-1.351485 -5.218759 -1.953867
-1.481935 -5.715725 -1.987459
-1.624426 -6.253717 -2.008958
-1.790564 -6.880648 -2.031994
-1.999978 -7.676610 -2.070458
-2.268742 -8.692109 -2.122709
-2.327243 -8.909240 -1.951978
-2.643531 -10.101896 -1.962488
-2.961548 -11.501319 -1.946686
-3.482271 -13.508921 -1.956320
-4.489488 -17.383219 -2.092024
-6.338267 -24.494925 -2.355661
-8.076862 -31.183821 -2.247206
0.000937 -0.024108 -0.001037
0.000937 -0.024108 -0.001037
-14.949797 -57.489075 0.007692
0.000937 -0.024108 -0.001037
-3.697716 -14.209829 0.684776
-4.971863 -19.069330 1.378291
0.000937 -0.024108 -0.001037
-3.527052 -13.506959 1.630839
-3.852036 -14.727980 2.137504
0.000937 -0.024108 -0.001037
-3.562704 -13.594742 2.644628
0.000945 -0.024008 -0.001033
0.000945 -0.024008 -0.001033
-0.158663 -0.626632 -0.332387
-0.163555 -0.644277 -0.323102
-0.170759 -0.670488 -0.317529
-0.183963 -0.719779 -0.321436
-0.225471 -0.874740 -0.368597
-0.249508 -0.963745 -0.380634
-1.384200 -5.217802 -1.956602
-1.518129 -5.711943 -1.989378
-1.664897 -6.252785 -2.011935
-1.831181 -6.869804 -2.031995
-2.045146 -7.658540 -2.068941
-2.334705 -8.732913 -2.136076
0.000945 -0.024008 -0.001033
-2.692739 -10.039912 -1.953611
-3.019462 -11.445273 -1.940211
-3.546960 -13.430487 -1.947984
0.000945 -0.024008 -0.001033
-6.471495 -24.412533 -2.351410
-8.222532 -30.988731 -2.236647
0.000945 -0.024008 -0.001033
-21.422693 -80.465904 -1.921576
0.000945 -0.024008 -0.001033
0.000945 -0.024008 -0.001033
-3.795082 -14.227402 0.686733
-3.678490 -13.781551 0.996893
-3.592335 -13.440656 1.296840
-5.318167 -19.856823 2.403270
0.000945 -0.024008 -0.001033
0.000945 -0.024008 -0.001033
0.000945 -0.024008 -0.001033
0.000927 -0.023890 -0.001027
0.000927 -0.023890 -0.001027
-0.164428 -0.634130 -0.337078
-0.173673 -0.667367 -0.335658
-0.177787 -0.681607 -0.323514
-0.197079 -0.752096 -0.336883
-0.228439 -0.866181 -0.365510
-0.254433 -0.960377 -0.379902
-1.413089 -5.206003 -1.955233
-1.549343 -5.697514 -1.987458
-1.700203 -6.241158 -2.011341
-1.871057 -6.860890 -2.032547
-2.087506 -7.640940 -2.067424
-2.332781 -8.529655 -2.089534
0.000927 -0.023890 -0.001027
-2.748254 -10.016556 -1.952134
-3.061939 -11.341872 -1.925637
-3.599216 -13.317969 -1.934643
0.000927 -0.023890 -0.001027
-6.606514 -24.355562 -2.349570
-7.114591 -26.208319 -1.894455
0.000927 -0.023890 -0.001027
0.000927 -0.023890 -0.001027
-15.865891 -58.211365 0.007746
-3.652702 -13.404253 0.323016
0.000927 -0.023890 -0.001027
0.000927 -0.023890 -0.001027
-3.489008 -12.760892 1.233012
0.000927 -0.023890 -0.001027
-3.918179 -14.297873 2.081485
-3.591737 -13.090995 2.227507
-4.019686 -14.627617 2.855109
0.000932 -0.023793 -0.001023
-0.121030 -0.464075 -0.257632
-0.167936 -0.633066 -0.337074
-0.174514 -0.655908 -0.330270
-0.188357 -0.704842 -0.335485
-0.212547 -0.791312 -0.355581
-0.233287 -0.864740 -0.365506
-0.261814 -0.965976 -0.382808
-1.444403 -5.203108 -1.957284
-1.580938 -5.684751 -1.986179
-1.735443 -6.229319 -2.010746
-1.911424 -6.853590 -2.033649
-2.129223 -7.621229 -2.065400
-2.297583 -8.216163 -2.015801
-2.448462 -8.742219 -1.924559
-2.802508 -9.989119 -1.949918
-3.113868 -11.276393 -1.917542
-3.625955 -13.117514 -1.908511
-4.579668 -16.538158 -1.999616
-6.742169 -24.301678 -2.348100
-8.500922 -30.613077 -2.216497
-7.221425 -25.974417 -1.253294
0.000932 -0.023793 -0.001023
0.000932 -0.023793 -0.001023
-3.768909 -13.523477 0.326420
-3.803346 -13.628463 0.659803
0.000932 -0.023793 -0.001023
-3.560625 -12.734754 1.232448
-3.473140 -12.405799 1.504757
-4.121254 -14.705909 2.144449
-3.737917 -13.322678 2.270663
-3.691998 -13.141736 2.568638
0.000914 -0.023675 -0.001018
-0.135928 -0.506874 -0.283092
-0.172907 -0.637059 -0.339884
-0.184503 -0.677131 -0.341929
-0.197708 -0.722768 -0.344890
-0.218456 -0.795244 -0.358017
-0.238118 -0.863280 -0.365503
-0.265193 -0.957175 -0.379895
0.000914 -0.023675 -0.001018
-1.614009 -5.677273 -1.986819
-1.767459 -6.206257 -2.006577
-1.951220 -6.844217 -2.034201
-2.171299 -7.603171 -2.063884
-2.292639 -8.021235 -1.971103
-2.489951 -8.697792 -1.917913
-2.855464 -9.957603 -1.946962
-3.173724 -11.241094 -1.914632
-3.686682 -13.044862 -1.901009
-4.635060 -16.371904 -1.982713
-6.874714 -24.237446 -2.345702
-7.341849 -25.865402 -1.875693
-7.463056 -26.257055 -1.269006
0.000914 -0.023675 -0.001018
0.000914 -0.023675 -0.001018
-3.794946 -13.320722 0.322024
0.000914 -0.023675 -0.001018
0.000914 -0.023675 -0.001018
0.000914 -0.023675 -0.001018
0.000914 -0.023675 -0.001018
-4.051068 -14.143107 2.065589
-5.125771 -17.864382 3.051465
0.000914 -0.023675 -0.001018
0.000919 -0.023578 -0.001014
-0.148390 -0.539488 -0.302678
-0.175942 -0.634250 -0.338942
-0.189251 -0.679391 -0.343720
-0.203260 -0.726700 -0.347451
-0.222901 -0.793855 -0.358013
-0.242953 -0.861779 -0.365498
-0.271082 -0.957309 -0.380619
-1.502340 -5.180506 -1.955232
-1.647582 -5.671415 -1.988098
-1.800872 -6.188540 -2.004195
-1.990977 -6.834614 -2.034753
-2.218701 -7.603424 -2.067428
-2.300878 -7.878921 -1.939306
-2.531570 -8.655045 -1.911682
-2.906501 -9.920144 -1.942894
-3.217381 -11.150496 -1.902326
-3.724648 -12.895864 -1.882386
-4.697556 -16.236084 -1.969515
-7.006161 -24.170605 -2.343121
-8.817368 -30.392273 -2.207765
-7.716527 -26.566542 -1.286112
0.000919 -0.023578 -0.001014
-4.473647 -15.383073 0.001277
-4.182711 -14.365777 0.347987
0.000919 -0.023578 -0.001014
-3.789911 -12.993816 0.945843
-3.714533 -12.719458 1.235042
-4.393557 -15.020217 1.828739
-3.634076 -12.420419 1.816487
-4.267106 -14.560516 2.490353
-4.153152 -14.154088 2.776154
0.000924 -0.023480 -0.001010
-0.149389 -0.531818 -0.298756
-0.179947 -0.634820 -0.339877
-0.192514 -0.676466 -0.342819
-0.207806 -0.727152 -0.348304
-0.229029 -0.797665 -0.360449
-0.250916 -0.870887 -0.370119
-0.279646 -0.966335 -0.384978
-1.533975 -5.174988 -1.956599
-1.676825 -5.650819 -1.984257
-1.839037 -6.187124 -2.007174
-2.031881 -6.824417 -2.035305
-2.255628 -7.568180 -2.061355
0.000924 -0.023480 -0.001010
-2.578212 -8.624776 -1.908360
-2.960603 -9.887573 -1.939938
-3.270199 -11.093814 -1.895850
-3.774508 -12.784168 -1.869322
-4.738884 -16.033440 -1.948211
-7.138216 -24.106863 -2.340909
-7.931676 -26.749271 -1.946453
0.000924 -0.023480 -0.001010
0.000924 -0.023480 -0.001010
0.000924 -0.023480 -0.001010
0.000924 -0.023480 -0.001010
-3.972558 -13.342185 0.649132
0.000924 -0.023480 -0.001010
-3.829688 -12.830648 1.248061
-3.988820 -13.354175 1.628243
0.000924 -0.023480 -0.001010
-5.327064 -17.780382 3.047550
0.000924 -0.023480 -0.001010
0.000906 -0.023362 -0.001004
-0.158458 -0.550843 -0.310505
-0.183582 -0.633623 -0.339873
-0.197962 -0.680317 -0.345504
-0.211987 -0.725788 -0.348299
-0.233474 -0.796230 -0.360446
-0.255410 -0.867498 -0.369344
-0.283078 -0.957410 -0.382064
-1.563591 -5.165968 -1.956599
-1.711249 -5.644308 -1.985539
-1.876118 -6.177816 -2.007769
-2.066509 -6.797778 -2.030897
-2.287888 -7.513850 -2.050220
-2.345256 -7.696816 -1.901061
-2.621926 -8.590995 -1.904208
-3.013871 -9.858976 -1.937721
-3.335208 -11.072229 -1.895531
-3.842149 -12.743173 -1.866547
-4.762985 -15.771060 -1.919723
-7.269914 -24.027800 -2.337400
-9.197057 -30.370972 -2.213931
0.000906 -0.023362 -0.001004
-23.120749 -76.118980 -1.836206
-4.657457 -15.344847 0.001263
-4.386685 -14.436213 0.350915
-4.018260 -13.209356 0.643799
-3.899880 -12.812936 0.935905
-4.003942 -13.137774 1.280244
-3.754734 -12.306284 1.502875
-3.794903 -12.429919 1.824278
-4.293331 -14.041474 2.409858
0.000906 -0.023362 -0.001004
0.000911 -0.023265 -0.001001
-0.158913 -0.541489 -0.305604
-0.184479 -0.624014 -0.335176
-0.198565 -0.668819 -0.340119
-0.216026 -0.724448 -0.348295
-0.237385 -0.793016 -0.359628
-0.260277 -0.865894 -0.369340
-0.287897 -0.953876 -0.381334
-1.591483 -5.151395 -1.954547
0.000911 -0.023265 -0.001001
-1.910372 -6.163162 -2.006579
-2.102604 -6.776484 -2.028143
-2.280852 -7.339738 -2.006178
0.000911 -0.023265 -0.001001
-2.659522 -8.538302 -1.895899
-3.055164 -9.792588 -1.928103
-3.396396 -11.045213 -1.894240
-3.894282 -12.652593 -1.856542
-4.687066 -15.204221 -1.853935
-7.398541 -23.954996 -2.334446
-9.430511 -30.508030 -2.227874
-13.167512 -42.534340 -2.070115
-23.483068 -75.742004 -1.830402
-9.764707 -31.490751 0.003642
-4.267261 -13.759498 0.334983
0.000911 -0.023265 -0.001001
-4.491697 -14.455101 1.058079
-3.827536 -12.306410 1.201162
-3.820626 -12.269194 1.501009
-4.964229 -15.924047 2.342516
0.000911 -0.023265 -0.001001
0.000911 -0.023265 -0.001001
0.000894 -0.023147 -0.000995
-0.169754 -0.565400 -0.320291
-0.189540 -0.627877 -0.337987
-0.202816 -0.669257 -0.341012
-0.219517 -0.721361 -0.347436
-0.244024 -0.798487 -0.362877
-0.262882 -0.857248 -0.366255
-0.294926 -0.957433 -0.383512
-1.622112 -5.145617 -1.955914
-1.772978 -5.614974 -1.982338
-1.950873 -6.168332 -2.011939
-2.142589 -6.767829 -2.029247
-2.275981 -7.178882 -1.965682
0.000894 -0.023147 -0.000995
-2.697783 -8.489194 -1.888422
-3.105958 -9.757881 -1.924777
-3.457418 -11.017825 -1.892948
-3.957969 -12.601534 -1.852377
-4.748691 -15.095404 -1.843980
-7.524755 -23.875826 -2.330936
-9.667645 -30.649117 -2.242236
0.000894 -0.023147 -0.000995
-23.861095 -75.424408 -1.826077
-4.490552 -14.207006 0.001089
0.000894 -0.023147 -0.000995
-4.455055 -14.060797 0.687893
-3.983411 -12.567327 0.921215
-3.887296 -12.249917 1.197807
-3.925983 -12.356685 1.514492
-6.273066 -19.716370 2.906721
-5.647226 -17.730570 3.055309
-5.970337 -18.720953 3.699981
0.000899 -0.023050 -0.000991
-0.171815 -0.560977 -0.318328
-0.192468 -0.624994 -0.337045
-0.209814 -0.678181 -0.346391
-0.226869 -0.730292 -0.352564
-0.247485 -0.793450 -0.361247
-0.268818 -0.859118 -0.367792
-0.300320 -0.955595 -0.383507
-1.654778 -5.142945 -1.958648
-1.806292 -5.608178 -1.983618
-1.986218 -6.156884 -2.011939
-2.178985 -6.743925 -2.025942
-2.269939 -7.020164 -1.925691
-2.455268 -7.582222 -1.883092
-2.729785 -8.417120 -1.875957
-3.137447 -9.658827 -1.908869
-3.501338 -10.937502 -1.882585
-4.022801 -12.547550 -1.847933
-4.714361 -14.691367 -1.797885
-7.652725 -23.803600 -2.328170
-9.905355 -30.765860 -2.255067
-13.477506 -41.826427 -2.043145
-24.261452 -75.182976 -1.823642
-4.880874 -15.127759 0.001220
0.000899 -0.023050 -0.000991
-4.266239 -13.202311 0.646958
0.000899 -0.023050 -0.000991
-3.959728 -12.226542 1.197801
-3.991387 -12.316765 1.512394
-5.210313 -16.051199 2.370083
-5.819945 -17.904951 3.091321
-5.069905 -15.591531 3.086294
0.000883 -0.022929 -0.000986
-0.175008 -0.559835 -0.318323
-0.194956 -0.620355 -0.335162
-0.213151 -0.675109 -0.345489
-0.229230 -0.723723 -0.349995
-0.253637 -0.797101 -0.363682
-0.273199 -0.855647 -0.367017
-0.306831 -0.957293 -0.384959
-1.684219 -5.133221 -1.958648
-1.839588 -5.601178 -1.984899
-2.017895 -6.134356 -2.008366
-2.213402 -6.718384 -2.022086
0.000883 -0.022929 -0.000986
-2.493212 -7.551239 -1.878947
-2.769825 -8.381208 -1.871388
-3.157760 -9.540306 -1.888889
-3.550012 -10.867684 -1.874168
-4.067057 -12.439391 -1.835426
0.000883 -0.022929 -0.000986
-7.781185 -23.719835 -2.324473
0.000883 -0.022929 -0.000986
-13.745110 -41.806400 -2.046148
0.000883 -0.022929 -0.000986
0.000883 -0.022929 -0.000986
0.000883 -0.022929 -0.000986
-4.415906 -13.401300 0.657977
-5.041354 -15.277836 1.124736
0.000883 -0.022929 -0.000986
-4.035213 -12.212405 1.502387
0.000883 -0.022929 -0.000986
-7.125611 -21.507860 3.721193
0.000883 -0.022929 -0.000986
0.000888 -0.022832 -0.000982
-0.182978 -0.573624 -0.327134
-0.201086 -0.627526 -0.339852
-0.214529 -0.667010 -0.341896
-0.232002 -0.718883 -0.348279
-0.257953 -0.795567 -0.363679
-0.278440 -0.855738 -0.367783
-0.313246 -0.958973 -0.386409
-1.712111 -5.121851 -1.957964
-1.871898 -5.594308 -1.986179
-2.051964 -6.122897 -2.008367
-2.248881 -6.700356 -2.020434
-2.284829 -6.803075 -1.873044
-2.525241 -7.507579 -1.871574
-2.798885 -8.313625 -1.859756
-3.189408 -9.459129 -1.876312
-3.584248 -10.768957 -1.860565
-4.116210 -12.356277 -1.826534
-4.933868 -14.788533 -1.816667
-7.913300 -23.675936 -2.324488
0.000888 -0.022832 -0.000982
-13.990120 -41.764931 -2.047943
0.000888 -0.022832 -0.000982
-5.269497 -15.719663 0.001299
0.000888 -0.022832 -0.000982
-4.506429 -13.423672 0.660307
0.000888 -0.022832 -0.000982
-4.915243 -14.613840 1.437618
-4.105714 -12.197116 1.503312
0.000888 -0.022832 -0.000982
-6.217536 -18.425739 3.193198
0.000888 -0.022832 -0.000982
0.000893 -0.022734 -0.000978
-0.188590 -0.578986 -0.331048
-0.203073 -0.621155 -0.337031
-0.220173 -0.670667 -0.344585
-0.237994 -0.722483 -0.350842
-0.262080 -0.792136 -0.362862
-0.285900 -0.860905 -0.370863
-0.320773 -0.962217 -0.388586
0.000893 -0.022734 -0.000978
-1.904035 -5.577279 -1.984259
-2.085436 -6.099309 -2.004795
-2.260231 -6.600933 -1.994537
-2.321774 -6.776075 -1.869501
-2.562649 -7.467986 -1.865584
-2.841795 -8.274076 -1.854771
-3.250141 -9.448668 -1.878167
-3.641500 -10.722483 -1.856358
-3.690775 -10.860954 -1.608528
-5.000190 -14.688452 -1.808102
-7.337577 -21.518236 -2.116917
-10.648905 -31.199837 -2.300243
-14.263383 -41.733479 -2.050668
-25.581341 -74.785988 -1.824739
-5.371041 -15.704124 0.001292
-5.081215 -14.841210 0.364880
-4.453258 -13.002763 0.640864
-4.286450 -12.502474 0.923567
-4.389909 -12.796320 1.261043
-5.218062 -15.188293 1.876819
-5.365172 -15.598059 2.316561
-4.884568 -14.194983 2.464010
-4.145495 -12.037416 2.395519
0.000875 -0.022616 -0.000972
-0.192828 -0.581116 -0.333003
-0.207558 -0.623250 -0.338906
-0.223794 -0.669315 -0.344580
-0.243211 -0.724403 -0.352549
-0.267570 -0.794003 -0.364484
-0.289375 -0.855693 -0.369317
-0.325548 -0.958497 -0.387857
-1.769096 -5.094176 -1.955228
-1.939713 -5.576856 -1.988099
-2.119112 -6.083495 -2.003605
-2.256264 -6.471959 -1.959273
-2.356107 -6.749722 -1.865960
-2.597701 -7.435111 -1.860979
-2.874344 -8.215005 -1.845215
-3.300437 -9.418561 -1.875949
-3.693411 -10.679495 -1.852474
-3.747937 -10.830737 -1.607144
-5.059797 -14.596404 -1.800232
-7.257306 -20.901287 -2.060165
-3.774573 -10.876792 -0.803002
0.000875 -0.022616 -0.000972
-26.036810 -74.711067 -1.826599
0.000875 -0.022616 -0.000972
-4.861287 -13.946057 0.343441
0.000875 -0.022616 -0.000972
0.000875 -0.022616 -0.000972
-4.293545 -12.285847 1.213035
-5.568138 -15.907724 1.969840
-5.562148 -15.881728 2.363361
-5.653271 -16.123528 2.805061
-5.016350 -14.293816 2.851317
0.000880 -0.022519 -0.000968
-0.197206 -0.583175 -0.334958
-0.213379 -0.628585 -0.342656
-0.226324 -0.664532 -0.342782
-0.245435 -0.717772 -0.349979
-0.269707 -0.785396 -0.361227
-0.293545 -0.852168 -0.368543
-0.332806 -0.961760 -0.390034
-1.799122 -5.083499 -1.955229
-1.976730 -5.579772 -1.993219
-2.152040 -6.065688 -2.001818
-2.256352 -6.351525 -1.926765
-2.390233 -6.723181 -1.862417
-2.627224 -7.379128 -1.850841
-2.911008 -8.164555 -1.837738
-3.320305 -9.298799 -1.855971
-3.750080 -10.644923 -1.850210
-3.806035 -10.791390 -1.604644
-5.095893 -14.432086 -1.783558
0.000880 -0.022519 -0.000968
-3.831519 -10.833435 -0.801476
-3.888686 -10.988573 -0.541997
-26.507013 -74.674820 -1.829472
0.000880 -0.022519 -0.000968
0.000880 -0.022519 -0.000968
-4.798725 -13.501863 0.668229
-4.343403 -12.209657 0.905524
-5.280433 -14.821971 1.467178
-5.639427 -15.819180 1.962855
-5.599416 -15.689847 2.339669
-5.168850 -14.469332 2.522082
-5.106343 -14.286816 2.855756
0.000863 -0.022401 -0.000963
-0.197577 -0.573680 -0.330057
-0.214568 -0.620562 -0.338898
-0.230743 -0.664745 -0.343675
-0.251899 -0.723032 -0.353396
-0.275955 -0.788880 -0.363663
-0.299728 -0.853764 -0.370079
-0.337590 -0.957956 -0.389302
-1.830143 -5.078245 -1.957280
-2.001586 -5.548592 -1.986179
-2.182233 -6.040521 -1.997650
-2.251394 -6.224473 -1.892052
-2.415552 -6.672823 -1.852293
-2.634244 -7.266855 -1.826418
-2.928301 -8.070854 -1.820287
-3.347812 -9.213517 -1.842652
-3.808971 -10.611265 -1.848272
-3.862563 -10.754305 -1.602425
0.000863 -0.022401 -0.000963
-7.326409 -20.331547 -2.012327
-3.987170 -11.070059 -0.820696
-3.984195 -11.049768 -0.546183
-26.991934 -74.675117 -1.833315
0.000863 -0.022401 -0.000963
0.000863 -0.022401 -0.000963
-4.511225 -12.467209 0.618141
-4.471334 -12.343751 0.917400
-5.364297 -14.795909 1.467542
0.000863 -0.022401 -0.000963
-5.806660 -15.979231 2.387859
0.000863 -0.022401 -0.000963
-4.545500 -12.493678 2.501855
0.000868 -0.022304 -0.000959
-0.202453 -0.577371 -0.332991
-0.218525 -0.620895 -0.339832
-0.235551 -0.666703 -0.345466
-0.255306 -0.719759 -0.352537
-0.279725 -0.785460 -0.362847
-0.309449 -0.865834 -0.376241
-0.342954 -0.955900 -0.389300
-1.860524 -5.071034 -1.958646
-2.034017 -5.538639 -1.986818
-2.219467 -6.034924 -2.000033
-2.255069 -6.124729 -1.865602
-2.447067 -6.640558 -1.847232
-2.671833 -7.240517 -1.823655
-2.964414 -8.022053 -1.813224
-3.350960 -9.055203 -1.814903
-3.865979 -10.584159 -1.847304
-3.919497 -10.718761 -1.600483
-4.009102 -10.957290 -1.359351
-4.035731 -11.018069 -1.092174
0.000868 -0.022304 -0.000959
0.000868 -0.022304 -0.000959
-27.466679 -74.642273 -1.836420
0.000868 -0.022304 -0.000959
0.000868 -0.022304 -0.000959
-4.562004 -12.384717 0.615331
0.000868 -0.022304 -0.000959
-4.587587 -12.427285 1.234786
-5.559566 -15.046959 1.874694
-5.275738 -14.264709 2.135709
-7.887671 -21.291920 3.729224
-4.610367 -12.448775 2.498144
0.000875 -0.022203 -0.000955
-0.206353 -0.577682 -0.333966
-0.218356 -0.609561 -0.334196
-0.236866 -0.658487 -0.341873
-0.260704 -0.721515 -0.354244
-0.286690 -0.790561 -0.366095
-0.308638 -0.848308 -0.369301
-0.355032 -0.971183 -0.396568
-1.889542 -5.060140 -1.958647
-2.066683 -5.526379 -1.986819
-2.244334 -5.992947 -1.990506
-2.267134 -6.050357 -1.846868
-2.476726 -6.600466 -1.840145
-2.705108 -7.203041 -1.818125
-2.993834 -7.960821 -1.803253
-3.433432 -9.116567 -1.831188
-3.927149 -10.557252 -1.846661
-3.975451 -10.681073 -1.598263
-4.178101 -11.212379 -1.394111
-4.204763 -11.271767 -1.119821
-4.268529 -11.436205 -0.851480
-4.330845 -11.590441 -0.575363
-27.981609 -74.672722 -1.841282
0.000875 -0.022203 -0.000955
-4.660024 -12.436456 0.308676
-4.613441 -12.299365 0.612429
-4.656386 -12.407043 0.926053
0.000875 -0.022203 -0.000955
0.000875 -0.022203 -0.000955
0.000875 -0.022203 -0.000955
-4.853001 -12.882080 2.259210
-4.743708 -12.579225 2.530006
0.000857 -0.022086 -0.000950
-0.209557 -0.576367 -0.333961
-0.224243 -0.614786 -0.337947
-0.241816 -0.660329 -0.343662
-0.263327 -0.716553 -0.352529
-0.289148 -0.783677 -0.363652
-0.316002 -0.853320 -0.372381
-0.358998 -0.965596 -0.395110
-1.918494 -5.049080 -1.958647
-2.096016 -5.511108 -1.985539
-2.246235 -5.898194 -1.963114
-2.297662 -6.026326 -1.843563
-2.501620 -6.555723 -1.831541
-2.715725 -7.107296 -1.797849
-3.030384 -7.923781 -1.798684
-3.465112 -9.047609 -1.821200
-3.942906 -10.416272 -1.825931
-4.031104 -10.643092 -1.596043
-4.359588 -11.496284 -1.432576
-4.385576 -11.552498 -1.150251
0.000857 -0.022086 -0.000950
0.000857 -0.022086 -0.000950
-28.527376 -74.855324 -1.849741
0.000857 -0.022086 -0.000950
-4.771353 -12.513917 0.311285
-5.350941 -14.023769 0.700060
-5.449836 -14.267513 1.067641
-6.233687 -16.307545 1.628263
-5.058253 -13.223319 1.654207
-6.226705 -16.255342 2.444947
-4.912671 -12.823367 2.253687
-4.860241 -12.673526 2.554457
0.000862 -0.021988 -0.000946
-0.212635 -0.575094 -0.333959
-0.226384 -0.610078 -0.336066
-0.244085 -0.655527 -0.341864
-0.269281 -0.719972 -0.355091
-0.296837 -0.790403 -0.367714
-0.320124 -0.849649 -0.371606
-0.366447 -0.968614 -0.397288
-1.949440 -5.043096 -1.960698
-2.124398 -5.487881 -1.981700
-2.242958 -5.786796 -1.930362
-2.325189 -5.994990 -1.838054
-2.536117 -6.529836 -1.828503
-2.752733 -7.078267 -1.794625
-3.068579 -7.879530 -1.792870
-3.505682 -8.993847 -1.814543
-3.983809 -10.349795 -1.818159
-4.089301 -10.612223 -1.594935
-4.551008 -11.801497 -1.473823
-4.572685 -11.845345 -1.181982
0.000862 -0.021988 -0.000946
0.000862 -0.021988 -0.000946
-26.155252 -67.464264 -1.670890
0.000862 -0.021988 -0.000946
0.000862 -0.021988 -0.000946
-5.712749 -14.708501 0.736023
-5.085939 -13.090518 0.981532
0.000862 -0.021988 -0.000946
-5.156636 -13.244820 1.660710
-6.167279 -15.819522 2.384760
-5.961525 -15.284678 2.693378
-4.941617 -12.660852 2.557786
0.000844 -0.021871 -0.000940
-0.216022 -0.573663 -0.333954
-0.231162 -0.611903 -0.337939
-0.248603 -0.655576 -0.342757
-0.272087 -0.714893 -0.353377
-0.299374 -0.783423 -0.365271
-0.328421 -0.856205 -0.375455
-0.376177 -0.976697 -0.401647
-1.988849 -5.055806 -1.970271
-2.155817 -5.475457 -1.981701
-2.241661 -5.686692 -1.901183
-2.353493 -5.963102 -1.832544
-2.574938 -6.518631 -1.829518
-2.789720 -7.053145 -1.792322
-3.101548 -7.834900 -1.786638
-3.517333 -8.872954 -1.794193
-4.027293 -10.275576 -1.809416
-4.146238 -10.572926 -1.592715
-4.761748 -12.126470 -1.518082
-4.773948 -12.145043 -1.214824
-4.886049 -12.423322 -0.931288
-4.902128 -12.451366 -0.622298
0.000844 -0.021871 -0.000940
-29.998777 -75.956673 0.009710
-4.957425 -12.559362 0.313839
-5.797188 -14.675265 0.736016
0.000844 -0.021871 -0.000940
0.000844 -0.021871 -0.000940
-5.258302 -13.279429 1.668844
-7.528444 -18.982775 2.868965
-6.093719 -15.361880 2.713164
0.000844 -0.021871 -0.000940
0.000849 -0.021773 -0.000936
-0.219097 -0.572341 -0.333950
-0.233809 -0.608840 -0.336995
-0.255450 -0.662376 -0.347240
-0.276751 -0.714879 -0.354228
-0.305805 -0.786654 -0.367706
-0.332383 -0.852537 -0.374681
-0.378190 -0.965769 -0.398007
-2.018504 -5.045897 -1.970954
-2.184357 -5.455804 -1.979140
-2.237860 -5.583262 -1.870813
-2.378306 -5.926167 -1.825382
-2.599257 -6.471298 -1.820408
-2.815567 -7.000771 -1.783106
-3.126587 -7.763642 -1.774588
-3.570492 -8.853651 -1.794567
-4.067617 -10.210677 -1.801969
-4.212026 -10.561663 -1.594667
-4.959781 -12.426075 -1.559099
-4.983634 -12.473055 -1.250451
-5.100570 -12.752319 -0.958171
0.000849 -0.021773 -0.000936
-26.606325 -66.318825 -1.650227
0.000849 -0.021773 -0.000936
-5.139912 -12.811529 0.320881
-4.820243 -12.004145 0.603061
-4.916288 -12.230507 0.921136
0.000849 -0.021773 -0.000936
-7.609098 -18.887850 2.380699
-6.282695 -15.583843 2.359944
0.000849 -0.021773 -0.000936
-6.290702 -15.580124 3.163266
0.000832 -0.021655 -0.000931
-0.221044 -0.567697 -0.331988
-0.239946 -0.613886 -0.340747
-0.258584 -0.659075 -0.346338
-0.279488 -0.709770 -0.352513
-0.310216 -0.784765 -0.367701
-0.339401 -0.855564 -0.376988
-0.392247 -0.984087 -0.406730
-2.048799 -5.037575 -1.972322
-2.215814 -5.440895 -1.978501
-2.235343 -5.483210 -1.841634
-2.413701 -5.915835 -1.826485
-2.619849 -6.412684 -1.808258
-2.843868 -6.955530 -1.775734
-3.150276 -7.694743 -1.762955
-3.595106 -8.769220 -1.781618
-4.102691 -10.124109 -1.790959
-4.403113 -10.858223 -1.643337
-5.170228 -12.733080 -1.601506
-5.206819 -12.810205 -1.287378
-5.316772 -13.073708 -0.984636
-5.317976 -13.063565 -0.655944
-7.712641 -18.916410 -0.472127
0.000832 -0.021655 -0.000931
-5.014366 -12.288433 0.308457
0.000832 -0.021655 -0.000931
0.000832 -0.021655 -0.000931
-5.781029 -14.128356 1.423392
-5.452801 -13.314281 1.681154
-8.492220 -20.712158 3.145312
0.000832 -0.021655 -0.000931
-6.320795 -15.391579 3.132500
-0.173727 -0.444576 -0.272238
-0.226186 -0.571136 -0.334921
-0.241331 -0.607482 -0.337926
-0.260879 -0.654165 -0.344540
-0.284836 -0.711377 -0.354220
-0.316004 -0.786231 -0.369324
-0.342791 -0.850071 -0.375443
-0.404191 -0.997206 -0.413273
-2.074746 -5.018651 -1.969587
-2.225875 -5.377200 -1.959941
-2.249875 -5.429593 -1.827937
-2.443893 -5.892854 -1.823730
-2.640963 -6.359879 -1.797627
-2.867241 -6.899426 -1.765597
-3.189849 -7.665552 -1.760464
-3.614331 -8.673914 -1.766449
-4.136675 -10.041835 -1.780595
-4.658985 -11.301217 -1.714535
-5.242545 -12.701159 -1.601281
-5.445595 -13.179199 -1.327645
-5.542210 -13.405902 -1.012075
0.000837 -0.021558 -0.000927
-7.783689 -18.781120 -0.469878
-7.773706 -18.747818 0.001667
-5.102534 -12.301723 0.309524
0.000837 -0.021558 -0.000927
-5.012783 -12.067907 0.913157
0.000837 -0.021558 -0.000927
-5.544508 -13.319236 1.685798
-8.596672 -20.628099 3.140005
-5.331292 -12.789064 2.274097
0.000837 -0.021558 -0.000927
-0.176165 -0.443456 -0.272234
-0.228685 -0.568093 -0.333937
-0.247435 -0.612490 -0.341677
-0.265915 -0.655828 -0.346330
-0.290199 -0.712955 -0.355927
-0.321106 -0.785977 -0.370134
-0.351129 -0.856488 -0.379293
-0.409810 -0.994746 -0.413268
-2.102746 -5.004775 -1.968902
-2.221267 -5.280402 -1.929221
-2.279482 -5.412919 -1.826746
-2.471631 -5.864429 -1.819323
-2.668321 -6.323099 -1.791554
-2.909058 -6.888068 -1.766981
-3.210867 -7.592924 -1.747999
-3.647159 -8.613057 -1.758311
-4.171359 -9.963154 -1.770879
-4.702360 -11.222965 -1.706753
0.000844 -0.021457 -0.000923
-5.713520 -13.604574 -1.373849
-5.817282 -13.844428 -1.047733
-5.857115 -13.925516 -0.702601
0.000844 -0.021457 -0.000923
-7.872015 -18.680548 0.001652
0.000844 -0.021457 -0.000923
0.000844 -0.021457 -0.000923
0.000844 -0.021457 -0.000923
-4.931423 -11.671272 1.180971
-5.641086 -13.334558 1.691836
-8.699656 -20.541712 3.134419
-5.416246 -12.785309 2.278958
-5.378394 -12.683831 2.592954
-0.179950 -0.445484 -0.274269
-0.231826 -0.566661 -0.333933
-0.249454 -0.607691 -0.339796
-0.268151 -0.650898 -0.344532
-0.292045 -0.706174 -0.353357
-0.324790 -0.782322 -0.369316
-0.358114 -0.859432 -0.381601
-0.424213 -1.012809 -0.421992
-2.129900 -4.989035 -1.967535
-2.220091 -5.194302 -1.902342
0.000826 -0.021340 -0.000917
-2.499154 -5.835853 -1.814915
-2.699968 -6.296852 -1.788517
-2.939294 -6.849650 -1.761452
-3.213361 -7.478981 -1.725975
-3.664616 -8.517829 -1.743142
-4.199069 -9.869902 -1.758573
-4.733326 -11.117272 -1.694800
-5.423241 -12.721972 -1.611721
0.000826 -0.021340 -0.000917
-6.029310 -14.120644 -1.071278
-6.121034 -14.321226 -0.724350
0.000826 -0.021340 -0.000917
0.000826 -0.021340 -0.000917
-5.230141 -12.210718 0.308719
-5.396492 -12.586220 0.638537
0.000826 -0.021340 -0.000917
0.000826 -0.021340 -0.000917
-5.746682 -13.369265 1.700434
-6.476260 -15.056341 2.301960
0.000826 -0.021340 -0.000917
-5.409905 -12.556920 2.573308
-0.190585 -0.463285 -0.286505
-0.234954 -0.565215 -0.333930
-0.252819 -0.606142 -0.339792
-0.271778 -0.649230 -0.344528
-0.298866 -0.711005 -0.356775
-0.328573 -0.778594 -0.368499
-0.361468 -0.853852 -0.380055
-2.015285 -4.650225 -1.971745
-2.157077 -4.971027 -1.965483
-2.221045 -5.115322 -1.878022
-2.326867 -5.352861 -1.815432
-2.529734 -5.812019 -1.812161
-2.714330 -6.231466 -1.774343
-2.971916 -6.814172 -1.756846
-3.239458 -7.418481 -1.716420
-3.715723 -8.497637 -1.743515
-4.229002 -9.783893 -1.747562
-4.777768 -11.039834 -1.687296
-5.486755 -12.668572 -1.608948
-5.951977 -13.727654 -1.393159
-8.956451 -20.625814 -1.569149
-6.427936 -14.802291 -0.750560
0.000831 -0.021242 -0.000914
-5.355452 -12.312888 0.000770
0.000831 -0.021242 -0.000914
-5.296113 -12.159341 0.618351
0.000831 -0.021242 -0.000914
-5.164516 -11.835251 1.203654
-7.906796 -18.098619 2.309012
0.000831 -0.021242 -0.000914
0.000831 -0.021242 -0.000914
0.000831 -0.021242 -0.000914
-0.198057 -0.473057 -0.293641
-0.238891 -0.565290 -0.334905
-0.256285 -0.604524 -0.339788
-0.276213 -0.649138 -0.345421
-0.301507 -0.705788 -0.355059
-0.336619 -0.784939 -0.372561
-0.367143 -0.853280 -0.380823
-2.037409 -4.626167 -1.966655
-2.185521 -4.958425 -1.965484
-2.217422 -5.025737 -1.849863
-2.353798 -5.328387 -1.811859
-2.560689 -5.791974 -1.810508
-2.752688 -6.218678 -1.775356
-3.011750 -6.798625 -1.757308
-3.281982 -7.399603 -1.716422
-3.726074 -8.389810 -1.725755
-4.266144 -9.711565 -1.739142
-4.841079 -11.012063 -1.687303
-5.570470 -12.655694 -1.611503
-6.555814 -14.876182 -1.513765
-6.648192 -15.078380 -1.149839
-6.739981 -15.271814 -0.776402
0.000813 -0.021125 -0.000908
0.000813 -0.021125 -0.000908
-5.483165 -12.399009 0.315099
-8.536308 -19.272072 0.983787
-5.514955 -12.453125 0.951846
-8.234181 -18.564451 1.894572
-5.737649 -12.930697 1.652979
-7.074797 -15.931295 2.448480
-7.743136 -17.417717 3.130064
-5.502412 -12.372358 2.548468
-0.206990 -0.485920 -0.302815
-0.240602 -0.560611 -0.332941
-0.261811 -0.607761 -0.342600
-0.279834 -0.647418 -0.345417
-0.306918 -0.707236 -0.356767
-0.340250 -0.781224 -0.371745
-0.371169 -0.849362 -0.380048
-2.057778 -4.600652 -1.960836
-2.209265 -4.935377 -1.961381
-2.218974 -4.952297 -1.827462
-2.378818 -5.302451 -1.807691
-2.581210 -5.748995 -1.801692
-2.784327 -6.193809 -1.772826
-3.032307 -6.740256 -1.746708
-3.309090 -7.346605 -1.708528
-3.723956 -8.257092 -1.702815
-4.283978 -9.602061 -1.723918
-4.883229 -10.936900 -1.680077
0.000818 -0.021027 -0.000904
-6.901032 -15.417785 -1.572961
-6.951097 -15.522177 -1.186753
0.000818 -0.021027 -0.000904
-19.174938 -42.698456 -1.081376
-5.485909 -12.226502 0.000753
0.000818 -0.021027 -0.000904
0.000818 -0.021027 -0.000904
-8.857449 -19.680651 1.509621
-8.258075 -18.333311 1.875770
-5.770167 -12.805024 1.641111
-9.253939 -20.512691 3.161943
0.000818 -0.021027 -0.000904
-5.517505 -12.216824 2.522894
-0.216063 -0.498711 -0.311991
-0.242979 -0.557522 -0.331958
-0.263739 -0.602905 -0.340718
-0.282685 -0.644074 -0.344517
-0.308610 -0.700419 -0.354197
-0.345395 -0.780789 -0.372553
-0.378240 -0.852127 -0.382356
-2.085640 -4.592019 -1.962291
-2.212538 -4.867754 -1.939499
-2.224476 -4.889354 -1.808902
-2.405197 -5.279886 -1.804714
-2.606930 -5.718200 -1.796734
-2.810129 -6.156469 -1.766752
-3.059570 -6.697821 -1.740258
-3.329172 -7.279315 -1.697309
-3.774566 -8.242562 -1.704298
-4.312930 -9.519637 -1.713554
-4.932041 -10.877852 -1.675355
-5.653834 -12.454909 -1.594140
-7.262604 -15.977618 -1.634384
-7.323816 -16.104593 -1.234531
0.000823 -0.020930 -0.000900
-19.470837 -42.698261 -1.084228
-5.605056 -12.301970 0.000761
0.000823 -0.020930 -0.000900
0.000823 -0.020930 -0.000900
-8.962961 -19.612926 1.508349
0.000823 -0.020930 -0.000900
-5.880904 -12.852743 1.651569
0.000823 -0.020930 -0.000900
0.000823 -0.020930 -0.000900
-5.480129 -11.950794 2.474346
-0.216647 -0.492667 -0.308928
-0.248998 -0.562330 -0.335871
-0.267076 -0.601279 -0.340714
-0.288533 -0.647178 -0.347203
-0.314042 -0.701798 -0.355904
-0.352048 -0.783670 -0.374991
-0.385353 -0.854846 -0.384663
-2.111135 -4.578131 -1.961563
-2.209571 -4.788326 -1.912830
0.000806 -0.020812 -0.000895
-2.428176 -5.250271 -1.799355
-2.628340 -5.678576 -1.789019
-2.851101 -6.152367 -1.770298
-3.082348 -6.646461 -1.731503
-3.349406 -7.213822 -1.686507
-3.769509 -8.108356 -1.680987
-4.358436 -9.474831 -1.709994
-4.956286 -10.766439 -1.662567
-5.707807 -12.384183 -1.589281
-7.629171 -16.530169 -1.695437
-7.720201 -16.719442 -1.285096
0.000806 -0.020812 -0.000895
-19.773258 -42.708771 -1.087403
-5.663867 -12.243996 0.000751
0.000806 -0.020812 -0.000895
0.000806 -0.020812 -0.000895
0.000806 -0.020812 -0.000895
0.000806 -0.020812 -0.000895
0.000806 -0.020812 -0.000895
-5.986753 -12.881653 1.994631
-6.415213 -13.789334 2.496643
0.000806 -0.020812 -0.000895
-0.223005 -0.499095 -0.314024
-0.253590 -0.563938 -0.337827
-0.272671 -0.604409 -0.343526
-0.292139 -0.645395 -0.347199
-0.316416 -0.696602 -0.354189
-0.353463 -0.774846 -0.371734
-0.392503 -0.857516 -0.386972
-2.136546 -4.564103 -1.960834
-2.208961 -4.713830 -1.888214
-2.264204 -4.828936 -1.796102
-2.442759 -5.203288 -1.788041
-2.637228 -5.610619 -1.772489
-2.869832 -6.100746 -1.760173
-3.124892 -6.635011 -1.733349
-3.381967 -7.172498 -1.681521
-3.832533 -8.117731 -1.687651
-4.380981 -9.381557 -1.697686
-5.008987 -10.713441 -1.658957
-5.762011 -12.315035 -1.584652
-6.475621 -13.824920 -1.421588
0.000811 -0.020714 -0.000891
0.000811 -0.020714 -0.000891
0.000811 -0.020714 -0.000891
0.000811 -0.020714 -0.000891
-6.488084 -13.801266 0.354596
0.000811 -0.020714 -0.000891
0.000811 -0.020714 -0.000891
-6.530536 -13.853715 1.428155
-6.559340 -13.908361 1.797127
-6.117085 -12.960412 2.012453
-6.516143 -13.791986 2.504097
-5.624632 -11.902720 2.477667
-0.227324 -0.500757 -0.316059
-0.256068 -0.560734 -0.336843
-0.275370 -0.601082 -0.342583
-0.294292 -0.640325 -0.345402
-0.322646 -0.699548 -0.356751
-0.357035 -0.771019 -0.370915
-0.399040 -0.858406 -0.388510
-2.161038 -4.548269 -1.959380
-2.206780 -4.639865 -1.863595
-2.295938 -4.824251 -1.799302
-2.467615 -5.178684 -1.784467
-2.678480 -5.614319 -1.778552
-2.888880 -6.050872 -1.750555
-3.148601 -6.586975 -1.725515
-3.409964 -7.128719 -1.675706
-3.863197 -8.065986 -1.681363
-4.376254 -9.228748 -1.674686
-5.031302 -10.602061 -1.646171
-5.839077 -12.289512 -1.585818
0.000793 -0.020597 -0.000885
0.000793 -0.020597 -0.000885
0.000793 -0.020597 -0.000885
0.000793 -0.020597 -0.000885
-6.582179 -13.800965 0.000953
-6.598163 -13.821953 0.356129
0.000793 -0.020597 -0.000885
0.000793 -0.020597 -0.000885
-6.603341 -13.807958 1.427218
-6.502598 -13.585484 1.760143
-8.650535 -18.049461 2.811983
-7.648571 -15.954276 2.905144
-7.387685 -15.397061 3.215407
-0.232992 -0.505569 -0.320135
-0.258308 -0.557630 -0.335860
-0.275539 -0.593061 -0.338824
-0.300095 -0.643377 -0.348088
-0.327339 -0.699197 -0.357602
-0.359612 -0.765629 -0.369286
-0.407740 -0.864355 -0.392359
-2.181380 -4.523904 -1.954289
-2.202182 -4.564795 -1.838294
-2.309485 -4.781870 -1.788421
-2.486411 -5.141966 -1.776725
-2.699566 -5.578431 -1.771940
-2.922693 -6.032296 -1.750050
-3.168166 -6.534191 -1.716299
-3.433689 -7.073688 -1.667396
-3.900820 -8.025844 -1.677665
-4.409560 -9.166753 -1.667886
-5.090290 -10.573696 -1.646175
-5.929909 -12.303139 -1.591849
0.000798 -0.020499 -0.000881
-6.633423 -13.741739 -1.064797
0.000798 -0.020499 -0.000881
0.000798 -0.020499 -0.000881
0.000798 -0.020499 -0.000881
0.000798 -0.020499 -0.000881
0.000798 -0.020499 -0.000881
-8.602715 -17.735556 1.378605
0.000798 -0.020499 -0.000881
-6.724827 -13.844236 1.798737
-9.765990 -20.086081 3.138191
-7.768674 -15.968429 2.915842
0.000798 -0.020499 -0.000881
-0.237288 -0.507205 -0.322171
-0.262176 -0.557581 -0.336835
-0.281933 -0.597705 -0.342576
-0.302101 -0.638325 -0.346290
-0.330437 -0.695576 -0.356744
-0.365653 -0.766643 -0.370908
-0.412583 -0.861894 -0.392356
-2.197401 -4.491097 -1.945561
-2.203363 -4.499271 -1.817095
-2.334331 -4.763293 -1.786502
-2.514999 -5.125751 -1.776130
-2.723138 -5.543230 -1.765878
-2.944411 -5.989229 -1.742456
-3.206734 -6.515180 -1.716301
-3.445120 -6.991702 -1.652852
-3.878480 -7.861543 -1.648064
-4.454322 -9.125154 -1.664974
-5.139711 -10.516536 -1.642008
-5.996984 -12.261579 -1.590931
-8.210566 -16.764559 -1.738528
0.000805 -0.020399 -0.000878
-18.987661 -38.689182 -2.004717
-20.979885 -42.708447 -1.099551
-24.943941 -50.729034 0.005834
0.000805 -0.020399 -0.000878
-25.496851 -51.784306 2.696913
-8.709377 -17.687696 1.378873
-8.701684 -17.656527 1.836259
-6.851761 -13.901383 1.811286
-9.843575 -19.944248 3.125084
-6.601587 -13.371075 2.447938
-8.839254 -17.887960 3.757485
-0.247065 -0.519546 -0.331347
-0.263794 -0.552796 -0.334873
-0.282997 -0.591168 -0.339756
-0.307344 -0.639622 -0.348081
-0.336065 -0.696716 -0.358450
-0.370888 -0.765985 -0.371717
-0.420046 -0.864272 -0.394664
-2.202243 -4.434538 -1.926652
-2.207204 -4.440622 -1.798632
-2.366643 -4.757740 -1.789702
-2.545224 -5.110642 -1.776131
-2.746371 -5.507967 -1.759817
-2.974546 -5.961183 -1.739420
-3.226001 -6.457666 -1.706163
-3.489016 -6.976296 -1.654102
-3.909043 -7.806672 -1.641404
-4.488036 -9.057818 -1.657526
-5.148941 -10.379369 -1.625328
-6.049129 -12.184771 -1.585607
-8.078981 -16.251961 -1.690296
-14.052983 -28.228550 -2.200903
-19.164911 -38.472103 -1.999359
-21.293329 -42.704845 -1.102727
-33.111774 -66.337143 0.007867
-26.319279 -52.710171 1.373513
-25.522797 -51.071022 2.667540
-9.561264 -19.129011 1.495830
0.000787 -0.020281 -0.000872
-6.803137 -13.599339 1.777094
-8.014534 -16.003040 2.514145
-7.363201 -14.691476 2.698099
-6.114786 -12.198953 2.568422
-0.253035 -0.524147 -0.335422
-0.272369 -0.562040 -0.341724
-0.291058 -0.598874 -0.345384
-0.311719 -0.639324 -0.348974
-0.340764 -0.696279 -0.359302
-0.375993 -0.765366 -0.372527
-0.423244 -0.858423 -0.393118
-2.196475 -4.360174 -1.899743
-2.222425 -4.407606 -1.790425
-2.384450 -4.725332 -1.782662
-2.574490 -5.095788 -1.776130
-2.733510 -5.404536 -1.731715
-2.996407 -5.919710 -1.732334
-3.256828 -6.426729 -1.702938
-3.521907 -6.942028 -1.650778
-3.907408 -7.692858 -1.622163
-4.523980 -9.000010 -1.651698
-5.218288 -10.368896 -1.628392
-6.122612 -12.156744 -1.586541
-8.159689 -16.180204 -1.687710
-14.218692 -28.154211 -2.201482
-19.339886 -38.270145 -1.994652
-21.590975 -42.684971 -1.105442
0.000792 -0.020184 -0.000868
-26.142128 -51.610687 1.348691
-25.698679 -50.691563 2.655353
-8.999196 -17.749964 1.391845
-7.052695 -13.903326 1.453785
-6.963085 -13.720988 1.798247
-6.652516 -13.098657 2.063116
-7.444833 -14.643466 2.697116
0.000792 -0.020184 -0.000868
-0.254452 -0.519464 -0.333378
-0.270807 -0.550998 -0.335844
-0.290449 -0.589178 -0.340687
-0.315396 -0.637345 -0.348970
-0.347136 -0.699016 -0.361863
-0.381107 -0.764709 -0.373337
-0.436639 -0.872208 -0.400820
-2.192484 -4.290997 -1.875015
-2.244184 -4.387962 -1.787691
-2.403680 -4.696265 -1.776902
-2.587925 -5.050224 -1.765412
-2.776775 -5.412537 -1.739430
-3.016146 -5.874728 -1.724234
-3.286507 -6.393935 -1.699252
-3.573045 -6.946491 -1.656598
-3.965492 -7.700514 -1.628457
-4.569970 -8.958847 -1.649109
-5.278652 -10.340357 -1.628676
-6.208039 -12.146643 -1.590025
-7.693205 -15.034418 -1.572864
-13.430112 -26.218264 -2.056094
-19.505236 -38.035595 -1.988458
-21.904615 -42.693321 -1.108943
0.000775 -0.020066 -0.000863
-26.282988 -51.134609 1.340249
-25.839987 -50.251366 2.639993
-25.828917 -50.186726 3.951396
-7.139175 -13.881355 1.455636
-7.079120 -13.752992 1.807771
0.000775 -0.020066 -0.000863
-7.548947 -14.645433 2.705218
-7.525671 -14.587795 3.090489
-0.263576 -0.530140 -0.341534
-0.275386 -0.552454 -0.337798
-0.294445 -0.589001 -0.341621
-0.318016 -0.633879 -0.348068
-0.347695 -0.690486 -0.358438
-0.385409 -0.762376 -0.373332
-0.440539 -0.868009 -0.400046
-2.188607 -4.223685 -1.851017
-2.268416 -4.373199 -1.787006
-2.421794 -4.665440 -1.770502
-2.612412 -5.026676 -1.762435
-2.797975 -5.377607 -1.733369
-3.037231 -5.833163 -1.717148
-3.311404 -6.352387 -1.693262
-3.575021 -6.850560 -1.638730
-3.978132 -7.614073 -1.615137
-4.565265 -8.827985 -1.629674
-5.313335 -10.262227 -1.621172
-6.239003 -12.041182 -1.580763
0.000780 -0.019968 -0.000859
-13.491370 -25.968731 -2.042605
-19.618431 -37.736393 -1.978544
-22.208933 -42.679939 -1.111935
-42.976078 -82.498665 0.009868
-26.614025 -51.075687 1.342538
-26.235817 -50.307198 2.650783
-8.317045 -15.948990 1.257807
-10.527863 -20.165638 2.122485
0.000780 -0.019968 -0.000859
-8.458223 -16.184853 2.565370
-9.041035 -17.283848 3.203268
-7.398672 -14.142001 3.004887
-0.260199 -0.516273 -0.333370
-0.279356 -0.552244 -0.338773
-0.297816 -0.587137 -0.341617
-0.319994 -0.628703 -0.346270
-0.350820 -0.686710 -0.357579
-0.393941 -0.768117 -0.377394
-0.448140 -0.870173 -0.402355
-2.189130 -4.164400 -1.830653
-2.285529 -4.345004 -1.780851
-2.457271 -4.665965 -1.776262
-2.641158 -5.009301 -1.761840
-2.828746 -5.361317 -1.733371
-3.049906 -5.773908 -1.704997
-3.335037 -6.309035 -1.686811
-3.618867 -6.838394 -1.640810
-3.991339 -7.533667 -1.602927
-4.619268 -8.804127 -1.630324
-5.386031 -10.257654 -1.625349
-6.285194 -11.956393 -1.574512
-8.308404 -15.784971 -1.661393
-13.419011 -25.470514 -2.009475
-19.771778 -37.486790 -1.971606
-22.547390 -42.710068 -1.116222
-44.601196 -84.428413 0.010077
-28.458635 -53.833248 1.419466
-27.733566 -52.417831 2.770659
-26.400862 -49.878864 3.950750
-8.269500 -15.624912 1.648884
-7.138574 -13.479598 1.782641
0.000762 -0.019851 -0.000853
-9.244840 -17.428381 3.239921
-6.396527 -12.055167 2.568764
-0.269525 -0.526808 -0.341526
-0.281586 -0.548990 -0.337790
-0.301085 -0.585296 -0.341613
-0.324334 -0.628319 -0.347163
-0.358916 -0.692541 -0.361853
-0.395651 -0.760896 -0.374951
-0.457397 -0.875599 -0.406203
-2.190070 -4.108922 -1.811743
-2.310385 -4.331670 -1.780851
-2.475028 -4.634921 -1.769861
-2.658089 -4.972044 -1.754098
-2.839440 -5.307568 -1.721247
-3.096708 -5.781716 -1.712593
-3.374857 -6.296491 -1.688656
-3.636726 -6.777720 -1.631253
-4.032638 -7.507013 -1.602190
-4.601931 -8.650182 -1.606677
-5.406634 -10.154736 -1.613951
-6.358450 -11.928690 -1.575679
-8.421517 -15.778940 -1.665858
-13.464588 -25.204500 -1.994592
-19.962570 -37.326466 -1.969220
-22.857821 -42.701122 -1.119446
0.000767 -0.019753 -0.000849
-28.889742 -53.895775 1.425437
0.000767 -0.019753 -0.000849
-8.361103 -15.593598 1.237244
-8.107499 -15.108603 1.599209
-8.371351 -15.586524 2.068176
-8.255226 -15.364164 2.450019
-7.859008 -14.615484 2.724659
-6.435857 -11.962678 2.556901
-0.274070 -0.528172 -0.343562
-0.284622 -0.547255 -0.337787
-0.306851 -0.588112 -0.344426
-0.331234 -0.632626 -0.350748
-0.361944 -0.688749 -0.360992
-0.400912 -0.760037 -0.375761
-0.469357 -0.885818 -0.412365
-2.194892 -4.061761 -1.796470
-2.328729 -4.304575 -1.775380
-2.496113 -4.610508 -1.766021
-2.679246 -4.943134 -1.749334
-2.857872 -5.266886 -1.713533
-3.132604 -5.768780 -1.714112
-3.400835 -6.255754 -1.683127
-3.659850 -6.725029 -1.623775
-4.060949 -7.453533 -1.595901
-4.604596 -8.536634 -1.590479
-5.448720 -10.089293 -1.608672
-6.379587 -11.804445 -1.564100
-8.436173 -15.590032 -1.651023
-13.551866 -25.010107 -1.985557
-20.194078 -37.242470 -1.970925
-23.175568 -42.702305 -1.122994
-44.447933 -81.810165 0.009653
0.000774 -0.019653 -0.000845
-26.782177 -49.241581 2.618709
-8.474284 -15.582191 1.240307
0.000774 -0.019653 -0.000845
-8.476018 -15.565883 2.071886
0.000774 -0.019653 -0.000845
-7.848930 -14.391853 2.691554
0.000774 -0.019653 -0.000845
-0.280407 -0.532449 -0.347637
-0.286080 -0.542382 -0.335823
-0.306832 -0.579971 -0.340666
-0.333138 -0.627414 -0.348951
-0.367537 -0.689710 -0.362699
-0.406041 -0.759214 -0.376571
-0.475376 -0.884528 -0.413132
-2.202843 -4.021209 -1.784106
-2.356985 -4.297571 -1.778115
-2.514245 -4.581032 -1.760261
-2.700168 -4.914143 -1.744569
-2.891729 -5.256984 -1.715738
-3.129131 -5.684511 -1.694369
-3.417828 -6.201912 -1.673911
-3.697217 -6.704385 -1.623776
-4.087128 -7.403145 -1.589983
-4.677805 -8.550593 -1.598258
-5.494191 -10.035092 -1.605062
-6.390084 -11.658328 -1.549738
-7.990305 -14.560564 -1.546934
-13.691601 -24.924610 -1.985021
-19.166208 -34.853512 -1.850504
-23.485416 -42.685478 -1.126127
0.000756 -0.019535 -0.000840
-14.451716 -26.231026 0.697440
-29.487017 -53.477345 2.853076
0.000756 -0.019535 -0.000840
0.000756 -0.019535 -0.000840
-8.551884 -15.492408 2.068620
-7.650698 -13.850585 2.222409
-9.369134 -16.949873 3.180508
-8.033720 -14.524931 3.125271
-0.280747 -0.526268 -0.344574
-0.289854 -0.542182 -0.336798
-0.311675 -0.581225 -0.342539
-0.336529 -0.625434 -0.348946
-0.370506 -0.685898 -0.361840
-0.412837 -0.761611 -0.379007
-0.480192 -0.881760 -0.413129
-2.212224 -3.983945 -1.773195
-2.373488 -4.271118 -1.772644
-2.542305 -4.569687 -1.761542
-2.723629 -4.890081 -1.741592
-2.913398 -5.227239 -1.711331
-3.147520 -5.640958 -1.686775
-3.441811 -6.163956 -1.668842
-3.724141 -6.662413 -1.618791
-4.125715 -7.372524 -1.588505
-4.697532 -8.474221 -1.588866
-5.531714 -9.971276 -1.599783
-6.403731 -11.530388 -1.537464
0.000761 -0.019438 -0.000836
-13.803187 -24.798901 -1.981140
-19.322369 -34.677837 -1.846907
-23.802656 -42.678719 -1.129583
-14.591607 -26.160339 0.002489
-14.547052 -26.059101 0.694994
0.000761 -0.019438 -0.000836
0.000761 -0.019438 -0.000836
0.000761 -0.019438 -0.000836
-7.675649 -13.720266 1.837482
-7.731623 -13.814489 2.223514
0.000761 -0.019438 -0.000836
-7.046175 -12.570944 2.712871
-0.287894 -0.532018 -0.349669
-0.295427 -0.544954 -0.339733
-0.314027 -0.577782 -0.341598
-0.340890 -0.624935 -0.349840
-0.375231 -0.685214 -0.362691
-0.418147 -0.760623 -0.379815
-0.484240 -0.877268 -0.412355
-2.237760 -3.975899 -1.775376
-2.383852 -4.230680 -1.761701
-2.576872 -4.569692 -1.767300
-2.740309 -4.854289 -1.734446
-2.933799 -5.191360 -1.705269
-3.139686 -5.551986 -1.665513
-3.483008 -6.151776 -1.671147
-3.746073 -6.609483 -1.611312
-4.164394 -7.339273 -1.586657
-4.739336 -8.434899 -1.586601
-5.522557 -9.817411 -1.580318
-6.319593 -11.226760 -1.501783
-8.124286 -14.415071 -1.541200
-13.935145 -24.690460 -1.979070
0.000744 -0.019320 -0.000830
-24.114706 -42.659256 -1.132760
-28.931911 -51.135067 0.005642
-28.905426 -51.067371 1.367643
-28.965607 -51.131901 2.745400
0.000744 -0.019320 -0.000830
-8.354010 -14.737718 1.580009
-7.686688 -13.556576 1.821429
-7.207544 -12.702466 2.051073
-7.743643 -13.634631 2.574395
-7.349627 -12.936632 2.801046
-0.286669 -0.522720 -0.344565
-0.299398 -0.544607 -0.340709
-0.319088 -0.578868 -0.343471
-0.345370 -0.624340 -0.350733
-0.380857 -0.686075 -0.364398
-0.426023 -0.764448 -0.383066
-0.489333 -0.874260 -0.412350
-2.256794 -3.956375 -1.772466
