# This PCD file was generated using the MATLAB® pcwrite function
# from Computer Vision Toolbox®.
# .PCD v.7 - Point Cloud Data file format
VERSION .7
FIELDS x y z
SIZE 4 4 4
TYPE F F F
COUNT 1 1 1
WIDTH 1599
HEIGHT 1
VIEWPOINT 0 0 0 1 0 0 0
POINTS 1599
DATA ascii
-3.486212 -1.908586 -0.277932
-3.505634 -1.917577 -0.186449
-3.635295 -1.987319 -0.096391
-3.677381 -2.008548 -0.000298
-3.446913 -1.881704 0.090777
0.000277 -0.009188 -0.000361
-3.414131 -1.861554 0.271330
-3.313450 -1.806203 0.351384
-3.185433 -1.735332 0.423411
-3.270572 -1.779991 0.522429
-21.697514 -11.751135 4.053351
-20.711550 -11.208220 4.436240
-2.464836 -1.338167 -1.661176
-2.546409 -1.380994 -1.625599
-2.652249 -1.437418 -1.602149
-2.771583 -1.500420 -1.580614
-2.918298 -1.578053 -1.568737
-3.101139 -1.675651 -1.567868
-3.250009 -1.754186 -1.541224
-3.470292 -1.870872 -1.538187
-3.645225 -1.963911 -1.505869
-3.854436 -2.074361 -1.477952
-4.153883 -2.232921 -1.470597
-4.388348 -2.357452 -1.427534
-4.678248 -2.510484 -1.389110
-5.004717 -2.683881 -1.344894
-5.447720 -2.918189 -1.313020
-5.973557 -3.196288 -1.275954
-6.455589 -3.488296 -1.205128
-7.134695 -3.852655 -1.139229
-8.222805 -4.435119 -1.090637
-8.684650 -4.679758 -0.920211
-3.484474 -1.882366 -0.276952
-3.512716 -1.895981 -0.186259
-3.546194 -1.912366 -0.093744
-3.623279 -1.952898 -0.000296
0.000283 -0.009094 -0.000358
-3.462190 -1.863373 0.182867
-3.294242 -1.772702 0.261006
-3.156932 -1.697766 0.333735
-3.396798 -1.824530 0.450133
-3.269931 -1.756001 0.520762
0.000283 -0.009094 -0.000358
0.000283 -0.009094 -0.000358
-2.467890 -1.321427 -1.658113
-2.551182 -1.364575 -1.623637
-2.655746 -1.419536 -1.599329
-2.775382 -1.481831 -1.577920
-2.925681 -1.560284 -1.567879
-3.094838 -1.648555 -1.559729
-3.253488 -1.731878 -1.538137
-3.477660 -1.849013 -1.536729
-3.670065 -1.949164 -1.511337
-3.888042 -2.063536 -1.486272
-4.170002 -2.210643 -1.471785
-4.403892 -2.332180 -1.428083
-4.673757 -2.473468 -1.383536
-5.030810 -2.659503 -1.347659
-5.470068 -2.888458 -1.314265
-5.997567 -3.163453 -1.277064
-6.461586 -3.443545 -1.202531
-7.143371 -3.802738 -1.137001
-8.241128 -4.383883 -1.089709
-8.692035 -4.619332 -0.918167
-3.396799 -1.809250 -0.269139
-3.479387 -1.852238 -0.183928
-3.519992 -1.872162 -0.092767
-3.457945 -1.837772 -0.000296
-3.448478 -1.832015 0.090271
-3.490474 -1.852639 0.183802
-3.276432 -1.738111 0.258777
0.000271 -0.008975 -0.000353
-3.243767 -1.718704 0.428529
-3.255699 -1.723554 0.516867
0.000271 -0.008975 -0.000353
-10.469872 -5.515435 2.228681
-2.481725 -1.309855 -1.662190
-2.560709 -1.350136 -1.624614
-2.651553 -1.397102 -1.591815
-2.782494 -1.464400 -1.577018
-2.939655 -1.545293 -1.570441
-3.099348 -1.628090 -1.557288
-3.257092 -1.709041 -1.535051
-3.471988 -1.819645 -1.529452
-3.672831 -1.923564 -1.507915
-3.890086 -2.035077 -1.482428
-4.167742 -2.177836 -1.466421
-4.393323 -2.294259 -1.420362
-4.681414 -2.442043 -1.381508
-5.016643 -2.615127 -1.339817
-5.477869 -2.852318 -1.312184
-6.015635 -3.128762 -1.277061
-6.473096 -3.400484 -1.200909
-7.152804 -3.755024 -1.135051
-8.252867 -4.327439 -1.087851
-8.696274 -4.555614 -0.915752
0.000278 -0.008881 -0.000350
-3.463707 -1.817585 -0.182527
-3.509706 -1.840053 -0.092207
-3.408114 -1.786296 -0.000294
-3.485830 -1.825284 0.090971
-3.657287 -1.912984 0.192006
-3.273941 -1.712669 0.257803
-3.270091 -1.709235 0.343589
-3.306730 -1.726807 0.435502
-19.617325 -10.195546 3.106587
-19.611164 -10.183628 3.629844
0.000278 -0.008881 -0.000350
-2.481520 -1.291506 -1.657087
-2.571489 -1.336862 -1.626570
-2.665778 -1.384948 -1.595567
-2.787631 -1.446632 -1.575222
-2.956476 -1.532391 -1.574717
-3.110245 -1.610952 -1.558098
-3.260268 -1.686773 -1.531965
-3.475733 -1.796107 -1.526539
-3.690482 -1.905719 -1.510648
-3.883144 -2.003025 -1.475383
-4.183548 -2.155456 -1.467611
-4.413265 -2.272324 -1.422564
-4.678142 -2.406110 -1.376440
-5.031564 -2.586101 -1.339815
-5.480228 -2.813486 -1.308854
-6.031742 -3.093093 -1.276690
-6.483737 -3.358545 -1.199287
-7.165460 -3.709133 -1.133657
-8.266998 -4.274295 -1.086458
-8.695757 -4.491681 -0.912964
0.000263 -0.008765 -0.000344
-3.440303 -1.780148 -0.180755
-3.475749 -1.796842 -0.091044
-3.427194 -1.771106 -0.000291
-3.450000 -1.781315 0.089767
-3.502905 -1.806938 0.183342
-3.475402 -1.792060 0.272876
-3.352488 -1.727514 0.351211
-3.217556 -1.656925 0.422494
0.000263 -0.008765 -0.000344
0.000263 -0.008765 -0.000344
-10.407491 -5.328105 2.202017
-2.473554 -1.269266 -1.646881
-2.572891 -1.318756 -1.622648
-2.670512 -1.367869 -1.593686
-2.789512 -1.427194 -1.571628
-2.945859 -1.505413 -1.564446
-3.108024 -1.587112 -1.552400
-3.263298 -1.664530 -1.528878
-3.485958 -1.775974 -1.526536
-3.689595 -1.878400 -1.505858
-3.886110 -1.976253 -1.472179
-4.173695 -2.120027 -1.459863
-4.407335 -2.237245 -1.416498
-4.705683 -2.386012 -1.380489
-5.060210 -2.564012 -1.343502
-5.513737 -2.790617 -1.313011
-6.035357 -3.051139 -1.273725
-6.492376 -3.315671 -1.197338
-7.174277 -3.661443 -1.131709
-8.268383 -4.214837 -1.083443
-8.678813 -4.419798 -0.908505
-3.420266 -1.746395 -0.268572
-3.434419 -1.752063 -0.179913
-3.457441 -1.762240 -0.090300
-3.415879 -1.740393 -0.000288
-3.481554 -1.772161 0.090328
-3.251152 -1.654045 0.169645
-3.284426 -1.670165 0.257111
-3.346332 -1.700000 0.349541
-3.539083 -1.795855 0.463387
-10.445558 -5.281018 1.644287
-10.424601 -5.265865 1.918028
-10.413361 -5.255631 2.196832
-2.474610 -1.251824 -1.642798
-2.575720 -1.301469 -1.619705
-2.675125 -1.350797 -1.591806
-2.802418 -1.413418 -1.574317
-2.957671 -1.489933 -1.566154
-3.133402 -1.577266 -1.560531
-3.281026 -1.649744 -1.532729
-3.487738 -1.751613 -1.522897
-3.688544 -1.851130 -1.501065
-3.902448 -1.956291 -1.474097
-4.194313 -2.100129 -1.462840
-4.396004 -2.199725 -1.408778
-4.682909 -2.340681 -1.369851
-5.078316 -2.536476 -1.344422
-5.496378 -2.742176 -1.305109
-6.031640 -3.005753 -1.269280
-6.495416 -3.270185 -1.194419
-7.181025 -3.612874 -1.129480
-8.278257 -4.159939 -1.081585
-8.680924 -4.358057 -0.906088
0.000257 -0.008552 -0.000336
-3.419384 -1.719645 -0.178607
-3.460337 -1.738617 -0.090110
-3.397150 -1.706306 -0.000287
-3.464822 -1.738583 0.089634
-3.249840 -1.629849 0.169089
-3.286797 -1.647566 0.256555
-3.343534 -1.674391 0.348243
-3.551077 -1.776246 0.463622
0.000257 -0.008552 -0.000336
-10.428197 -5.192482 1.913165
-10.404665 -5.176269 2.188685
0.000267 -0.008455 -0.000333
-2.587801 -1.288841 -1.622641
-2.682821 -1.335255 -1.591801
-2.821682 -1.402694 -1.580595
-2.959660 -1.469583 -1.562728
-3.129549 -1.552076 -1.554020
-3.287116 -1.629078 -1.531184
-3.502742 -1.733853 -1.525075
-3.694333 -1.826643 -1.499012
-3.913598 -1.933690 -1.474094
-4.209723 -2.077518 -1.464028
-4.377854 -2.158260 -1.398853
-4.711895 -2.321241 -1.374406
-5.094977 -2.507054 -1.344880
-5.512496 -2.709424 -1.305107
-6.021076 -2.955986 -1.263353
-6.501710 -3.226503 -1.192147
-7.188079 -3.563086 -1.127252
-8.287775 -4.105069 -1.079728
-8.686183 -4.298207 -0.904043
-9.160389 -4.528419 -0.714505
-3.413044 -1.691881 -0.177766
-3.353651 -1.661129 -0.087092
-3.401787 -1.683364 -0.000283
-3.447801 -1.705276 0.088940
-3.454540 -1.707091 0.179250
-3.303643 -1.631438 0.257118
-3.342628 -1.649166 0.347132
-3.543372 -1.746911 0.461302
-10.426438 -5.119153 1.631762
-10.428617 -5.115692 1.907653
-10.402466 -5.100638 2.182020
-2.479715 -1.218060 -1.636669
-2.585950 -1.268773 -1.616760
-2.698587 -1.323076 -1.596492
-2.818655 -1.380352 -1.574310
-2.974787 -1.455051 -1.566147
-3.140028 -1.534727 -1.554830
-3.296677 -1.609447 -1.531181
-3.507885 -1.710509 -1.522890
-3.684456 -1.795393 -1.490800
-3.907897 -1.902073 -1.467690
-4.180682 -2.032437 -1.449727
-4.378065 -2.127040 -1.394991
-4.727270 -2.293999 -1.374910
-5.091749 -2.469113 -1.340267
-5.508576 -2.668181 -1.300530
-6.039716 -2.922029 -1.263721
-6.504728 -3.179985 -1.189227
-7.206640 -3.520681 -1.126972
-8.304782 -4.052260 -1.078799
-8.638046 -4.210804 -0.896427
-9.173699 -4.469399 -0.713527
-3.422978 -1.671493 -0.177762
-3.485712 -1.700470 -0.090244
-3.405983 -1.661020 -0.000279
-3.445226 -1.678572 0.088619
-3.243397 -1.579356 0.167790
-3.366798 -1.638375 0.261307
-3.439870 -1.672266 0.356240
-3.675233 -1.784541 0.477103
-10.414665 -5.039133 1.625360
-10.415178 -5.034900 1.899870
-10.389998 -5.018258 2.173133
-2.485080 -1.202920 -1.635646
-2.574298 -1.244708 -1.605001
-2.710882 -1.309713 -1.599306
-2.831346 -1.366311 -1.576999
-2.974907 -1.433901 -1.561867
-3.143806 -1.514165 -1.552388
-3.307498 -1.591137 -1.531949
-3.507529 -1.685368 -1.518523
-3.684521 -1.769174 -1.486692
-3.908488 -1.874532 -1.463844
-4.193984 -2.009063 -1.450321
-4.397116 -2.105023 -1.397194
-4.743845 -2.268303 -1.375920
-5.095282 -2.434644 -1.337498
-5.523805 -2.636314 -1.300527
-6.040413 -2.879514 -1.260386
-6.510411 -3.136419 -1.186956
-7.217809 -3.474751 -1.125579
-8.317180 -3.999131 -1.077406
-8.633348 -4.147146 -0.893454
-3.949058 -1.900666 -0.306501
-10.125006 -4.855694 -0.523689
-3.480981 -1.673358 -0.089869
-3.399199 -1.633521 -0.000277
-3.454773 -1.658620 0.088621
-3.248781 -1.558833 0.167607
-3.287882 -1.576778 0.254472
-3.363099 -1.611218 0.347323
-3.493502 -1.671866 0.452247
-10.407693 -4.961969 1.619794
-10.413643 -4.960352 1.894359
-10.386712 -4.943088 2.166468
-2.493467 -1.189233 -1.636664
-2.581377 -1.229759 -1.604998
-2.713541 -1.291715 -1.596486
-2.832641 -1.346840 -1.573407
-2.973260 -1.412010 -1.556729
-3.149123 -1.494377 -1.550758
-3.301523 -1.564895 -1.525009
-3.490160 -1.652343 -1.506881
-3.698000 -1.749429 -1.488057
-3.924295 -1.854330 -1.465763
-4.184692 -1.975042 -1.443170
-4.396940 -2.073843 -1.393332
-4.762018 -2.243332 -1.377438
-5.117973 -2.409303 -1.339801
-5.524664 -2.597737 -1.297199
-6.060402 -2.846258 -1.261125
-6.517603 -3.093723 -1.185009
-7.232273 -3.430500 -1.124742
-8.329231 -3.945998 -1.076014
-8.635429 -4.087068 -0.891223
-3.979739 -1.887158 -0.308032
-10.250315 -4.843256 -0.528718
-3.495929 -1.655748 -0.090005
-3.381353 -1.601045 -0.000275
-3.484132 -1.647949 0.089136
-3.622878 -1.711700 0.186436
-3.305898 -1.561953 0.255173
-3.361463 -1.586644 0.346212
-3.490448 -1.645705 0.450625
-10.407349 -4.888424 1.615341
-10.411603 -4.885986 1.888847
-10.381129 -4.867280 2.159433
-2.492426 -1.171121 -1.631560
-2.589943 -1.215515 -1.605974
-2.717689 -1.274472 -1.594605
-2.840313 -1.330396 -1.573403
-2.986205 -1.397056 -1.559293
-3.157630 -1.476116 -1.550754
-3.313787 -1.547306 -1.526547
-3.486061 -1.625837 -1.501057
-3.711360 -1.729604 -1.489423
-3.936577 -1.832404 -1.466401
-4.199411 -1.952421 -1.444358
-4.426211 -2.056461 -1.398841
-4.744961 -2.201967 -1.368825
-5.119354 -2.373975 -1.336570
-5.518170 -2.555941 -1.292207
-6.081991 -2.813696 -1.262234
-6.529910 -3.053535 -1.184034
-7.237509 -3.382000 -1.122512
-8.340964 -3.892843 -1.074620
-8.691280 -4.052298 -0.894565
-4.057413 -1.895255 -0.313191
-3.976614 -1.855968 -0.204765
-3.508972 -1.637191 -0.090096
-3.366882 -1.570505 -0.000272
-3.439080 -1.602549 0.087744
0.000234 -0.008008 -0.000314
-3.289442 -1.531056 0.253223
-3.363276 -1.563807 0.345473
-3.470955 -1.612156 0.446910
-10.399300 -4.811732 1.609774
-10.394702 -4.805203 1.880741
-10.375013 -4.791713 2.152397
-2.491286 -1.153037 -1.626454
-2.600031 -1.201925 -1.607929
-2.721716 -1.257235 -1.592725
-2.846239 -1.313192 -1.572504
-2.995791 -1.380496 -1.560146
-3.164359 -1.457057 -1.549938
-3.315883 -1.525023 -1.523461
-3.498698 -1.607192 -1.502509
-3.700699 -1.698732 -1.481212
-3.943587 -1.808015 -1.465116
-4.208803 -1.927313 -1.443759
-4.448423 -2.035633 -1.402147
-4.753983 -2.172917 -1.367810
-5.138208 -2.346778 -1.337951
-5.546992 -2.530510 -1.295531
-6.085513 -2.772845 -1.259640
-6.529385 -3.007565 -1.180790
-7.247806 -3.336051 -1.121119
-8.354163 -3.840521 -1.073459
-8.698109 -3.994648 -0.892893
-3.859630 -1.776191 -0.297146
-3.919965 -1.802183 -0.201316
0.000243 -0.007911 -0.000311
-3.361269 -1.544342 -0.000269
-3.466401 -1.590918 0.088212
-3.505918 -1.607494 0.179451
-3.278175 -1.502901 0.251690
-3.388475 -1.551757 0.347147
-3.460240 -1.582996 0.444357
-10.394326 -4.736933 1.604764
-10.395204 -4.732934 1.875878
-10.370171 -4.717178 2.145732
-2.497826 -1.138586 -1.626452
-2.598922 -1.183242 -1.603028
-2.725646 -1.239986 -1.590843
-2.855345 -1.297406 -1.573397
-2.998701 -1.360893 -1.557576
-3.166248 -1.435145 -1.546681
-3.316149 -1.502015 -1.519603
-3.518054 -1.591498 -1.506870
-3.700375 -1.672025 -1.477105
-3.936585 -1.777429 -1.458712
-4.200625 -1.894346 -1.437204
-4.439325 -1.999663 -1.395529
-4.759326 -2.142225 -1.365780
-5.130665 -2.306620 -1.332416
-5.542207 -2.488683 -1.290956
-6.091038 -2.731788 -1.257416
-6.533958 -2.964129 -1.178518
-7.261996 -3.290465 -1.120283
-8.368840 -3.788999 -1.072530
-8.661030 -3.917359 -0.886760
-3.859131 -1.748251 -0.296306
-3.899282 -1.765513 -0.199728
0.000228 -0.007795 -0.000306
-3.363034 -1.520989 -0.000266
-3.442641 -1.556063 0.087380
-3.536939 -1.597003 0.180573
-3.261513 -1.471880 0.249740
-3.364871 -1.516861 0.343806
-3.472888 -1.564560 0.444826
-10.398694 -4.664575 1.601146
-10.388810 -4.655791 1.869718
-10.364814 -4.642860 2.139068
-2.496634 -1.120142 -1.621347
-2.604243 -1.167002 -1.602046
-2.726458 -1.220820 -1.587084
-2.869480 -1.283243 -1.576983
-2.998428 -1.339295 -1.553293
-3.177759 -1.418266 -1.548304
-3.326639 -1.482970 -1.520372
-3.513747 -1.564470 -1.501048
-3.725374 -1.657431 -1.483257
-3.938366 -1.750095 -1.455507
-4.192530 -1.860805 -1.430648
-4.445451 -1.971632 -1.393871
-4.770127 -2.113078 -1.365271
-5.145613 -2.277715 -1.332873
-5.543884 -2.451090 -1.288041
-6.088631 -2.688654 -1.253711
-6.544180 -2.921998 -1.177219
-7.275352 -3.246083 -1.119446
-8.378408 -3.733548 -1.070905
-8.649482 -3.850471 -0.883230
-4.206440 -1.875683 -0.322108
-4.030163 -1.795725 -0.205873
-3.609983 -1.607821 -0.091943
-3.375361 -1.503106 -0.000262
-3.471867 -1.544422 0.087893
-3.528031 -1.567814 0.179644
-3.260757 -1.448947 0.249045
-3.364405 -1.493330 0.342881
-3.449348 -1.529399 0.440647
-10.376413 -4.582952 1.593632
-10.386510 -4.583070 1.864532
-10.357943 -4.566165 2.132032
-2.510886 -1.109092 -1.626444
-2.602895 -1.148381 -1.597144
-2.725305 -1.201463 -1.582387
-2.873504 -1.265163 -1.575185
-2.989471 -1.314676 -1.544735
-3.170748 -1.393268 -1.540980
-3.313088 -1.454094 -1.510348
-3.502178 -1.535161 -1.492315
-3.691726 -1.617088 -1.466155
-3.944854 -1.725783 -1.454224
-4.190877 -1.831202 -1.426475
-4.458444 -1.946673 -1.394420
-4.771518 -2.080858 -1.362230
-5.137173 -2.238652 -1.327338
-5.541693 -2.412040 -1.284297
-6.073312 -2.640165 -1.247413
-6.550002 -2.879426 -1.175271
-7.281181 -3.198477 -1.117495
-8.390618 -3.681172 -1.069744
-8.614903 -3.775769 -0.877469
-4.255507 -1.868126 -0.325035
-3.906731 -1.714031 -0.199072
-3.870198 -1.696467 -0.098297
-3.420576 -1.499541 -0.000258
-3.447656 -1.509936 0.087060
-3.547964 -1.552143 0.180207
-3.269014 -1.430035 0.249050
-3.374727 -1.474628 0.343070
-3.447115 -1.504671 0.439256
-10.377145 -4.512007 1.589736
-10.374655 -4.506616 1.857723
-10.353343 -4.493094 2.125737
-2.512439 -1.092475 -1.623381
-2.604627 -1.131193 -1.594201
-2.727274 -1.183545 -1.579566
-2.869213 -1.243539 -1.568900
-3.003587 -1.300201 -1.548154
-3.173642 -1.372719 -1.538537
-3.324763 -1.436337 -1.511885
-3.500636 -1.510466 -1.487947
-3.723397 -1.605323 -1.475043
-3.952944 -1.702190 -1.453581
-4.182008 -1.798663 -1.419918
-4.439484 -1.908015 -1.385046
-4.776261 -2.050207 -1.360201
-5.117709 -2.195181 -1.319036
-5.555458 -2.379983 -1.284294
-6.070302 -2.597332 -1.243707
-6.550120 -2.834529 -1.172351
-7.279411 -3.147791 -1.114432
-8.397042 -3.626409 -1.067886
-8.598034 -3.709487 -0.873568
-4.396274 -1.899480 -0.334935
-3.885293 -1.677988 -0.197485
-3.563867 -1.538327 -0.090313
-3.465853 -1.495512 -0.000256
-3.454412 -1.489170 0.087017
-10.435779 -4.479099 0.529291
-3.277153 -1.411089 0.249053
-3.394095 -1.459780 0.344187
-3.444728 -1.480004 0.437866
-10.371935 -4.438871 1.585004
-10.369528 -4.433548 1.852212
-10.350072 -4.420980 2.119814
-2.518639 -1.077892 -1.623378
-2.612661 -1.116753 -1.595177
-2.734008 -1.167714 -1.579562
-2.874629 -1.226206 -1.568000
-3.009334 -1.282064 -1.547294
-3.184812 -1.355752 -1.540161
-3.327837 -1.414912 -1.509570
-3.492065 -1.482940 -1.480670
-3.741180 -1.587428 -1.478461
-3.964374 -1.680044 -1.454218
-4.195773 -1.775937 -1.421107
-4.436165 -1.876365 -1.380634
-4.766550 -2.013563 -1.354120
-5.123056 -2.162549 -1.317188
-5.558197 -2.343318 -1.281797
-6.077847 -2.559215 -1.242225
-6.564467 -2.795905 -1.172025
-7.290075 -3.102635 -1.113317
-8.408579 -3.574043 -1.066726
-8.622872 -3.661384 -0.873937
0.000217 -0.007369 -0.000289
-3.876452 -1.647701 -0.196550
-3.563428 -1.513779 -0.090076
-3.411731 -1.448961 -0.000253
-3.466585 -1.470697 0.087114
-3.738543 -1.583966 0.188972
-3.303553 -1.399858 0.250450
-3.395054 -1.437028 0.343446
-3.476945 -1.470064 0.440888
-10.360751 -4.363647 1.579437
-10.365714 -4.361462 1.847025
-10.346309 -4.349062 2.113889
-2.524782 -1.063252 -1.623373
-2.610949 -1.098241 -1.590276
-2.742262 -1.152539 -1.580499
-2.886551 -1.211593 -1.570688
-3.004944 -1.259744 -1.541301
-3.180726 -1.332362 -1.534463
-3.325657 -1.391378 -1.504942
-3.519420 -1.470577 -1.488669
-3.724185 -1.554941 -1.468197
-3.961697 -1.651999 -1.449733
-4.184726 -1.742873 -1.413955
-4.466394 -1.858783 -1.386695
-4.792322 -1.991908 -1.358169
-5.115582 -2.124748 -1.312115
-5.575157 -2.312682 -1.282627
-6.097888 -2.526332 -1.243333
-6.569493 -2.753393 -1.170077
-7.305952 -3.059749 -1.113036
-8.408818 -3.517052 -1.064172
-8.669495 -3.622311 -0.876536
-9.117504 -3.807239 -0.690917
-3.889518 -1.626793 -0.196733
-3.577580 -1.495437 -0.090212
-3.567709 -1.490619 -0.000249
-3.476795 -1.451386 0.087163
0.000224 -0.007275 -0.000286
-3.372347 -1.405920 0.255059
-3.388523 -1.411249 0.341964
-3.459605 -1.439294 0.437638
-10.356386 -4.291710 1.574986
-10.357771 -4.288058 1.841188
-10.334804 -4.274324 2.106484
-2.526213 -1.046202 -1.620310
-2.628679 -1.087251 -1.597129
-2.734322 -1.130097 -1.572044
-2.887028 -1.191632 -1.567095
-3.015439 -1.243698 -1.543010
-3.176703 -1.308511 -1.528764
-3.333806 -1.371523 -1.504939
-3.519163 -1.446664 -1.485029
-3.726335 -1.529879 -1.465459
-3.964079 -1.626197 -1.447169
-4.210546 -1.725152 -1.419314
-4.448817 -1.820539 -1.377871
-4.782168 -1.955423 -1.352088
-5.142484 -2.100120 -1.315800
-5.588353 -2.280434 -1.282623
-6.106822 -2.488868 -1.242220
-6.578343 -2.711297 -1.168779
-7.311118 -3.010978 -1.111085
-8.425810 -3.465505 -1.063706
-8.687110 -3.569207 -0.876162
0.000212 -0.007156 -0.000281
-4.405647 -1.810999 -0.222253
-3.576838 -1.470928 -0.089977
-3.685683 -1.513968 -0.000243
-3.492706 -1.433653 0.087352
-3.754610 -1.539843 0.188886
-3.352869 -1.374491 0.252969
-3.389167 -1.388611 0.341224
-3.451241 -1.412501 0.435551
-10.350412 -4.217439 1.570254
-10.356640 -4.217863 1.836650
-10.333692 -4.204316 2.101300
-2.533585 -1.032613 -1.621326
-2.631424 -1.071158 -1.595167
-2.737279 -1.113383 -1.570162
-2.890272 -1.174065 -1.565298
-3.027547 -1.228234 -1.545573
-3.185608 -1.291340 -1.529575
-3.341377 -1.352782 -1.504935
-3.518768 -1.422783 -1.481387
-3.698174 -1.494215 -1.451090
-3.971564 -1.602553 -1.446527
-4.215064 -1.698635 -1.417523
-4.467796 -1.799149 -1.380625
-4.814841 -1.936408 -1.358164
-5.128787 -2.061161 -1.309342
-5.586805 -2.242319 -1.279295
-6.108247 -2.448447 -1.239624
-6.584205 -2.670714 -1.167154
-7.303888 -2.960377 -1.107465
-8.432087 -3.413115 -1.062081
-8.764099 -3.543665 -0.881920
-9.101434 -3.677937 -0.686450
-10.451097 -4.218044 -0.525634
-3.590770 -1.452448 -0.090113
-3.651352 -1.476111 -0.000242
-3.534013 -1.427450 0.088191
-3.754101 -1.514377 0.188423
-3.371559 -1.360107 0.253810
-3.404474 -1.371924 0.341971
-3.951635 -1.589696 0.497583
-10.349855 -4.149925 1.566637
-10.345901 -4.144144 1.830491
-10.335786 -4.135911 2.096858
-2.526662 -1.012817 -1.613161
-2.631030 -1.053308 -1.591245
-2.748521 -1.099464 -1.572976
-2.885319 -1.152680 -1.559013
-3.022755 -1.206028 -1.539581
-3.186374 -1.269632 -1.526318
-3.333631 -1.327305 -1.497994
-3.518191 -1.398979 -1.477747
-3.710433 -1.473522 -1.452454
-3.945451 -1.565625 -1.433719
-4.222942 -1.673550 -1.416925
-4.476559 -1.771812 -1.380070
-4.788080 -1.893642 -1.347524
-5.148119 -2.033454 -1.311184
-5.570843 -2.197581 -1.272639
-6.104323 -2.404894 -1.235919
-6.588423 -2.628290 -1.165207
-4.455619 -1.777947 -0.674107
-8.436786 -3.358550 -1.060224
-8.675107 -3.449716 -0.870958
-9.089659 -3.610557 -0.683938
-4.466695 -1.776900 -0.224295
-4.128874 -1.641389 -0.103336
-3.665594 -1.456516 -0.000237
-3.702057 -1.470176 0.092189
-3.777580 -1.498510 0.189172
-10.387696 -4.104153 0.780681
-3.423607 -1.356001 0.343088
-4.106709 -1.624310 0.515940
-10.344767 -4.076761 1.562185
-10.342696 -4.071790 1.825628
-10.322790 -4.061876 2.089453
-2.535780 -0.998968 -1.615198
-2.645325 -1.040740 -1.596139
-2.759885 -1.084968 -1.575790
-2.895405 -1.136734 -1.560804
-3.024773 -1.185990 -1.537010
-3.202099 -1.254480 -1.530382
-3.336240 -1.305400 -1.495679
-3.514230 -1.373257 -1.472652
-3.724058 -1.454091 -1.454504
-3.944023 -1.537981 -1.429875
-4.220294 -1.643536 -1.412752
-4.488425 -1.746614 -1.380620
-4.808195 -1.868614 -1.350055
-5.168794 -2.007179 -1.313486
-5.566926 -2.159037 -1.268895
-6.143700 -2.379515 -1.241100
-6.594667 -2.585469 -1.163583
-7.328677 -2.871016 -1.106070
-4.368798 -1.712496 -0.547872
-8.624882 -3.370600 -0.863896
-4.072636 -1.594427 -0.305904
0.000216 -0.006846 -0.000269
-3.652143 -1.427572 -0.091221
-3.677609 -1.436734 -0.000234
-3.714391 -1.449546 0.092284
-3.803117 -1.482487 0.190013
-10.385077 -4.034081 0.778730
-10.355680 -4.018523 1.035945
-4.129208 -1.604832 0.517570
-10.351386 -4.010624 1.559680
-10.332801 -3.999272 1.819793
-4.257364 -1.650146 0.859618
-2.546271 -0.986098 -1.618255
-2.646345 -1.023521 -1.593197
-2.762756 -1.067683 -1.573908
-2.898533 -1.118653 -1.559005
-3.033195 -1.169108 -1.537863
-3.204121 -1.233954 -1.527938
-3.328144 -1.280134 -1.488739
-3.544671 -1.361541 -1.482105
-3.725321 -1.429828 -1.451764
-3.947460 -1.513125 -1.427951
-4.226080 -1.617749 -1.411558
-4.487602 -1.716523 -1.377308
-4.797150 -1.832528 -1.343973
-5.109285 -1.950303 -1.295500
-5.577414 -2.126141 -1.268475
-6.135197 -2.335652 -1.236655
-6.633353 -2.556564 -1.167796
-7.350600 -2.830796 -1.106902
-4.469403 -1.722109 -0.559236
-8.584602 -3.297985 -0.857950
-4.076123 -1.568712 -0.305482
-4.168025 -1.602240 -0.208361
-4.435303 -1.702791 -0.110476
-3.680180 -1.413288 -0.000231
-3.722636 -1.428034 0.092287
-3.847022 -1.473989 0.191787
-10.385705 -3.965618 0.777056
-10.354408 -3.949537 1.033531
-4.123481 -1.575289 0.515714
-10.326123 -3.932578 1.552443
-10.333457 -3.931230 1.815902
-4.345766 -1.655492 0.875544
-2.553468 -0.971934 -1.619273
-2.648900 -1.006926 -1.591234
-2.758910 -1.047912 -1.568271
-2.898185 -1.099334 -1.555413
-3.053379 -1.156611 -1.544704
-3.212843 -1.216025 -1.528748
-3.342339 -1.263442 -1.491818
-3.547182 -1.339042 -1.479919
-3.751040 -1.414867 -1.458601
-3.954299 -1.489604 -1.427308
-4.183438 -1.573869 -1.394278
-4.509968 -1.695283 -1.381164
-4.798503 -1.801412 -1.341439
-5.122195 -1.921452 -1.295959
-5.593173 -2.095279 -1.269305
-6.122726 -2.290572 -1.231469
-6.670064 -2.526619 -1.171685
-7.357473 -2.784833 -1.105508
-4.531247 -1.715878 -0.565727
-3.952209 -1.495863 -0.394272
-4.032763 -1.525432 -0.301574
-4.098590 -1.548584 -0.204447
-4.173616 -1.575126 -0.103743
-3.691957 -1.393392 -0.000228
-3.781309 -1.425433 0.093545
-4.001331 -1.506401 0.199059
-4.154984 -1.563168 0.310052
-10.348962 -3.879297 1.030745
-4.108258 -1.542375 0.512697
-10.320721 -3.862579 1.548269
-10.331859 -3.862597 1.811690
-4.388327 -1.642715 0.882212
-2.552552 -0.954701 -1.615187
-2.649700 -0.989744 -1.588292
-2.768154 -1.033152 -1.570146
-2.899396 -1.080669 -1.552718
-3.056559 -1.137656 -1.542989
-3.218030 -1.196783 -1.527932
-3.347798 -1.243425 -1.491043
-3.511095 -1.302373 -1.461730
-3.727344 -1.381439 -1.446286
-3.959222 -1.465393 -1.426024
-4.195974 -1.550976 -1.395467
-4.510603 -1.665859 -1.378404
-4.814207 -1.775655 -1.342955
-5.134964 -1.892498 -1.296418
-5.592256 -2.058218 -1.266391
-6.167138 -2.266688 -1.237761
-6.701114 -2.494260 -1.174600
-7.341784 -2.730618 -1.100774
-8.469427 -3.145642 -1.054882
-3.925234 -1.459849 -0.390740
-4.015244 -1.492397 -0.299618
-4.099912 -1.522086 -0.204070
-4.160055 -1.542673 -0.103185
-4.093892 -1.517433 -0.000222
-3.823180 -1.415995 0.094383
-4.019266 -1.486694 0.199527
-4.152658 -1.534969 0.309219
-10.352388 -3.812689 1.028889
-10.346933 -3.806589 1.288872
-10.320445 -3.794806 1.544931
-10.357571 -3.804337 1.812338
-10.397477 -3.814828 2.086126
-2.548265 -0.936356 -1.609063
-2.652034 -0.973184 -1.586330
-2.759087 -1.011657 -1.561693
-2.903861 -1.063234 -1.551816
-3.051122 -1.115619 -1.536997
-3.218161 -1.175080 -1.524675
-3.354864 -1.224033 -1.491040
-3.534263 -1.287750 -1.468274
-3.747801 -1.363686 -1.451071
-3.976469 -1.445693 -1.429221
-4.208403 -1.527973 -1.396654
-4.511314 -1.635722 -1.375646
-4.847983 -1.756331 -1.349536
-5.162551 -1.867835 -1.300564
-5.598807 -2.022919 -1.265141
-6.150849 -2.219320 -1.231834
-6.739435 -2.464321 -1.178812
-7.346639 -2.682864 -1.099102
-4.334113 -1.584541 -0.538815
-3.941018 -1.439850 -0.391480
-4.031489 -1.471177 -0.300172
-4.108562 -1.498360 -0.204068
-4.189505 -1.526095 -0.103692
-4.065180 -1.479392 -0.000219
-3.898898 -1.418376 0.096058
-3.975115 -1.444403 0.196921
-4.249826 -1.542092 0.315779
-4.347209 -1.575563 0.430987
-10.348098 -3.739440 1.286319
-10.314786 -3.723360 1.540757
-10.404061 -3.751425 1.816555
-4.493812 -1.623132 0.899624
-2.561828 -0.924028 -1.614161
-2.651164 -0.954976 -1.582407
-2.766674 -0.995751 -1.562627
-2.911772 -1.046482 -1.552710
-3.045533 -1.093688 -1.531004
-3.235179 -1.160096 -1.529552
-3.362011 -1.204023 -1.491038
-3.539828 -1.266653 -1.467543
-3.755560 -1.341982 -1.451068
-3.968607 -1.416977 -1.423457
-4.209894 -1.501064 -1.394268
-4.502496 -1.603197 -1.370131
-4.843388 -1.723120 -1.345481
-5.153001 -1.830838 -1.295489
-5.617349 -1.994150 -1.266802
-6.166825 -2.186145 -1.232571
-6.770608 -2.430204 -1.181729
-7.339542 -2.632422 -1.095760
-4.300368 -1.543330 -0.533478
-3.973835 -1.425048 -0.393892
-4.024841 -1.442461 -0.299052
-4.111705 -1.471842 -0.203785
-4.181247 -1.495798 -0.103270
-4.220563 -1.508160 -0.000215
-3.907223 -1.395105 0.096062
-3.975797 -1.418721 0.196551
-4.155194 -1.480793 0.308109
-10.335462 -3.671760 1.022946
-10.339440 -3.669111 1.282602
-4.691809 -1.666586 0.699274
-10.532713 -3.731360 1.835363
-10.709332 -3.789613 2.139824
-2.568551 -0.910165 -1.615177
-2.658063 -0.940639 -1.583384
-2.762151 -0.976686 -1.556991
-2.919219 -1.030698 -1.553604
-3.063707 -1.080198 -1.536989
-3.217617 -1.132903 -1.518161
-3.359942 -1.182077 -1.487180
-3.534711 -1.241848 -1.462448
-3.743665 -1.313425 -1.443541
-3.946264 -1.383380 -1.412569
-4.220239 -1.477324 -1.394860
-4.507992 -1.575877 -1.369025
-4.809329 -1.679853 -1.333323
-5.154219 -1.797855 -1.293181
-5.597624 -1.949785 -1.259730
-6.164779 -2.144288 -1.229607
-6.767284 -2.386371 -1.178808
-7.352664 -2.589377 -1.095480
-8.492375 -2.988098 -1.051165
-4.376302 -1.541154 -0.432901
-4.025506 -1.416530 -0.298491
-4.116056 -1.447437 -0.203595
-4.199189 -1.474902 -0.103499
-4.263133 -1.495602 -0.000211
-3.911140 -1.371853 0.095972
-3.991413 -1.398332 0.196927
-4.191870 -1.466594 0.310205
-10.321280 -3.597868 1.019417
-10.324705 -3.597034 1.278189
-10.304510 -3.585966 1.532966
-10.709391 -3.722408 1.862280
-10.898059 -3.785764 2.173154
-2.568977 -0.893133 -1.612114
-2.666853 -0.925890 -1.585340
-2.772884 -0.961893 -1.559803
-2.916788 -1.010360 -1.549114
-3.059753 -1.058390 -1.531853
-3.227503 -1.115449 -1.519784
-3.363371 -1.160822 -1.485635
-3.563123 -1.228014 -1.471174
-3.736907 -1.286873 -1.438065
-3.957937 -1.361081 -1.413848
-4.194568 -1.440426 -1.383538
-4.511506 -1.547921 -1.367367
-4.773392 -1.635573 -1.320658
-5.162616 -1.767416 -1.292717
-5.655028 -1.933192 -1.270122
-6.171400 -2.106768 -1.228494
-6.768232 -2.341575 -1.176535
-7.359930 -2.544321 -1.094364
-8.504279 -2.935633 -1.050467
-3.950364 -1.365393 -0.389984
-4.031670 -1.392582 -0.298349
-4.120759 -1.421595 -0.203405
-4.190802 -1.444034 -0.103079
-4.252716 -1.464454 -0.000209
-3.907817 -1.344647 0.095696
-4.001501 -1.375172 0.197024
-10.295980 -3.526660 0.760740
-4.579076 -1.570097 0.451249
-10.311995 -3.524078 1.274011
-10.293072 -3.515633 1.528235
0.000184 -0.006092 -0.000240
-11.074738 -3.773482 2.203893
-2.569166 -0.876561 -1.609049
-2.673774 -0.910962 -1.586314
-2.771642 -0.943553 -1.556044
-2.920824 -0.992880 -1.548213
-3.076036 -1.044121 -1.536983
-3.218259 -1.091488 -1.512460
-3.375220 -1.143096 -1.487943
-3.543632 -1.198449 -1.460258
-3.756687 -1.269433 -1.442850
-3.960300 -1.336349 -1.411923
-4.199123 -1.414951 -1.382345
-4.502068 -1.515722 -1.361852
-4.782698 -1.607961 -1.320655
-5.180050 -1.740037 -1.294558
-5.632623 -1.889348 -1.262635
-6.202050 -2.077312 -1.232193
-6.775956 -2.300575 -1.175560
-7.368804 -2.499890 -1.093526
-8.521001 -2.886533 -1.050465
-3.922274 -1.330425 -0.386452
-4.028251 -1.365410 -0.297508
-10.393340 -3.509342 -0.511647
-10.397374 -3.506650 -0.254876
0.000191 -0.005998 -0.000236
-3.894613 -1.315018 0.095189
-10.293442 -3.461657 0.506199
-10.304732 -3.463420 0.759906
-4.574786 -1.539182 0.449951
-10.288752 -3.450060 1.268669
-10.286821 -3.447414 1.524341
0.000191 -0.005998 -0.000236
-11.256575 -3.763085 2.235742
-2.567597 -0.859489 -1.604965
-2.665700 -0.891053 -1.578474
-2.787057 -0.930806 -1.561674
-2.928160 -0.976500 -1.549107
-3.066515 -1.021178 -1.529279
-3.222730 -1.072255 -1.511642
-3.371190 -1.120072 -1.483315
-3.561033 -1.181446 -1.464621
-3.740700 -1.240021 -1.433954
-3.991272 -1.321148 -1.420243
-4.208986 -1.391242 -1.382937
-4.539922 -1.499273 -1.370668
-4.793685 -1.580899 -1.321158
-5.188106 -1.709467 -1.294093
-5.632216 -1.853129 -1.260138
-6.172768 -2.028026 -1.224044
-6.783421 -2.259571 -1.174586
-7.377390 -2.455468 -1.092689
-8.511040 -2.828578 -1.047216
-3.954418 -1.315851 -0.388863
-4.032223 -1.340841 -0.297226
0.000178 -0.005879 -0.000231
0.000178 -0.005879 -0.000231
-3.834321 -1.271610 -0.000204
-3.907791 -1.294339 0.095332
0.000178 -0.005879 -0.000231
-10.271387 -3.386492 0.756000
-4.572195 -1.508978 0.448840
-10.285746 -3.383251 1.265882
-10.287642 -3.381866 1.521559
-4.300049 -1.415351 0.743283
-4.540611 -1.492441 0.900010
-2.582302 -0.847770 -1.611081
-2.670749 -0.875594 -1.578470
-2.802417 -0.917916 -1.567304
-2.928596 -0.957871 -1.546412
-3.051681 -0.996702 -1.519008
-3.211427 -1.047951 -1.503505
-3.384578 -1.102814 -1.486395
-3.550037 -1.155065 -1.457341
-3.760267 -1.222405 -1.438739
-3.982565 -1.292790 -1.414477
-4.202365 -1.362187 -1.378167
-4.515495 -1.462403 -1.360744
-4.806365 -1.554353 -1.322167
-5.170043 -1.670526 -1.287174
-5.661395 -1.826552 -1.264292
-6.182445 -1.991748 -1.223671
-6.830057 -2.231391 -1.180419
-4.372602 -1.429788 -0.646518
-8.513939 -2.775124 -1.045590
-3.973241 -1.296667 -0.389976
-4.043629 -1.318744 -0.297502
-4.117988 -1.341281 -0.202091
-4.176974 -1.358806 -0.102141
-4.096506 -1.331967 -0.000200
-3.922752 -1.274183 0.095521
-3.997941 -1.296951 0.195730
0.000166 -0.005761 -0.000226
-4.584562 -1.483756 0.449215
-10.295576 -3.320831 1.264723
0.000166 -0.005761 -0.000226
-4.306210 -1.389872 0.742962
-4.354475 -1.403693 0.861500
-2.573987 -0.828604 -1.602917
-2.675717 -0.860095 -1.578467
-2.809300 -0.902206 -1.568240
-2.928923 -0.939262 -1.543716
-3.069407 -0.982839 -1.524993
-3.228018 -1.032089 -1.508381
-3.389081 -1.082646 -1.485620
-3.567239 -1.137900 -1.461704
-3.767413 -1.199982 -1.438736
-3.984478 -1.268033 -1.412554
-4.235570 -1.345949 -1.386505
-4.520390 -1.434332 -1.359638
-4.818882 -1.527727 -1.323178
-5.177959 -1.639154 -1.286711
-5.638508 -1.782257 -1.256804
-6.182864 -1.951403 -1.221447
-6.844648 -2.192528 -1.180740
-4.373433 -1.401309 -0.645401
-4.523115 -1.448208 -0.554566
-4.261435 -1.363111 -0.417466
-4.068463 -1.300076 -0.298754
-4.121781 -1.316258 -0.201903
-4.198034 -1.338874 -0.102463
0.000173 -0.005666 -0.000223
-3.926166 -1.250281 0.095430
-4.011026 -1.275617 0.196013
-10.272159 -3.253981 0.753213
-4.538184 -1.439038 0.443830
-4.671247 -1.480180 0.572662
-10.281062 -3.246918 1.514881
-4.293648 -1.357678 0.739399
0.000173 -0.005666 -0.000223
-2.577174 -0.812714 -1.601894
-2.684062 -0.845151 -1.580423
-2.806136 -0.882798 -1.563542
-2.932717 -0.921225 -1.542814
-3.071691 -0.963445 -1.523279
-3.237361 -1.014471 -1.510005
-3.388364 -1.060231 -1.482534
-3.579233 -1.118272 -1.463882
-3.768845 -1.176494 -1.436680
-3.999141 -1.246516 -1.415111
-4.205154 -1.308826 -1.373991
-4.497323 -1.398510 -1.350263
-4.818593 -1.496149 -1.320641
-5.164980 -1.602306 -1.281173
-5.650514 -1.750242 -1.257217
-6.190211 -1.914514 -1.220703
-6.863151 -2.153558 -1.181710
-4.370061 -1.372455 -0.643727
-4.512629 -1.415333 -0.552243
-4.366373 -1.367950 -0.426936
-4.066328 -1.273556 -0.298053
-4.098973 -1.282174 -0.200409
-4.190589 -1.309102 -0.102088
-10.282459 -3.202008 -0.000155
-10.278898 -3.196958 0.249732
-10.269717 -3.190162 0.501269
-10.275451 -3.189969 0.752099
0.000161 -0.005548 -0.000218
-4.531882 -1.406581 0.554545
-4.208267 -1.305736 0.618849
-4.280610 -1.326441 0.735835
-4.347972 -1.345563 0.857062
-2.585078 -0.798757 -1.603930
-2.690516 -0.830093 -1.581399
-2.807777 -0.865475 -1.561660
-2.929379 -0.901620 -1.538325
-3.068522 -0.942991 -1.518996
-3.250103 -0.997851 -1.513255
-3.408489 -1.044920 -1.488698
-3.578449 -1.095380 -1.460969
-3.762936 -1.150849 -1.431889
-3.944579 -1.204636 -1.393341
-4.216253 -1.285595 -1.375179
-4.508959 -1.373602 -1.351362
-4.803008 -1.461002 -1.314055
-5.177797 -1.573585 -1.282094
-5.566822 -1.689281 -1.236425
-6.236834 -1.889556 -1.227737
-6.864088 -2.110435 -1.179762
-4.394887 -1.352407 -0.646230
-4.507377 -1.385156 -0.550616
-8.725578 -2.672962 -0.851425
-4.065917 -1.247702 -0.297493
-4.087143 -1.252628 -0.199475
-4.194211 -1.283677 -0.101991
-4.486375 -1.371860 -0.000187
-10.283708 -3.133562 0.249409
-4.054268 -1.237159 0.197417
-10.287884 -3.128927 0.751683
0.000167 -0.005453 -0.000214
-4.439111 -1.349850 0.542235
-4.651679 -1.413340 0.682874
-4.284371 -1.300528 0.735190
-4.349983 -1.318690 0.855955
-2.584667 -0.782268 -1.600866
-2.683538 -0.810969 -1.574537
-2.810992 -0.848687 -1.560717
-2.931077 -0.883604 -1.536526
-3.087725 -0.929351 -1.525838
-3.254023 -0.978489 -1.512438
-3.407361 -1.023048 -1.485610
-3.568602 -1.069860 -1.454418
-3.783874 -1.133361 -1.437358
-3.967762 -1.186671 -1.399100
-4.229045 -1.262829 -1.376963
-4.518592 -1.348080 -1.351911
-4.831723 -1.439272 -1.319623
-5.143841 -1.530913 -1.271484
-5.638325 -1.675436 -1.250144
-6.232515 -1.849045 -1.224770
-6.879862 -2.071929 -1.180408
-7.399710 -2.226657 -1.085996
-4.484803 -1.349955 -0.546902
-8.584380 -2.575731 -0.836187
-4.076828 -1.225314 -0.297768
-4.092349 -1.228393 -0.199377
0.000155 -0.005335 -0.000210
-4.513337 -1.351623 -0.000184
-3.954956 -1.183575 0.095626
-4.076599 -1.218269 0.198165
-10.280837 -3.062161 0.749871
-10.281521 -3.058466 1.000480
-4.467730 -1.330382 0.544794
-4.576172 -1.361656 0.670631
-4.291766 -1.275731 0.735194
-4.353699 -1.292417 0.855218
-2.594044 -0.768735 -1.603923
-2.693162 -0.796867 -1.577472
-2.819190 -0.833379 -1.562591
-2.929234 -0.864588 -1.532932
-3.086043 -0.909435 -1.522413
-3.250794 -0.957078 -1.508368
-3.400768 -0.999686 -1.480211
-3.558572 -1.044502 -1.447868
-3.792122 -1.111973 -1.438038
-3.965408 -1.161048 -1.395895
-4.214212 -1.231965 -1.369811
-4.494869 -1.312810 -1.342536
-4.849195 -1.414025 -1.322152
-5.156265 -1.502270 -1.272404
-5.661005 -1.646658 -1.253051
-6.250571 -1.815231 -1.226249
-6.874615 -2.027171 -1.177487
-4.339811 -1.280839 -0.635925
-4.475321 -1.318971 -0.544811
-8.616224 -2.531222 -0.837858
-4.131652 -1.215744 -0.301252
-4.147259 -1.218739 -0.201703
-4.212494 -1.236220 -0.102078
-3.887478 -1.140502 -0.000184
-3.953990 -1.158450 0.095444
-4.060516 -1.187956 0.197051
-10.307833 -3.005621 0.750570
-10.293195 -2.997465 0.999925
-4.816775 -1.403663 0.586382
-4.540147 -1.322507 0.664231
-4.287637 -1.247605 0.733251
-4.521520 -1.313659 0.886698
-2.601716 -0.754626 -1.605959
-2.692637 -0.779813 -1.574530
-2.808640 -0.812638 -1.554137
-2.923810 -0.844664 -1.527546
-3.086001 -0.890042 -1.519841
-3.247595 -0.935171 -1.504297
-3.408192 -0.980513 -1.480980
-3.566289 -1.024406 -1.448592
-3.802237 -1.090390 -1.439402
-3.962902 -1.135487 -1.392689
-4.213860 -1.205485 -1.367425
-4.497001 -1.284442 -1.340878
-4.851644 -1.384393 -1.320629
-5.189393 -1.478467 -1.278395
-5.653707 -1.608144 -1.249305
-6.244186 -1.773194 -1.222913
-6.893732 -1.989639 -1.178781
-4.324469 -1.248400 -0.632581
-4.461816 -1.287043 -0.542256
-8.596159 -2.471606 -0.834512
-4.449482 -1.280134 -0.323848
-10.346316 -2.967871 -0.502036
-10.344271 -2.963374 -0.249941
-3.882596 -1.114038 -0.000181
-3.962491 -1.136109 0.095494
-4.147939 -1.187473 0.200967
-10.302420 -2.937784 0.748897
-10.289682 -2.930282 0.997883
-4.455951 -1.271043 0.541549
-4.603137 -1.311125 0.672307
-4.281621 -1.218303 0.730983
-4.345546 -1.235572 0.850781
-2.602800 -0.738147 -1.603915
-2.700559 -0.764652 -1.576485
-2.806588 -0.793947 -1.550378
-2.940790 -0.830581 -1.533823
-3.101490 -0.875087 -1.524972
-3.258194 -0.917815 -1.506733
-3.421031 -0.962165 -1.484059
-3.581074 -1.006260 -1.452226
-3.793951 -1.064328 -1.433926
-3.980287 -1.115614 -1.396528
-4.229890 -1.183674 -1.370401
-4.502450 -1.257905 -1.340323
-4.852042 -1.354272 -1.318600
-5.137794 -1.431793 -1.263636
-5.638071 -1.569649 -1.243896
-6.231216 -1.731927 -1.218468
-6.903481 -1.948083 -1.178454
-4.337256 -1.225005 -0.633414
-4.454033 -1.256166 -0.540398
-4.632163 -1.304439 -0.449027
0.000156 -0.005028 -0.000198
-10.344467 -2.900972 -0.501103
0.000156 -0.005028 -0.000198
-3.875446 -1.087785 -0.000177
-3.967216 -1.111938 0.095451
-4.152766 -1.162920 0.200878
-10.301841 -2.873507 0.747645
-10.282842 -2.866282 0.995656
-10.283473 -2.862586 1.248010
-4.572418 -1.273906 0.666743
-4.341595 -1.209029 0.740067
-4.350650 -1.209922 0.850412
-2.611831 -0.724872 -1.606972
-2.696342 -0.747159 -1.571584
-2.795617 -0.773956 -1.541924
-2.948797 -0.814996 -1.535615
-3.106444 -0.857119 -1.524969
-3.249282 -0.895094 -1.500223
-3.412094 -0.939040 -1.477888
-3.595769 -0.987979 -1.455860
-3.785470 -1.038417 -1.428451
-3.990262 -1.093587 -1.397806
-4.199784 -1.149147 -1.358481
-4.481753 -1.224301 -1.332052
-4.813058 -1.313522 -1.305934
-5.149674 -1.403116 -1.264556
-5.628364 -1.530969 -1.239736
-6.182535 -1.678915 -1.206986
-6.906600 -1.907327 -1.177155
-4.355685 -1.203048 -0.635079
-4.447552 -1.227486 -0.538770
-4.585561 -1.263717 -0.443823
-4.444629 -1.223337 -0.322446
-10.333481 -2.835710 -0.499798
-10.344844 -2.834935 -0.249149
-3.887404 -1.066936 -0.000174
-3.990690 -1.094418 0.095872
-4.199838 -1.149934 0.202838
-10.300858 -2.809341 0.746391
-10.278482 -2.799412 0.993614
-10.274820 -2.796483 1.244992
-4.575834 -1.246418 0.666190
-4.283885 -1.165619 0.729045
-4.359423 -1.185257 0.850787
-2.604434 -0.706128 -1.599827
-2.709129 -0.733303 -1.576478
-2.806950 -0.759091 -1.545677
-2.957013 -0.798309 -1.537406
-3.092232 -0.833433 -1.515553
-3.261416 -0.878156 -1.503473
-3.435399 -0.923456 -1.485594
-3.606932 -0.967978 -1.458039
-3.793173 -1.016994 -1.429132
-3.994825 -1.069304 -1.397162
-4.236013 -1.131977 -1.368010
-4.486846 -1.197882 -1.331497
-4.815123 -1.283363 -1.304412
-5.146344 -1.370358 -1.261786
-5.646520 -1.500938 -1.241811
-6.228185 -1.652737 -1.214018
-6.898707 -1.861102 -1.173910
-7.428411 -2.002235 -1.081251
-4.333852 -1.168532 -0.524155
0.000151 -0.004815 -0.000190
-4.445776 -1.196092 -0.322025
-10.334670 -2.770124 -0.499049
0.000151 -0.004815 -0.000190
-10.329942 -2.763074 -0.000142
-4.064710 -1.088646 0.097501
-4.916999 -1.314073 0.237129
-10.289833 -2.742724 0.744439
-10.273230 -2.734474 0.991572
-10.277771 -2.731817 1.243369
-4.586731 -1.220970 0.666750
-4.324833 -1.149934 0.734884
-4.370137 -1.160293 0.851530
-2.606762 -0.690583 -1.598803
-2.709897 -0.716711 -1.574515
-2.809543 -0.742364 -1.544734
-2.940785 -0.775728 -1.526633
-3.082956 -0.811856 -1.508705
-3.264620 -0.858803 -1.502656
-3.419217 -0.897950 -1.476339
-3.599814 -0.943788 -1.452942
-3.782578 -0.990761 -1.422972
-3.995395 -1.044745 -1.395237
-4.211013 -1.099312 -1.357880
-4.530864 -1.181588 -1.342518
-4.799937 -1.249683 -1.298330
-5.125871 -1.333279 -1.254866
-5.656924 -1.468809 -1.242225
-6.199514 -1.606914 -1.206608
-6.890184 -1.816244 -1.170665
-7.426367 -1.955827 -1.079301
-4.459618 -1.174713 -0.538532
-4.324515 -1.137647 -0.417250
-4.458350 -1.171897 -0.322441
-10.323349 -2.703421 -0.497743
-10.330786 -2.701514 -0.248031
-10.318567 -2.696388 -0.000139
-4.047656 -1.059088 0.096947
-4.843252 -1.264517 0.233219
-10.284191 -2.677821 0.742907
-10.269496 -2.670192 0.989716
-10.270205 -2.666544 1.240582
-4.683770 -1.217784 0.679836
-4.325642 -1.123414 0.733917
-4.378620 -1.135505 0.851904
-2.613991 -0.676325 -1.600841
-2.712271 -0.700552 -1.573532
-2.818867 -0.727393 -1.547548
-2.952120 -0.760440 -1.530218
-3.082312 -0.792633 -1.506133
-3.253715 -0.835238 -1.495330
-3.424304 -0.878145 -1.476335
-3.596129 -0.920646 -1.449302
-3.773795 -0.964495 -1.417496
-3.999480 -1.021155 -1.394593
-4.257973 -1.085265 -1.370982
-4.522855 -1.150814 -1.338105
-4.780769 -1.215276 -1.291236
-5.105361 -1.295592 -1.247946
-5.659817 -1.433693 -1.240974
-6.241304 -1.578184 -1.212901
-6.906240 -1.777913 -1.171634
-4.370173 -1.125102 -0.634234
-4.462416 -1.147943 -0.538065
-4.425491 -1.136818 -0.426350
-4.467144 -1.145809 -0.322576
-4.618574 -1.183631 -0.222457
-10.332580 -2.638445 -0.247703
-10.324655 -2.632578 -0.000137
0.000145 -0.004602 -0.000181
-4.803955 -1.224705 0.230987
-10.278584 -2.611288 0.741374
-10.261975 -2.603256 0.987490
-10.254566 -2.599469 1.236868
0.000145 -0.004602 -0.000181
-4.334111 -1.098125 0.734244
-4.385067 -1.110171 0.851907
-2.614610 -0.659850 -1.598795
-2.711267 -0.683092 -1.570590
-2.826538 -0.711412 -1.549422
-2.954799 -0.742396 -1.529318
-3.118362 -0.782658 -1.521532
-3.253110 -0.815080 -1.492887
-3.422257 -0.855942 -1.473249
-3.603154 -0.900276 -1.450026
-3.770132 -0.940392 -1.414073
-3.992404 -0.994810 -1.390108
-4.241882 -1.055124 -1.363829
-4.508851 -1.119576 -1.332038
-4.804565 -1.191811 -1.295791
-5.116483 -1.267013 -1.248865
-5.665820 -1.401490 -1.240554
-6.248089 -1.542748 -1.212527
-6.878361 -1.727219 -1.165146
0.000133 -0.004484 -0.000176
-4.272545 -1.072225 -0.514403
-4.350970 -1.090212 -0.418545
-4.427179 -1.108388 -0.319224
-4.852292 -1.212603 -0.233354
-10.320417 -2.572052 -0.247050
-4.586469 -1.143849 -0.000158
-4.061656 -1.011973 0.097001
-4.744978 -1.180580 0.227823
-4.886157 -1.213766 0.351835
-10.253110 -2.540112 0.985262
-5.131692 -1.271693 0.617997
-4.618787 -1.143316 0.668430
-4.336326 -1.072858 0.733599
-4.397079 -1.086221 0.853021
-2.616551 -0.644740 -1.597772
-2.713337 -0.667410 -1.569605
-2.828725 -0.695101 -1.548479
-2.943259 -0.721965 -1.521237
-3.114021 -0.762443 -1.517249
-3.285997 -0.803708 -1.505899
-3.419790 -0.834972 -1.470162
-3.599207 -0.877215 -1.446384
-3.800873 -0.925423 -1.423645
-4.003550 -0.973059 -1.392026
-4.244141 -1.029699 -1.362635
-4.513125 -1.093850 -1.331484
-4.807552 -1.163131 -1.294775
-5.019405 -1.213259 -1.223500
-5.658538 -1.365107 -1.237226
-6.247285 -1.504360 -1.210672
-6.885955 -1.688226 -1.164819
-4.213284 -1.033916 -0.609734
-4.272658 -1.046834 -0.513703
-4.504009 -1.101622 -0.432660
-4.431338 -1.083080 -0.319081
-4.903611 -1.196246 -0.235494
-10.313639 -2.507328 -0.246539
-4.577201 -1.114365 -0.000155
-4.735712 -1.151044 0.112975
-4.767211 -1.156897 0.228572
-4.863735 -1.179352 0.349744
-10.250121 -2.476743 0.983593
-4.802879 -1.161086 0.577580
-5.012116 -1.210551 0.724382
-10.231588 -2.462801 1.728721
-4.523643 -1.089672 0.876355
-2.606802 -0.626378 -1.589608
-2.701839 -0.648047 -1.560785
-2.820641 -0.675825 -1.541902
-2.962984 -0.708633 -1.529311
-3.106012 -0.741487 -1.511257
-3.283578 -0.782407 -1.502641
-3.410143 -0.811775 -1.463992
-3.595093 -0.854245 -1.442744
-3.815428 -0.904909 -1.427062
-4.005390 -0.949008 -1.390741
-4.214670 -0.996829 -1.351313
-4.487708 -1.059467 -1.322108
-4.816036 -1.135773 -1.295278
-4.979115 -1.172258 -1.211969
-5.013186 -1.178401 -1.094597
-6.259898 -1.468076 -1.211410
-6.887842 -1.646641 -1.163520
-4.196208 -1.003289 -0.606390
-4.278594 -1.022114 -0.513700
-4.339768 -1.035064 -0.416307
-4.451249 -1.059897 -0.320054
-4.931779 -1.172958 -0.236515
-4.862293 -1.154684 -0.116157
-4.572041 -1.084326 -0.000151
-10.284405 -2.431831 0.245208
-4.725152 -1.117876 0.226245
-4.890038 -1.154955 0.351143
-4.706726 -1.110071 0.450933
-4.807521 -1.132868 0.577351
-10.237102 -2.403680 1.477609
-10.222932 -2.396581 1.724832
-4.577670 -1.074691 0.885616
-2.620520 -0.613118 -1.595724
-2.714104 -0.633873 -1.565680
-2.815981 -0.656982 -1.537203
-2.965386 -0.690523 -1.528409
-3.092610 -0.719399 -1.502695
-3.266644 -0.758449 -1.492875
-3.422061 -0.793093 -1.467072
-3.581776 -0.829248 -1.435466
-3.807727 -0.879877 -1.422270
-4.031060 -0.930517 -1.397781
-4.244500 -0.978000 -1.359054
-4.508701 -1.036947 -1.326515
-4.805500 -1.104034 -1.290716
-4.940231 -1.133062 -1.200899
-4.985332 -1.142458 -1.087109
-5.037725 -1.152573 -0.973677
-6.885943 -1.602969 -1.161570
-4.558807 -1.061819 -0.657880
-4.274889 -0.994367 -0.512536
-4.355507 -1.011451 -0.417233
-8.982668 -2.079863 -0.644821
-4.705023 -1.089693 -0.225332
-10.308659 -2.380588 -0.245744
-4.634698 -1.070902 -0.000148
-10.279139 -2.366216 0.244746
-4.729538 -1.090108 0.226156
-4.846025 -1.115090 0.347519
-4.683711 -1.077009 0.448149
-10.247691 -2.347675 1.229212
0.000134 -0.004176 -0.000165
-10.222660 -2.336309 1.722565
-4.595263 -1.050828 0.887842
-2.618835 -0.597249 -1.592660
-2.722688 -0.619754 -1.568614
-2.821411 -0.641051 -1.538139
-2.960443 -0.671898 -1.523919
-3.101963 -0.702681 -1.505259
-3.267373 -0.738721 -1.491245
-3.406752 -0.768818 -1.458589
-3.582834 -0.807696 -1.434007
-3.810873 -0.857428 -1.421582
-3.997654 -0.897804 -1.384333
-4.237168 -0.949789 -1.354880
-4.516451 -1.011286 -1.327063
-4.755278 -1.062803 -1.275518
-4.937329 -1.101541 -1.198591
-4.963538 -1.105544 -1.080869
-5.006088 -1.114047 -0.966266
-6.906308 -1.567020 -1.163513
-7.437469 -1.684498 -1.071768
-4.557450 -1.032944 -0.545701
-4.401864 -0.996206 -0.421131
0.000122 -0.004058 -0.000159
-4.524076 -1.020440 -0.216385
-10.312414 -2.318916 -0.245510
-4.716877 -1.061158 -0.000144
-10.278900 -2.303854 0.244423
-4.769037 -1.069345 0.227742
-4.850391 -1.086640 0.347382
-4.719156 -1.055593 0.450940
-4.814584 -1.075094 0.576661
-5.127332 -1.142794 0.738032
-10.217030 -2.271281 1.719324
-4.614822 -1.026430 0.890438
-2.619050 -0.580401 -1.590616
-2.728094 -0.603400 -1.569591
-2.821679 -0.623455 -1.536258
-2.959239 -0.652548 -1.521222
-3.098990 -0.682621 -1.501833
-3.284171 -0.721955 -1.496935
-3.414829 -0.749291 -1.460127
-3.589360 -0.786725 -1.434731
-3.791993 -0.829514 -1.412686
-4.011990 -0.876689 -1.387531
-4.242541 -0.925280 -1.354877
-4.531745 -0.986412 -1.329815
-4.789649 -1.041465 -1.283113
-4.937879 -1.071743 -1.197203
-4.950506 -1.073574 -1.076706
-4.975891 -1.077236 -0.959227
-4.155560 -0.917766 -0.699205
-4.255542 -0.938994 -0.612504
-4.299754 -0.947113 -0.514153
-4.544003 -0.999037 -0.434132
-4.435855 -0.974533 -0.317672
-4.651047 -1.019913 -0.222157
-4.826921 -1.057454 -0.114848
-4.721114 -1.032630 -0.000140
-10.270876 -2.238074 0.243915
-10.258970 -2.233608 0.489469
-4.835288 -1.053091 0.345851
-4.744591 -1.032532 0.452801
-4.787664 -1.040114 0.572716
0.000129 -0.003963 -0.000156
0.000129 -0.003963 -0.000156
-10.217395 -2.205894 1.969154
-2.627282 -0.566743 -1.593673
-2.726289 -0.586958 -1.566648
-2.818198 -0.606100 -1.532498
-2.968042 -0.637051 -1.523912
-3.109912 -0.666175 -1.505253
-3.282763 -0.702374 -1.494492
-3.431573 -0.732799 -1.465520
-3.606576 -0.768640 -1.439819
-3.796540 -0.808233 -1.412683
-4.011397 -0.852292 -1.385606
-4.251513 -0.901526 -1.356065
-4.505170 -0.954260 -1.320441
-4.803130 -1.015355 -1.285135
-4.926621 -1.040458 -1.193050
-4.948918 -1.043353 -1.075040
-4.951211 -1.042021 -0.953299
-4.141294 -0.890329 -0.695960
-4.221967 -0.906834 -0.606934
-4.285523 -0.918849 -0.511830
