# This PCD file was generated using the MATLAB® pcwrite function
# from Computer Vision Toolbox®.
# .PCD v.7 - Point Cloud Data file format
VERSION .7
FIELDS x y z
SIZE 4 4 4
TYPE F F F
COUNT 1 1 1
WIDTH 1597
HEIGHT 1
VIEWPOINT 0 0 0 1 0 0 0
POINTS 1597
DATA ascii
-10.472390 -4.690347 2.162023
-2.491731 -1.118233 -1.618096
-2.591301 -1.161532 -1.594011
-2.703650 -1.211000 -1.573735
-2.815353 -1.259530 -1.547159
-2.951699 -1.319536 -1.529115
-3.099029 -1.383702 -1.509841
-3.263970 -1.455584 -1.491609
-3.465540 -1.544254 -1.480423
-3.599655 -1.602214 -1.433059
-3.832079 -1.704378 -1.416175
-4.099357 -1.821019 -1.398777
-4.362469 -1.935565 -1.367648
-4.675606 -2.072976 -1.338092
-5.011691 -2.219337 -1.297933
-5.428491 -2.402138 -1.261045
-5.938457 -2.624596 -1.222556
-6.599597 -2.947623 -1.186805
-7.137334 -3.185672 -1.097792
-8.145504 -3.631160 -1.040650
-4.334257 -1.933949 -0.442474
-4.074767 -1.817785 -0.311769
-4.110140 -1.831760 -0.209673
-4.210673 -1.875508 -0.106902
-4.303882 -1.915047 0.000061
-10.565223 -4.685451 0.268824
-4.073642 -1.810477 0.207804
-10.533789 -4.664927 0.805960
-4.613263 -2.046374 0.470675
-10.517685 -4.651226 1.345110
-4.232619 -1.874640 0.650271
-4.348009 -1.924621 0.780836
-4.431482 -1.959594 0.912499
-2.499461 -1.104899 -1.619116
-2.586524 -1.142049 -1.587154
-2.705481 -1.193654 -1.570918
-2.814125 -1.240095 -1.542671
-2.950930 -1.298790 -1.524837
-3.128669 -1.375245 -1.520414
-3.253407 -1.429104 -1.483130
-3.474329 -1.524177 -1.480423
-3.610484 -1.582135 -1.433745
-3.848733 -1.685214 -1.418735
-4.114985 -1.799574 -1.400564
-4.369970 -1.908785 -1.366547
-4.634192 -2.022773 -1.322902
-5.022570 -2.189565 -1.297473
-5.433640 -2.365888 -1.258967
-5.932253 -2.579830 -1.218116
-6.599648 -2.903491 -1.183891
-4.389296 -1.931779 -0.673532
-4.548401 -2.000602 -0.579810
-4.348582 -1.911235 -0.442847
-4.070500 -1.787801 -0.310655
-4.098279 -1.799102 -0.208559
-4.219532 -1.850332 -0.106857
0.000376 -0.007445 -0.000275
0.000376 -0.007445 -0.000275
-4.085786 -1.787696 0.207896
-10.525661 -4.588998 0.803298
-4.466395 -1.949800 0.454498
-10.505999 -4.573870 1.340222
-4.236034 -1.846987 0.649156
-4.341201 -1.890846 0.777591
-4.444469 -1.934720 0.912869
-2.501196 -1.087903 -1.616054
-2.593220 -1.126572 -1.587152
-2.702745 -1.173283 -1.565284
-2.813179 -1.219745 -1.538184
-2.965176 -1.284027 -1.528259
-3.138156 -1.357852 -1.521228
-3.265177 -1.411135 -1.484671
-3.476410 -1.500510 -1.477514
-3.647124 -1.573084 -1.444687
-3.863847 -1.664493 -1.420656
-4.113261 -1.769766 -1.396395
-4.391441 -1.888045 -1.369855
-4.638944 -1.992111 -1.320878
-5.052945 -2.168164 -1.302085
-5.475912 -2.346768 -1.265620
-5.966837 -2.554037 -1.222192
-6.633019 -2.871240 -1.186811
-4.391211 -1.902455 -0.672142
-4.534603 -1.962477 -0.576566
-8.666962 -3.740404 -0.880040
-4.086188 -1.766603 -0.311074
-4.101498 -1.771503 -0.208187
-10.564596 -4.546785 -0.266436
-3.924939 -1.693126 0.000028
-3.986933 -1.718106 0.100767
-4.072402 -1.753101 0.206682
-10.518854 -4.514094 0.800776
-4.523274 -1.943541 0.459145
-10.496356 -4.495782 1.335564
-4.257473 -1.827150 0.650825
-4.342901 -1.861846 0.775968
-4.412434 -1.889721 0.903977
-2.510541 -1.074728 -1.618093
-2.607630 -1.114947 -1.592050
-2.702915 -1.154838 -1.561527
-2.813521 -1.200646 -1.534595
-2.972474 -1.266839 -1.528259
-3.132426 -1.333953 -1.514720
-3.288486 -1.398701 -1.491609
-3.469509 -1.473838 -1.470968
-3.680324 -1.562191 -1.454262
-3.850617 -1.632560 -1.412336
-4.111018 -1.740773 -1.392227
-4.393342 -1.858896 -1.367100
-4.687750 -1.981035 -1.331513
-5.025820 -2.122351 -1.291946
-5.491080 -2.315877 -1.266039
-5.968715 -2.514219 -1.219603
-6.660277 -2.837560 -1.188761
-7.134641 -3.037653 -1.089180
-4.483617 -1.909853 -0.568685
-8.684637 -3.688804 -0.879675
-4.096243 -1.742953 -0.311075
0.000370 -0.007240 -0.000267
0.000370 -0.007240 -0.000267
-3.916158 -1.662620 0.000026
-3.987508 -1.691142 0.100533
-4.113680 -1.742728 0.208268
-10.509690 -4.438654 0.798115
-4.749070 -2.007809 0.480897
-4.591623 -1.939598 0.582689
-4.258762 -1.798663 0.649433
-4.322571 -1.823726 0.770452
-4.374261 -1.843659 0.893973
-2.508709 -1.056837 -1.612992
-2.601112 -1.094419 -1.584211
-2.694804 -1.133041 -1.553078
-2.825290 -1.186400 -1.537287
-2.962999 -1.242639 -1.519702
-3.134953 -1.313687 -1.512280
-3.284523 -1.374677 -1.486213
-3.472734 -1.451595 -1.468786
-3.684002 -1.538719 -1.452211
-3.828418 -1.597175 -1.400814
-4.106838 -1.711111 -1.387462
-4.371954 -1.820227 -1.357181
-4.656130 -1.936147 -1.319361
-5.061303 -2.102951 -1.297940
-5.484393 -2.275912 -1.261469
-5.972141 -2.475223 -1.217386
-6.661906 -2.792970 -1.186170
-4.359741 -1.829431 -0.664077
-4.479824 -1.877796 -0.566832
-8.665256 -3.621783 -0.875596
-4.395286 -1.839785 -0.332958
-4.499619 -1.881433 -0.227260
-10.557072 -4.400104 -0.264972
-3.925632 -1.639937 0.000026
-3.984226 -1.662671 0.100208
-4.193739 -1.748004 0.211814
-10.505552 -4.365741 0.795873
-10.474289 -4.348495 1.058360
-4.474197 -1.859843 0.566416
-10.443415 -4.329282 1.589026
-4.327480 -1.796459 0.769478
-4.669980 -1.936124 0.952132
-2.511527 -1.040971 -1.610951
-2.607326 -1.079328 -1.584211
-2.709406 -1.120767 -1.557771
-2.843623 -1.174750 -1.543565
-2.980088 -1.229585 -1.524836
-3.137360 -1.293432 -1.509839
-3.290644 -1.354936 -1.485442
-3.468920 -1.426546 -1.463695
-3.661447 -1.504579 -1.439901
-3.853293 -1.581464 -1.406576
-4.109509 -1.684453 -1.385080
-4.389447 -1.797828 -1.359387
-4.654608 -1.904112 -1.315819
-5.037220 -2.059014 -1.288723
-5.488308 -2.240510 -1.259393
-5.993536 -2.443662 -1.218869
-6.666881 -2.749973 -1.184229
-4.340855 -1.792150 -0.659626
-4.477673 -1.846577 -0.565209
-4.583190 -1.888057 -0.462159
0.000363 -0.007035 -0.000260
-4.504796 -1.853121 -0.226981
-10.554435 -4.327797 -0.264285
-3.949768 -1.623282 0.000025
-4.051069 -1.663061 0.101650
-4.211086 -1.726765 0.212185
-10.489817 -4.288535 0.792792
-10.471456 -4.276750 1.055564
-4.492137 -1.836970 0.567344
0.000363 -0.007035 -0.000260
-4.324925 -1.766205 0.767207
-4.624544 -1.886195 0.940646
-2.520627 -1.027687 -1.612990
-2.618301 -1.066165 -1.587149
-2.712505 -1.103719 -1.555892
-2.845325 -1.156253 -1.540873
-2.992118 -1.214328 -1.527401
-3.138146 -1.271981 -1.506586
-3.281221 -1.328983 -1.477735
-3.458012 -1.398807 -1.455695
-3.658075 -1.477813 -1.435112
-3.851755 -1.554903 -1.402735
-4.110236 -1.657118 -1.382103
-4.389279 -1.767372 -1.356081
-4.642105 -1.867827 -1.309237
-5.056547 -2.031878 -1.290568
-5.496017 -2.205636 -1.258147
-5.987805 -2.399956 -1.214800
-6.651464 -2.698860 -1.178723
-4.349524 -1.765538 -0.659350
-4.445817 -1.803563 -0.559879
-4.601331 -1.864528 -0.462903
-9.095928 -3.675202 -0.685456
-10.533805 -4.252920 -0.529162
-10.538319 -4.250456 -0.263275
-10.531498 -4.243429 0.000492
-4.080930 -1.647831 0.102161
-4.224623 -1.703887 0.212371
-10.481710 -4.212764 0.790271
-10.455927 -4.198181 1.051466
0.000350 -0.006921 -0.000256
-4.348211 -1.747352 0.658341
-4.318796 -1.733826 0.764286
-4.385268 -1.759510 0.889896
-2.529843 -1.013880 -1.615029
-2.624546 -1.050509 -1.587147
-2.718966 -1.087507 -1.555892
-2.850430 -1.138597 -1.539975
-2.995861 -1.195131 -1.525690
-3.140286 -1.251766 -1.504146
-3.309596 -1.317550 -1.486984
-3.476618 -1.382269 -1.460058
-3.669967 -1.458025 -1.436481
-3.882000 -1.540301 -1.410418
-4.093307 -1.622104 -1.373170
-4.372532 -1.731380 -1.347814
-4.660269 -1.842993 -1.311264
-5.069919 -2.003369 -1.291032
-5.472178 -2.159532 -1.249835
-6.010633 -2.368937 -1.216653
-6.636121 -2.646884 -1.173218
-7.164381 -2.855562 -1.083354
-4.449018 -1.774125 -0.558953
-4.382757 -1.746020 -0.439882
-4.430293 -1.764014 -0.333241
-10.530952 -4.179231 -0.527773
-10.529837 -4.174540 -0.262450
0.000357 -0.006830 -0.000253
-4.070148 -1.615407 0.101649
-10.482091 -4.145057 0.526033
-10.474196 -4.139819 0.787889
-10.452095 -4.126874 1.048670
-4.838531 -1.912232 0.608249
-4.302876 -1.700430 0.649986
-4.330514 -1.709552 0.764611
-4.391922 -1.731944 0.889153
-2.532402 -0.997935 -1.612987
-2.620760 -1.031479 -1.581270
-2.731725 -1.074301 -1.559646
-2.858554 -1.122727 -1.540873
-2.990863 -1.173167 -1.519701
-3.159322 -1.238208 -1.509838
-3.291295 -1.288327 -1.475422
-3.481002 -1.360786 -1.458604
-3.678272 -1.436762 -1.436481
-3.899609 -1.521242 -1.413618
-4.111437 -1.601867 -1.376149
-4.387764 -1.708166 -1.349468
-4.641906 -1.804843 -1.303162
-5.032337 -1.955067 -1.278586
-5.460754 -2.118728 -1.244434
-6.029627 -2.336327 -1.217767
-6.691650 -2.624356 -1.180352
-7.169593 -2.809850 -1.081688
-4.464675 -1.750547 -0.559649
-4.335176 -1.698238 -0.434129
-4.445918 -1.740553 -0.333659
-10.519430 -4.104663 -0.526013
0.000343 -0.006716 -0.000248
-4.788192 -1.869207 0.000079
0.000343 -0.006716 -0.000248
0.000343 -0.006716 -0.000248
-10.456898 -4.063485 0.784810
-10.444075 -4.054315 1.045501
-4.534502 -1.762333 0.568735
-4.580379 -1.779166 0.690363
-4.343928 -1.685914 0.765258
-4.398114 -1.705122 0.888411
-2.534851 -0.982012 -1.610947
-2.613599 -1.011267 -1.573432
-2.731225 -1.055932 -1.555890
-2.849934 -1.100369 -1.532795
-2.978969 -1.148700 -1.510288
-3.147587 -1.212714 -1.500892
-3.317580 -1.276514 -1.483900
-3.467851 -1.332645 -1.449876
-3.684686 -1.414797 -1.435797
-3.911807 -1.500017 -1.414898
-4.100931 -1.570590 -1.369598
-4.357955 -1.667725 -1.337345
-4.637712 -1.772486 -1.299113
-5.050742 -1.928742 -1.280432
-5.483793 -2.091335 -1.246931
-6.044787 -2.302169 -1.218139
-6.701080 -2.583570 -1.179383
-7.176363 -2.764890 -1.080302
-8.215234 -3.160856 -1.027251
-4.331843 -1.668148 -0.432829
-4.452114 -1.713388 -0.333381
-10.516726 -4.033949 -0.524719
-10.500552 -4.023566 -0.260568
-4.826862 -1.852225 0.000079
-4.090261 -1.568961 0.101693
-10.458113 -3.996852 0.522472
-10.452097 -3.992488 0.782706
-10.429980 -3.979864 1.041775
-10.431720 -3.976370 1.305757
-4.603473 -1.757592 0.692312
-4.351666 -1.660099 0.764931
-4.393126 -1.674090 0.885447
-2.533997 -0.964854 -1.606865
-2.620977 -0.996709 -1.574410
-2.738880 -1.040710 -1.556828
-2.851154 -1.081960 -1.530104
-2.987185 -1.132074 -1.511144
-3.157903 -1.195758 -1.502518
-3.298925 -1.247544 -1.472339
-3.492866 -1.319113 -1.457150
-3.683940 -1.390149 -1.432378
-3.906144 -1.472052 -1.409778
-4.125951 -1.552888 -1.374960
-4.387255 -1.649925 -1.343408
-4.662301 -1.751080 -1.303165
-5.025276 -1.885891 -1.271213
-5.446211 -2.041158 -1.235710
-6.037637 -2.259686 -1.214071
-6.712115 -2.543454 -1.178738
-7.184716 -2.720625 -1.079193
-4.274439 -1.619576 -0.533454
-4.378585 -1.657148 -0.436545
-4.480530 -1.694675 -0.334777
-4.513357 -1.705240 -0.224848
-10.504782 -3.955928 -0.260113
-4.856130 -1.831344 0.000079
-4.655162 -1.753965 0.115517
-10.456589 -3.927375 0.521251
-10.446847 -3.921654 0.780604
-10.391133 -3.896631 1.035632
-4.567444 -1.714682 0.570359
-4.661717 -1.748987 0.699551
-4.374064 -1.639746 0.767202
-4.422916 -1.656226 0.889521
-2.529779 -0.946573 -1.600745
-2.618454 -0.978478 -1.569512
-2.724919 -1.017453 -1.545561
-2.865683 -1.068532 -1.534589
-3.005488 -1.119146 -1.517132
-3.166405 -1.178096 -1.503331
-3.319876 -1.233542 -1.478504
-3.477654 -1.290490 -1.447694
-3.663615 -1.358427 -1.421437
-3.896744 -1.442884 -1.403377
-4.115093 -1.521740 -1.368407
-4.358746 -1.610606 -1.331836
-4.681336 -1.727467 -1.305699
-5.012248 -1.848125 -1.265223
-5.428468 -1.998873 -1.229059
-6.074510 -2.233576 -1.218885
-6.711816 -2.499174 -1.176148
-7.196505 -2.677750 -1.078641
-4.255711 -1.584490 -0.529978
-4.354407 -1.619362 -0.433204
-4.415344 -1.641037 -0.329201
-4.523059 -1.679133 -0.224850
-10.495457 -3.883521 -0.259334
-10.386388 -3.841152 0.000435
-4.650147 -1.721495 0.115144
-4.943135 -1.827589 0.245764
0.000326 -0.006395 -0.000236
-10.389061 -3.827721 1.033207
-10.402157 -3.828420 1.296445
-4.623329 -1.704285 0.692309
-4.405626 -1.622596 0.771093
-4.461870 -1.641456 0.895447
-2.525473 -0.928334 -1.594622
-2.620733 -0.962088 -1.567552
-2.737345 -1.004053 -1.549315
-2.870078 -1.051296 -1.533691
-3.010147 -1.101101 -1.516276
-3.179978 -1.162235 -1.506584
-3.312999 -1.209279 -1.472339
-3.499009 -1.275420 -1.453512
-3.671346 -1.337206 -1.421436
-3.903162 -1.419689 -1.402738
-4.132715 -1.501185 -1.371387
-4.396849 -1.595834 -1.340654
-4.685719 -1.698404 -1.304181
-5.022779 -1.819128 -1.265224
-5.436169 -1.966164 -1.228230
-6.092774 -2.200477 -1.219999
-6.713063 -2.455674 -1.173884
-7.208033 -2.634838 -1.078089
-4.268457 -1.561228 -0.530443
-4.361765 -1.593477 -0.433018
-4.484684 -1.637312 -0.333663
-4.722284 -1.721852 -0.234248
-10.487535 -3.812033 -0.258600
-4.602330 -1.675549 0.000059
-4.676859 -1.700734 0.115561
-4.818271 -1.750071 0.239045
-10.374907 -3.758872 0.771931
-10.360322 -3.749490 1.028180
-10.373544 -3.750171 1.290162
-4.631163 -1.676872 0.692029
-11.100780 -4.006064 1.939107
-4.572931 -1.652241 0.915820
-2.546921 -0.919498 -1.604823
-2.626203 -0.946875 -1.567550
-2.748019 -0.989975 -1.552132
-2.876046 -1.034654 -1.533690
-3.011284 -1.081840 -1.513709
-3.167855 -1.136496 -1.497636
-3.307699 -1.185750 -1.466944
-3.492218 -1.250153 -1.447693
-3.672091 -1.312794 -1.418701
-3.900517 -1.393294 -1.398899
-4.119671 -1.469593 -1.364240
-4.402565 -1.568357 -1.339554
-4.671661 -1.662915 -1.297600
-4.945393 -1.758014 -1.243097
-5.497485 -1.951418 -1.239457
-6.090864 -2.158957 -1.217040
-6.721482 -2.414893 -1.172915
-4.176597 -1.501302 -0.623464
-4.277336 -1.536533 -0.530444
-4.346439 -1.559542 -0.430606
-4.436032 -1.589789 -0.329343
-4.662450 -1.669713 -0.230807
-10.473489 -3.738745 -0.257728
-4.587645 -1.639416 0.000056
-4.754354 -1.697812 0.117235
-4.762343 -1.698794 0.235779
-10.353742 -3.681823 0.768712
-10.348558 -3.675906 1.024826
-10.376189 -3.683679 1.287829
-4.786628 -1.700817 0.713748
0.000319 -0.006190 -0.000229
-4.595288 -1.630390 0.918410
-2.547431 -0.902555 -1.601761
-2.639961 -0.934073 -1.572447
-2.747148 -0.971209 -1.548375
-2.873657 -1.014529 -1.529204
-3.010792 -1.061463 -1.510286
-3.184643 -1.121774 -1.502517
-3.307685 -1.163560 -1.463860
-3.487216 -1.225023 -1.442602
-3.677789 -1.290903 -1.418017
-3.903312 -1.368160 -1.396978
-4.126481 -1.444399 -1.363644
-4.420577 -1.546033 -1.342310
-4.664971 -1.629343 -1.293043
-4.922300 -1.717922 -1.234801
-5.419885 -1.888830 -1.219505
-6.095721 -2.121193 -1.215563
-6.739384 -2.376186 -1.173566
-4.179534 -1.475162 -0.622630
-4.537518 -1.599204 -0.561511
-4.346183 -1.530343 -0.429679
-4.644654 -1.634083 -0.344120
-4.534585 -1.593742 -0.224016
-10.467119 -3.666584 -0.257042
-4.596982 -1.612874 0.000055
-4.760522 -1.668177 0.117139
-4.762882 -1.667115 0.235312
-4.911208 -1.717880 0.363784
-10.360113 -3.612906 1.023889
-4.825392 -1.684185 0.597549
0.000326 -0.006098 -0.000226
-4.515192 -1.573681 0.785361
-4.614140 -1.606219 0.920262
-2.544419 -0.884971 -1.596660
-2.637023 -0.915909 -1.567548
-2.745989 -0.952970 -1.544619
-2.881113 -0.998440 -1.530100
-3.009977 -1.041664 -1.506864
-3.185834 -1.101539 -1.500076
-3.309057 -1.142598 -1.461547
-3.488906 -1.203001 -1.440419
-3.674460 -1.265947 -1.413913
-3.911102 -1.345556 -1.396978
-4.129279 -1.418664 -1.361858
-4.427545 -1.519844 -1.341760
-4.688881 -1.607371 -1.297096
-4.895237 -1.676886 -1.225583
-5.484336 -1.875802 -1.231563
-6.102209 -2.084078 -1.214456
-6.736126 -2.331461 -1.170653
-4.186048 -1.450336 -0.622353
-4.340024 -1.501761 -0.536009
-4.659927 -1.610194 -0.459758
-4.529437 -1.564382 -0.334921
-4.536111 -1.564898 -0.223643
-10.457761 -3.595793 -0.256309
-4.640201 -1.597973 0.000055
-10.353684 -3.554008 0.254508
-4.736451 -1.627281 0.233538
-4.905875 -1.684328 0.362665
-4.742657 -1.626628 0.467680
-4.833076 -1.655656 0.597313
-10.356117 -3.538673 1.538259
-4.509198 -1.542474 0.782765
-4.634437 -1.583335 0.922482
-2.551084 -0.870742 -1.597678
-2.638918 -0.899491 -1.565588
-2.754741 -0.938179 -1.546496
-2.883390 -0.980597 -1.528305
-3.017617 -1.024783 -1.507718
-3.176513 -1.077814 -1.492755
-3.322529 -1.125805 -1.464631
-3.497498 -1.183399 -1.441147
-3.678089 -1.243478 -1.412546
-3.915159 -1.321712 -1.395698
-4.133713 -1.393565 -1.360668
-4.407017 -1.484458 -1.332943
-4.696189 -1.579639 -1.296591
-4.934315 -1.658458 -1.232960
-5.021907 -1.685859 -1.125559
-5.060843 -1.696898 -1.005297
-6.730711 -2.286217 -1.167415
-4.198035 -1.427398 -0.622911
-4.352316 -1.477936 -0.536475
-4.610600 -1.563490 -0.454004
-4.434359 -1.503093 -0.327256
-4.524175 -1.531653 -0.222622
-10.451730 -3.526496 -0.255668
-10.369854 -3.496900 0.000389
-10.356897 -3.488504 0.254083
-4.777895 -1.610712 0.235121
-4.860607 -1.637546 0.358614
-4.731144 -1.592240 0.465634
-4.836858 -1.625803 0.596615
-4.912858 -1.650291 0.728224
-4.517984 -1.516377 0.782765
-4.652768 -1.559639 0.924333
-2.542949 -0.851611 -1.589517
-2.648982 -0.885834 -1.568526
-2.755030 -0.920538 -1.543679
-2.883865 -0.962192 -1.525612
-3.021725 -1.006717 -1.506861
-3.182810 -1.058860 -1.492755
-3.311403 -1.100759 -1.456923
-3.497134 -1.160816 -1.438238
-3.708577 -1.229187 -1.421436
-3.924456 -1.299658 -1.396340
-4.127134 -1.364863 -1.355903
-4.421200 -1.459983 -1.334597
-4.712537 -1.554884 -1.298617
-4.916297 -1.619955 -1.226046
-4.979749 -1.638863 -1.113919
0.000306 -0.005780 -0.000214
-6.728738 -2.242363 -1.164826
-4.204521 -1.401741 -0.622633
-4.298502 -1.432112 -0.528825
-4.356742 -1.449751 -0.428196
-4.410974 -1.465994 -0.324886
-4.519610 -1.501094 -0.221972
-10.447141 -3.458028 -0.255073
-4.730671 -1.567254 0.000057
-10.361575 -3.423732 0.253702
-4.783266 -1.581831 0.234934
-4.771655 -1.576162 0.351353
-4.742360 -1.564676 0.465818
-4.834777 -1.594122 0.595219
-10.359072 -3.404858 1.532675
-4.554992 -1.498682 0.787628
-4.685914 -1.540690 0.929147
-2.543025 -0.834801 -1.586455
-2.647533 -0.867838 -1.564606
-2.750342 -0.900794 -1.538044
-2.899688 -0.948285 -1.530996
-3.041366 -0.993143 -1.513705
-3.180145 -1.037591 -1.488687
-3.312587 -1.079278 -1.454610
-3.500386 -1.138798 -1.436783
-3.669051 -1.192691 -1.403655
-3.908638 -1.268671 -1.388018
-4.116950 -1.334399 -1.349948
-4.405719 -1.426732 -1.327432
-4.706899 -1.522071 -1.294568
-4.921794 -1.590347 -1.225126
-4.962988 -1.601695 -1.108101
-4.997919 -1.611001 -0.989013
-6.719368 -2.194981 -1.160940
-4.276514 -1.398272 -0.632095
-4.628038 -1.510942 -0.568240
-4.579252 -1.493300 -0.449179
-4.415500 -1.439260 -0.324609
-4.520813 -1.471685 -0.221600
0.000292 -0.005666 -0.000209
-4.754821 -1.544805 0.000058
-10.353127 -3.352901 0.252997
-10.347732 -3.347164 0.507477
-4.638233 -1.502595 0.340881
-4.739893 -1.533580 0.464702
-4.817648 -1.556792 0.591964
-5.129688 -1.656276 0.757457
-4.540969 -1.465090 0.783735
-4.721137 -1.521180 0.934331
-2.552668 -0.821622 -1.589515
-2.639161 -0.848243 -1.556769
-2.765551 -0.888057 -1.543676
-2.899954 -0.929850 -1.528303
-3.048538 -0.976616 -1.514562
-3.187770 -1.019723 -1.489501
-3.327510 -1.062887 -1.458463
-3.511990 -1.120831 -1.438965
-3.713455 -1.183372 -1.418018
-3.899376 -1.241578 -1.382257
-4.115204 -1.308419 -1.346970
-4.411988 -1.400675 -1.326882
-4.678401 -1.484007 -1.284441
-4.927131 -1.560713 -1.224205
-4.958773 -1.569737 -1.105192
-4.982446 -1.575288 -0.984201
-5.036138 -1.614459 -0.868571
-4.910876 -1.573494 -0.724471
-4.314886 -1.381574 -0.528826
-4.369537 -1.397321 -0.427827
-4.429389 -1.415531 -0.325028
-4.540606 -1.449164 -0.222159
-10.436643 -3.321606 -0.253885
-4.769309 -1.519141 0.000055
-10.400818 -3.302219 0.253687
-10.390991 -3.297098 0.508683
-4.844593 -1.538369 0.355399
-4.736964 -1.503394 0.463585
-4.824342 -1.529177 0.591730
-10.335181 -3.265539 1.523470
-4.550923 -1.440224 0.784058
-4.705156 -1.487035 0.929515
-2.560476 -0.808284 -1.591553
-2.648818 -0.834960 -1.559707
-2.763684 -0.870410 -1.539921
-2.898247 -0.911412 -1.524714
-3.036841 -0.953544 -1.506004
-3.191818 -1.000707 -1.488687
-3.324552 -1.041446 -1.454609
-3.507688 -1.097164 -1.434600
-3.713006 -1.159636 -1.415281
-3.908236 -1.219571 -1.382897
-4.159105 -1.295926 -1.358884
-4.394236 -1.367192 -1.319167
-4.670211 -1.451792 -1.279884
-4.924845 -1.528775 -1.221441
-4.964218 -1.539055 -1.104363
-4.986020 -1.543891 -0.983093
-4.945215 -1.554967 -0.851394
-4.978413 -1.563439 -0.733098
-4.305440 -1.352030 -0.526740
-4.371539 -1.371025 -0.427270
-4.426015 -1.386340 -0.324192
-4.792709 -1.499832 -0.234074
-10.428833 -3.253058 -0.253244
-4.791327 -1.495706 0.000056
-10.405684 -3.239877 0.253353
-10.384960 -3.229437 0.507463
-4.849522 -1.509183 0.355118
0.000286 -0.005461 -0.000202
-10.353295 -3.209712 1.267789
-5.019693 -1.557138 0.738519
-4.629138 -1.434634 0.796058
0.000286 -0.005461 -0.000202
-2.561902 -0.791972 -1.589512
-2.652025 -0.818623 -1.558726
-2.756960 -0.850265 -1.533347
-2.893325 -0.890957 -1.519328
-3.047585 -0.937011 -1.508572
-3.197662 -0.981657 -1.488687
-3.334174 -1.022685 -1.456150
-3.503395 -1.072998 -1.430237
-3.714382 -1.135862 -1.413231
-3.906306 -1.193516 -1.379697
-4.173999 -1.273349 -1.361267
-4.429831 -1.349377 -1.327436
-4.700915 -1.430721 -1.285963
-4.931930 -1.498876 -1.220982
-4.973226 -1.509486 -1.104365
-4.987542 -1.511908 -0.981613
-4.995838 -1.538237 -0.858526
-4.296393 -1.321981 -0.631539
-4.301965 -1.322870 -0.525349
-4.379570 -1.344965 -0.427271
-4.432218 -1.359383 -0.324054
-4.807226 -1.473029 -0.234354
-10.411570 -3.179985 -0.252372
-10.415474 -3.177195 0.000348
-10.386430 -3.166364 0.252415
-10.373318 -3.158401 0.505963
0.000272 -0.005348 -0.000198
-4.750579 -1.445762 0.463210
-4.830430 -1.469027 0.590334
-4.981438 -1.512883 0.731558
-10.327600 -3.126777 1.772969
-4.771088 -1.446504 0.939144
-2.571336 -0.778592 -1.592571
-2.658327 -0.803752 -1.559706
-2.761769 -0.834290 -1.533347
-2.894947 -0.873162 -1.517533
-3.040776 -0.915724 -1.502582
-3.206564 -0.964741 -1.490313
-3.325815 -0.999160 -1.449985
-3.511282 -1.053227 -1.430963
-3.722442 -1.115540 -1.413915
-3.922157 -1.173617 -1.382899
-4.164761 -1.244299 -1.355907
-4.429902 -1.322328 -1.325231
-4.709046 -1.403529 -1.285964
-4.962574 -1.477875 -1.226516
-4.989046 -1.483827 -1.106029
-5.001519 -1.485625 -0.982726
-4.998905 -1.507655 -0.857556
-4.316955 -1.301870 -0.633488
-4.315184 -1.299704 -0.526046
-4.778268 -1.436786 -0.465338
-4.944301 -1.485588 -0.360861
-4.978297 -1.493875 -0.242266
-5.057598 -1.515665 -0.122488
-10.406185 -3.110906 0.000339
-10.379555 -3.098999 0.251804
-10.368321 -3.091699 0.504836
-10.352923 -3.085144 0.755660
-10.334377 -3.075714 1.006169
-4.844488 -1.442792 0.591029
-5.003052 -1.488913 0.733504
-4.705835 -1.398988 0.806434
0.000279 -0.005256 -0.000195
-2.565855 -0.760750 -1.586449
-2.656188 -0.786364 -1.555786
-2.781757 -0.822747 -1.541795
-2.893041 -0.854363 -1.513943
-3.049438 -0.899120 -1.504293
-3.166616 -0.932251 -1.469164
-3.345651 -0.984045 -1.456151
-3.502947 -1.028724 -1.425144
-3.737991 -1.095970 -1.417334
-3.930634 -1.151453 -1.383539
-4.182827 -1.223405 -1.359481
-4.426556 -1.292718 -1.321926
-4.711445 -1.374679 -1.284446
-4.974961 -1.449401 -1.227440
-5.009007 -1.457378 -1.108525
-5.017768 -1.458020 -0.984208
-5.009378 -1.479297 -0.857881
-4.987725 -1.471051 -0.730600
-4.825747 -1.422531 -0.587258
-4.981341 -1.466322 -0.484279
-4.998956 -1.469587 -0.364207
-4.961857 -1.457803 -0.241058
0.000266 -0.005143 -0.000190
-5.037385 -1.476066 0.000063
-10.372231 -3.031837 0.251191
-10.359055 -3.024059 0.503522
-5.051264 -1.475354 0.367958
-10.333285 -3.008720 1.004303
-4.846961 -1.413122 0.590330
-10.314852 -2.997482 1.509798
-4.719713 -1.372601 0.807405
-10.284842 -2.982944 2.017742
-2.568637 -0.744941 -1.585428
-2.655769 -0.769028 -1.552845
-2.784866 -0.805636 -1.540855
-2.899762 -0.837570 -1.514839
-3.033684 -0.875464 -1.494025
-3.164877 -0.911892 -1.465910
-3.335433 -0.959514 -1.449214
-3.494463 -1.004333 -1.419325
-3.735176 -1.071751 -1.413914
-3.915311 -1.122460 -1.375858
-4.165896 -1.192408 -1.351739
-4.404312 -1.258693 -1.313108
-4.628068 -1.321495 -1.259633
-4.986949 -1.421689 -1.228362
-5.035867 -1.434628 -1.112683
-5.039049 -1.433635 -0.986801
-5.031314 -1.453279 -0.860151
-5.005613 -1.444942 -0.731991
-5.004001 -1.442599 -0.607895
-4.993757 -1.437750 -0.484651
-4.988127 -1.435189 -0.362815
-4.976153 -1.429899 -0.241339
-4.988159 -1.432379 -0.120406
-5.007309 -1.435962 0.000059
-5.006445 -1.433836 0.120940
-5.017967 -1.436181 0.243410
-5.025106 -1.436319 0.365443
-4.782189 -1.366216 0.463950
-4.858810 -1.386189 0.590794
-10.291901 -2.926608 1.503944
-4.725375 -1.345598 0.807080
-10.284790 -2.918784 2.014400
-2.584311 -0.733764 -1.592568
-2.666696 -0.755998 -1.556764
-2.777391 -0.786635 -1.534283
-2.906085 -0.821751 -1.515736
-3.045614 -0.859834 -1.497447
-3.184124 -0.897499 -1.472417
-3.322949 -0.935792 -1.441506
-3.510912 -0.987121 -1.423690
-3.728584 -1.046596 -1.409127
-3.947224 -1.106946 -1.384821
-4.146934 -1.161115 -1.343399
-4.413311 -1.233733 -1.313660
-4.732506 -1.321693 -1.285967
-4.965031 -1.384518 -1.220987
-5.083847 -1.415618 -1.121415
-5.096667 -1.417284 -0.996429
-5.046912 -1.427224 -0.861450
-5.023350 -1.418688 -0.733385
-5.017689 -1.416154 -0.608592
-5.005510 -1.410829 -0.485024
-4.994343 -1.405830 -0.362678
-4.976354 -1.399825 -0.240967
-4.978957 -1.398704 -0.119992
-4.988503 -1.399475 0.000056
-4.985458 -1.397701 0.120241
-4.974173 -1.392670 0.240891
-4.981374 -1.392813 0.361672
-4.874601 -1.361208 0.472128
-4.952812 -1.382035 0.601251
-10.295188 -2.863516 1.501987
-10.286439 -2.857218 1.754129
-4.945078 -1.375232 0.966918
-2.581964 -0.716486 -1.588486
-2.674472 -0.740984 -1.558722
-2.778577 -0.769105 -1.532404
-2.922947 -0.807712 -1.522016
-3.057619 -0.843555 -1.500867
-3.183915 -0.877614 -1.469977
-3.335544 -0.917903 -1.444588
-3.509499 -0.964210 -1.420779
-3.729071 -1.023537 -1.407076
-3.957349 -1.084409 -1.386101
-4.173980 -1.141918 -1.349952
-4.418459 -1.207702 -1.313110
-4.730893 -1.290975 -1.283437
-4.944714 -1.348171 -1.214073
-5.359991 -1.458965 -1.180451
-6.060836 -1.646834 -1.183019
-5.089502 -1.406609 -0.867287
-5.056240 -1.396472 -0.737003
-5.045137 -1.391526 -0.610912
-5.015678 -1.381553 -0.485212
-5.004270 -1.377470 -0.362818
-4.955628 -1.362280 -0.239573
-4.985229 -1.368502 -0.119945
-4.988721 -1.368541 0.000053
-4.972416 -1.362217 0.119727
-4.961121 -1.357264 0.239864
-4.964271 -1.357186 0.359857
-4.945737 -1.350277 0.478260
-4.964721 -1.353591 0.601713
-4.955869 -1.350260 0.721803
-4.982644 -1.355650 0.848268
-4.901884 -1.331933 0.956915
-2.594315 -0.703758 -1.593586
-2.670257 -0.723204 -1.553822
-2.786341 -0.753917 -1.534281
-2.915426 -0.787542 -1.515735
-3.055254 -0.824515 -1.497446
-3.204768 -0.863429 -1.477297
-3.326466 -0.894790 -1.438423
-3.507606 -0.942574 -1.417870
-3.736706 -1.002426 -1.407759
-3.954176 -1.059745 -1.382900
-4.152587 -1.111135 -1.341018
-4.378871 -1.169780 -1.299330
-4.739872 -1.264939 -1.283944
-5.010674 -1.335065 -1.228367
-5.466348 -1.455014 -1.202072
-6.106021 -1.622432 -1.190055
-6.797387 -1.834829 -1.156433
-7.255932 -1.956930 -1.055890
-5.091408 -1.372673 -0.615551
-5.040841 -1.357195 -0.486884
-5.029437 -1.353191 -0.364074
-5.005833 -1.344988 -0.241621
-4.990816 -1.340057 -0.119902
-4.992638 -1.338659 0.000052
-4.970509 -1.330878 0.119495
-4.958946 -1.326878 0.239396
-4.960412 -1.325409 0.359018
-4.943540 -1.320004 0.477328
-4.951057 -1.320150 0.599155
-4.929082 -1.312462 0.716791
-4.942412 -1.315087 0.840158
-4.903536 -1.302926 0.955804
-2.583219 -0.685209 -1.584404
-2.682654 -0.710409 -1.558720
-2.794031 -0.738656 -1.536157
-2.931860 -0.774322 -1.522015
-3.051195 -0.804506 -1.493166
-3.220267 -0.847639 -1.482177
-3.327975 -0.874578 -1.436880
-3.516550 -0.923211 -1.419325
-3.744207 -0.981271 -1.408443
-3.958524 -1.035708 -1.382261
-4.179401 -1.091673 -1.347571
-4.387373 -1.144935 -1.299882
-4.707940 -1.226498 -1.273310
-4.988341 -1.297411 -1.220992
-5.503517 -1.428865 -1.208310
-6.123120 -1.588058 -1.191538
-6.799858 -1.794760 -1.155140
-7.261310 -1.913515 -1.055059
-8.288375 -2.181957 -1.000455
-5.100308 -1.342594 -0.491901
-5.069916 -1.332722 -0.366447
-5.032778 -1.321127 -0.242555
-5.019720 -1.316754 -0.120412
-5.007975 -1.311818 0.000051
-4.978056 -1.302151 0.119493
-4.960914 -1.295824 0.239116
-4.958270 -1.294233 0.358317
-4.945475 -1.289066 0.476769
-4.953003 -1.289169 0.598456
-4.948259 -1.286089 0.718460
-4.929091 -1.280202 0.836589
-4.899721 -1.270788 0.953579
-2.592316 -0.670617 -1.587464
-2.685235 -0.693472 -1.557738
-2.793198 -0.720659 -1.533341
-2.934767 -0.755870 -1.521118
-3.069908 -0.789871 -1.500010
-3.216366 -0.826157 -1.478109
-3.331295 -0.854267 -1.436109
-3.518335 -0.901310 -1.417869
-3.735365 -0.955237 -1.402972
-3.951548 -1.009525 -1.377780
-4.174483 -1.064685 -1.343998
-4.386601 -1.116907 -1.297678
-4.654869 -1.184080 -1.257107
-5.005123 -1.270975 -1.223299
-5.494311 -1.393706 -1.204570
-6.143570 -1.555575 -1.193762
-6.774343 -1.743789 -1.148985
-7.260993 -1.867367 -1.053393
-8.297663 -2.130235 -0.999997
-8.727650 -2.237138 -0.840276
-8.727189 -2.235391 -0.629690
-5.098586 -1.305961 -0.245348
-5.052604 -1.293282 -0.121016
-5.038905 -1.287915 0.000051
-4.995359 -1.274969 0.119724
-4.972132 -1.268136 0.239300
-4.963905 -1.264210 0.358177
-4.947000 -1.259005 0.476210
-4.956482 -1.259551 0.597991
-4.926754 -1.250206 0.714282
-4.938279 -1.252186 0.836913
-4.893606 -1.239084 0.950985
-2.582649 -0.652683 -1.579302
-2.694107 -0.679646 -1.560677
-2.786870 -0.702389 -1.527707
-2.916383 -0.733735 -1.509451
-3.058584 -0.768152 -1.492310
-3.213808 -0.806325 -1.474856
-3.332414 -0.834655 -1.434566
-3.518011 -0.879600 -1.415687
-3.733317 -0.932466 -1.400237
-3.959110 -0.987119 -1.378420
-4.160136 -1.035483 -1.337446
-4.389012 -1.091383 -1.296577
-4.701035 -1.166910 -1.267742
-5.031025 -1.247567 -1.227910
-5.487010 -1.358224 -1.201247
-6.093220 -1.505532 -1.182289
-6.774382 -1.703444 -1.147367
-7.267434 -1.825756 -1.052841
-8.293979 -2.079936 -0.998147
-8.720644 -2.183480 -0.838425
-8.724018 -2.182688 -0.628581
-10.324195 -2.578407 -0.495936
-10.351000 -2.581225 -0.247386
-5.086741 -1.269819 0.000050
-5.027607 -1.253225 0.120327
-4.996777 -1.243728 0.240138
-4.972796 -1.236869 0.358314
-4.963808 -1.232801 0.477138
-4.967487 -1.231849 0.598455
-4.939415 -1.223996 0.715117
-4.928137 -1.219386 0.833992
-4.900638 -1.210794 0.950984
-2.579660 -0.636061 -1.575220
-2.689491 -0.661947 -1.555777
-2.787418 -0.685391 -1.525828
-2.927483 -0.718525 -1.513040
-3.069951 -0.752151 -1.495732
-3.214960 -0.786286 -1.473229
-3.338924 -0.815805 -1.435338
-3.513942 -0.857033 -1.412050
-3.753364 -0.913752 -1.405709
-3.962856 -0.963774 -1.377781
-4.188283 -1.016790 -1.344594
-4.410332 -1.068846 -1.300987
-4.649331 -1.125680 -1.252045
-5.057233 -1.222165 -1.232522
-5.464515 -1.318241 -1.194597
-6.123062 -1.474295 -1.186363
-6.776376 -1.662451 -1.146074
-7.270411 -1.780651 -1.051732
-8.300003 -2.030648 -0.997456
-8.711771 -2.127959 -0.836388
-8.721270 -2.127044 -0.627471
-10.309734 -2.511752 -0.494546
-10.348167 -2.517268 -0.246977
-10.345988 -2.512919 0.000264
-10.324204 -2.505717 0.246901
-5.040724 -1.223772 0.241908
-4.999415 -1.211941 0.359709
-4.984581 -1.206491 0.478439
-4.982182 -1.205014 0.599381
-4.958109 -1.197371 0.716785
-4.948685 -1.193273 0.836261
-4.915154 -1.184296 0.952465
-2.588392 -0.621837 -1.578278
-2.691641 -0.645486 -1.554797
-2.793130 -0.669152 -1.526766
-2.933399 -0.701467 -1.513937
-3.069069 -0.732562 -1.493164
-3.226528 -0.769346 -1.476481
-3.334709 -0.793751 -1.431483
-3.508063 -0.833505 -1.407685
-3.760369 -0.892459 -1.406393
-3.988767 -0.944934 -1.384823
-4.186770 -0.990098 -1.342213
-4.401414 -1.039819 -1.296579
-4.644611 -1.095324 -1.249007
-5.037628 -1.186720 -1.226070
-5.523416 -1.298719 -1.205824
-6.123752 -1.437150 -1.184886
-6.776492 -1.619850 -1.144457
-7.274741 -1.737290 -1.050901
-8.292559 -1.976689 -0.995142
-8.708716 -2.072473 -0.834907
-8.711993 -2.071647 -0.625943
-10.297208 -2.444022 -0.493250
-10.339551 -2.450227 -0.246427
-10.323292 -2.444477 0.000256
0.000226 -0.004209 -0.000156
-10.292374 -2.429580 0.493387
-10.290527 -2.427246 0.739534
-5.030190 -1.186797 0.482154
-5.020181 -1.182590 0.603099
-4.986111 -1.173687 0.719846
-4.965061 -1.166919 0.837881
-4.931642 -1.157261 0.954315
-2.591908 -0.606823 -1.578277
-2.695291 -0.629881 -1.554796
-2.788321 -0.650956 -1.522070
-2.937386 -0.684448 -1.513935
-3.071457 -0.714370 -1.492307
-3.234442 -0.751482 -1.478108
-3.346380 -0.776118 -1.434567
-3.527310 -0.816537 -1.413504
-3.758100 -0.869009 -1.403657
-3.979355 -0.918453 -1.379701
-4.190525 -0.965445 -1.341617
-4.418547 -1.016947 -1.299887
-4.641380 -1.066316 -1.246477
-5.070925 -1.163661 -1.232525
-5.525065 -1.265485 -1.204578
-6.141490 -1.403955 -1.186739
-6.783774 -1.580258 -1.144135
-7.278818 -1.693939 -1.050069
-8.292150 -1.926151 -0.993757
-8.701069 -2.017733 -0.833056
-8.698489 -2.015518 -0.624135
-10.274095 -2.376080 -0.491489
-10.332011 -2.385656 -0.245926
-10.325462 -2.382241 0.000248
-10.305978 -2.373941 0.245772
-10.282800 -2.364838 0.492261
-10.286798 -2.363868 0.738270
0.000212 -0.004096 -0.000151
-10.259236 -2.350001 1.230978
-5.041030 -1.155894 0.726805
-4.990927 -1.142597 0.841123
-4.959277 -1.133558 0.958388
-2.591980 -0.591033 -1.576236
-2.700546 -0.614641 -1.555775
-2.793721 -0.635180 -1.523008
-2.939496 -0.667052 -1.513038
-3.068435 -0.694995 -1.488885
-3.219095 -0.728325 -1.469159
-3.338169 -0.753904 -1.429171
-3.533749 -0.796521 -1.414231
-3.757519 -0.846026 -1.401605
-3.986399 -0.895846 -1.380342
-4.168036 -0.934965 -1.332683
-4.441206 -0.995145 -1.304847
-4.660643 -1.042421 -1.250022
-5.062316 -1.130977 -1.228838
-5.524600 -1.231862 -1.202917
-6.145609 -1.367629 -1.186001
-6.794654 -1.541529 -1.144463
-7.276840 -1.649289 -1.048403
-8.287578 -1.874788 -0.991907
-8.693112 -1.963120 -0.831203
-8.690463 -1.960930 -0.622746
-10.254457 -2.309341 -0.489912
-10.328004 -2.322097 -0.245515
-10.311666 -2.316540 0.000240
-10.296025 -2.309260 0.245206
-10.276711 -2.301169 0.491320
-10.274897 -2.298872 0.736448
-10.254313 -2.290500 0.980434
-10.251239 -2.286068 1.228415
-10.242303 -2.282209 1.474915
-10.231972 -2.276144 1.722281
-4.998319 -1.112122 0.964683
-2.598670 -0.576750 -1.578276
-2.704035 -0.598966 -1.555773
-2.804206 -0.620509 -1.526763
-2.943277 -0.650005 -1.513036
-3.075892 -0.677999 -1.490596
-3.224994 -0.710072 -1.469972
-3.315399 -0.728653 -1.417608
-3.538238 -0.776086 -1.414233
-3.758637 -0.823477 -1.400237
-3.987753 -0.871991 -1.379063
-4.175206 -0.911253 -1.333279
-4.435565 -0.967019 -1.301541
-4.725175 -1.028173 -1.265722
-5.015451 -1.090195 -1.215931
-5.499079 -1.192904 -1.195851
-6.126458 -1.326336 -1.180821
-6.739795 -1.488283 -1.133768
-7.278450 -1.605583 -1.047294
-8.294334 -1.826100 -0.991447
-8.694501 -1.910840 -0.830281
-8.687945 -1.907785 -0.621775
-10.205088 -2.236536 -0.486941
-10.321651 -2.258240 -0.245058
-10.318944 -2.255775 0.000232
-10.289596 -2.245596 0.244734
-10.274152 -2.238487 0.490567
-10.264559 -2.234498 0.734767
-10.249785 -2.227551 0.978754
-10.254498 -2.224832 1.227246
-10.226221 -2.216830 1.470732
-10.210157 -2.209625 1.716436
0.000208 -0.003888 -0.000144
-2.603626 -0.562024 -1.579294
-2.712525 -0.584392 -1.558712
-2.799088 -0.602398 -1.522067
-2.948700 -0.633322 -1.513933
-3.079736 -0.660165 -1.490594
-3.225561 -0.690064 -1.468344
-3.346593 -0.715215 -1.429170
-3.526241 -0.752106 -1.407685
-3.757921 -0.799897 -1.398185
-3.992703 -0.848906 -1.379062
-4.191562 -0.889480 -1.336854
-4.448720 -0.942192 -1.303748
-4.723415 -0.999267 -1.263698
-5.080855 -1.072741 -1.230225
-5.488809 -1.156553 -1.192111
-6.114964 -1.285841 -1.177121
-6.779110 -1.455972 -1.138958
-7.274269 -1.559389 -1.045350
-8.291096 -1.775321 -0.989829
-8.680023 -1.855263 -0.827872
-8.683472 -1.852814 -0.620665
-10.170881 -2.167681 -0.484713
-10.324672 -2.196625 -0.244834
-10.310596 -2.189882 0.000225
-10.280804 -2.181693 0.244215
-10.271211 -2.175905 0.489815
-10.261984 -2.170204 0.733643
-10.237461 -2.161298 0.976330
-10.247678 -2.161581 1.224915
-10.215906 -2.151164 1.467384
-10.209538 -2.146104 1.714159
-10.196754 -2.141541 1.963204
-2.601839 -0.545417 -1.576232
-2.712504 -0.567490 -1.556752
-2.804323 -0.586039 -1.523005
-2.943643 -0.613897 -1.509445
-3.090542 -0.643795 -1.494016
-3.231238 -0.671767 -1.469158
-3.339912 -0.693013 -1.424545
-3.545085 -0.734710 -1.413504
-3.766109 -0.778925 -1.399554
-3.991929 -0.824667 -1.377142
-4.196590 -0.865241 -1.336855
-4.442760 -0.914140 -1.300440
-4.694953 -0.964974 -1.254583
-5.096473 -1.045314 -1.232530
-5.316885 -1.089417 -1.153448
-6.116242 -1.250418 -1.176013
-6.776011 -1.413232 -1.137016
-7.277273 -1.516196 -1.044520
-8.291738 -1.723994 -0.988673
-8.675256 -1.800421 -0.826391
-8.672475 -1.798265 -0.619137
-10.179617 -2.106424 -0.484534
-10.348868 -2.139500 -0.245120
-10.315186 -2.128781 0.000218
-10.270057 -2.115741 0.243651
-10.260073 -2.111822 0.488690
-10.256694 -2.107404 0.732379
-10.235685 -2.101233 0.975022
-10.238536 -2.098075 1.222353
-10.210635 -2.088666 1.464871
-10.205880 -2.085827 1.711558
-10.187695 -2.078423 1.959122
-2.596384 -0.529089 -1.571131
-2.712199 -0.551543 -1.554791
-2.795397 -0.567848 -1.516433
-2.950508 -0.598063 -1.511239
-3.081782 -0.623388 -1.488026
-3.236841 -0.653399 -1.469970
-3.327416 -0.670999 -1.417608
-3.543755 -0.713093 -1.411322
-3.757625 -0.754539 -1.394765
-3.987308 -0.799715 -1.373941
-4.195886 -0.839830 -1.335067
-4.455475 -0.889951 -1.302646
-4.696620 -0.937076 -1.253571
-5.027931 -1.001101 -1.214551
-5.474838 -1.087785 -1.186295
-6.100399 -1.209448 -1.171573
-6.719943 -1.362385 -1.126321
-7.276156 -1.472224 -1.043132
-8.295359 -1.676424 -0.987984
-8.671495 -1.749115 -0.825095
-8.668983 -1.745456 -0.618165
-10.085427 -2.028243 -0.479513
-10.408059 -2.089212 -0.246238
-10.342933 -2.072416 0.000211
-10.279723 -2.057902 0.243598
-10.252455 -2.048718 0.487751
-10.239285 -2.042394 0.730278
-10.230377 -2.036900 0.973343
-10.234844 -2.035916 1.220488
-10.203046 -2.025914 1.462080
-10.194814 -2.020582 1.707659
-10.184049 -2.016603 1.956152
-2.602836 -0.514238 -1.573170
-2.715405 -0.535342 -1.554790
-2.798704 -0.551152 -1.516432
-2.945209 -0.578745 -1.506752
-3.087169 -0.605360 -1.488882
-3.219011 -0.630463 -1.460209
-3.338582 -0.652543 -1.420689
-3.536925 -0.689838 -1.406958
-3.745272 -0.729593 -1.388611
-3.991956 -0.775959 -1.373942
-4.210145 -0.816640 -1.338046
-4.449182 -0.862003 -1.299339
-4.702080 -0.909100 -1.253571
-5.089014 -0.982705 -1.227923
-5.534785 -1.066481 -1.197938
-6.116907 -1.176047 -1.173425
-6.758854 -1.328500 -1.131513
-7.280603 -1.429461 -1.042580
-8.287595 -1.623667 -0.985901
-8.671921 -1.695656 -0.824172
-8.663187 -1.692394 -0.617056
-10.010987 -1.951495 -0.475423
-10.596889 -2.061677 -0.250418
-10.415549 -2.024555 0.000207
-10.323127 -2.002898 0.244334
-10.272241 -1.989313 0.488116
0.000174 -0.003456 -0.000128
-10.220407 -1.973740 0.971292
-10.223301 -1.970595 1.217691
-10.191201 -1.962550 1.458734
-10.196574 -1.959905 1.706031
-10.176525 -1.952360 1.952443
-2.607432 -0.499464 -1.574189
-2.713289 -0.518622 -1.551850
-2.815691 -0.537563 -1.523942
-2.941440 -0.560361 -1.503163
-3.083391 -0.586657 -1.485458
-3.229740 -0.613185 -1.463462
-3.367647 -0.638010 -1.431481
-3.542551 -0.670311 -1.407683
-3.730927 -0.704440 -1.381770
-3.975718 -0.749724 -1.366901
-4.216500 -0.793375 -1.338642
-4.452160 -0.835924 -1.298789
-4.724178 -0.885942 -1.258131
-5.096482 -0.953654 -1.228386
-5.554098 -1.037979 -1.200850
-6.125284 -1.142157 -1.173798
-6.803219 -1.296471 -1.137675
-7.280915 -1.385950 -1.041470
-8.285085 -1.573612 -0.984514
-8.665857 -1.642663 -0.822692
-8.657094 -1.639428 -0.615944
-10.016135 -1.892648 -0.475151
-10.847932 -2.047574 -0.256081
-10.641249 -2.004774 0.000206
-10.407183 -1.956999 0.246047
-10.308710 -1.936628 0.489323
-10.256218 -1.923074 0.729848
0.000181 -0.003364 -0.000125
-10.216563 -1.910111 1.215595
-10.198418 -1.903039 1.458170
-10.191824 -1.899977 1.703430
-10.177578 -1.893654 1.950584
-2.616919 -0.486056 -1.578269
-2.717840 -0.503680 -1.552828
-2.818629 -0.521740 -1.523941
-2.951538 -0.545120 -1.506751
-3.076027 -0.566847 -1.480324
-3.233206 -0.594479 -1.463462
-3.372969 -0.619417 -1.432250
-3.522499 -0.645474 -1.398227
-3.734912 -0.682844 -1.381769
-3.987408 -0.728082 -1.369462
-4.226608 -0.770020 -1.340430
-4.464435 -0.811566 -1.300996
-4.698713 -0.853133 -1.250029
-5.084642 -0.921081 -1.224237
-5.546678 -1.002478 -1.197940
-6.128065 -1.105012 -1.173060
-6.750170 -1.247287 -1.127628
-7.286818 -1.343548 -1.041194
-8.285898 -1.525822 -0.983591
-8.647457 -1.589139 -0.820097
-8.652634 -1.586960 -0.614973
-10.022595 -1.835901 -0.474971
-11.081793 -2.025565 -0.261327
-10.892642 -1.987121 0.000206
-10.630397 -1.937421 0.251062
-10.447433 -1.900372 0.495375
-10.314218 -1.872453 0.733191
-10.250266 -1.857173 0.972023
0.000168 -0.003251 -0.000120
-10.187742 -1.840353 1.455101
-10.189300 -1.836957 1.701154
-10.167013 -1.831123 1.946503
-2.607884 -0.468312 -1.571127
-2.725913 -0.488367 -1.555766
-2.812969 -0.503362 -1.519245
-2.944160 -0.525613 -1.501365
-3.090003 -0.550381 -1.485456
-3.243756 -0.577029 -1.466715
-3.363826 -0.597071 -1.426856
-3.528075 -0.624798 -1.398955
-3.740609 -0.661568 -1.382454
-3.987908 -0.703662 -1.368182
-4.225433 -0.743861 -1.338644
-4.467126 -0.785422 -1.300445
-4.713207 -0.826813 -1.252562
-5.082164 -0.890370 -1.222395
-5.550403 -0.970114 -1.197528
-6.107196 -1.064910 -1.167879
-6.788509 -1.212682 -1.132819
-7.288556 -1.300451 -1.040364
-8.288918 -1.475514 -0.982900
-8.644956 -1.535639 -0.818987
-8.641957 -1.533556 -0.613584
-10.027396 -1.775280 -0.474697
-11.316104 -1.998947 -0.266573
-11.130392 -1.964207 0.000205
-10.877977 -1.915815 0.256631
-10.674955 -1.876266 0.505623
-10.452533 -1.835360 0.742255
-10.303914 -1.805609 0.976104
-10.240107 -1.790747 1.215813
-10.196198 -1.781250 1.454816
-10.166631 -1.772440 1.695633
-10.154455 -1.766651 1.942053
-2.615613 -0.454058 -1.574186
-2.730372 -0.472871 -1.556746
-2.824518 -0.488540 -1.523938
-2.945349 -0.508265 -1.500467
-3.093088 -0.532496 -1.485457
-3.230898 -0.554908 -1.459393
-3.356281 -0.575734 -1.422230
-3.548129 -0.607194 -1.405502
-3.742598 -0.638954 -1.381770
-3.978810 -0.678366 -1.363700
-4.227752 -0.719100 -1.338048
-4.460314 -0.756891 -1.297138
-4.738869 -0.803102 -1.258133
-5.102703 -0.862689 -1.226084
-5.505891 -0.928633 -1.186718
-6.097877 -1.025979 -1.164920
-6.793423 -1.173147 -1.132497
-7.290268 -1.256103 -1.039532
-8.295303 -1.427342 -0.982673
-8.639886 -1.483415 -0.817693
-8.639095 -1.480154 -0.612751
-10.019712 -1.714410 -0.473866
-15.438994 -2.634454 -0.363302
-11.368578 -1.936627 0.000204
-11.121412 -1.892595 0.262108
0.000161 -0.003046 -0.000113
-10.679605 -1.809856 0.757600
-10.485255 -1.773211 0.992265
-10.307043 -1.741255 1.222545
-10.224145 -1.723616 1.457314
-10.192528 -1.714625 1.698222
0.000161 -0.003046 -0.000113
-2.631825 -0.440691 -1.582345
-2.729674 -0.455995 -1.554785
-2.822119 -0.470818 -1.521121
-2.957115 -0.492141 -1.504953
-3.083709 -0.511961 -1.479465
-3.215998 -0.533220 -1.451258
-3.350513 -0.554223 -1.418376
-3.544315 -0.584816 -1.402591
-3.740637 -0.616383 -1.379718
-3.982751 -0.654651 -1.363700
-4.207445 -0.689903 -1.330304
-4.466481 -0.731415 -1.297690
-4.749246 -0.775831 -1.259655
-5.067222 -0.826657 -1.216403
-5.458993 -0.888368 -1.175494
-6.113372 -0.992325 -1.166773
-6.778840 -1.129168 -1.128933
-7.291510 -1.213038 -1.038700
-8.293798 -1.376412 -0.981519
-8.644592 -1.431396 -0.817326
-8.631700 -1.427717 -0.611641
-10.006023 -1.650974 -0.472755
-15.408946 -2.535307 -0.362247
-15.383923 -2.528443 0.000304
-11.359356 -1.863667 0.267446
-11.157506 -1.826596 0.527423
0.000147 -0.002932 -0.000108
-10.715411 -1.748589 1.013072
-10.481882 -1.706770 1.242057
-10.302319 -1.675737 1.467053
-10.221699 -1.658987 1.701459
-10.178265 -1.648301 1.942781
-2.622417 -0.423522 -1.575203
-2.723632 -0.438793 -1.549886
-2.828245 -0.455031 -1.522998
-2.959882 -0.475010 -1.504953
-3.074085 -0.492123 -1.473476
-3.233423 -0.516909 -1.457766
-3.390107 -0.540587 -1.433790
-3.549441 -0.564598 -1.403318
-3.751535 -0.595916 -1.382454
-3.992052 -0.632502 -1.365621
-4.207561 -0.664980 -1.329113
-4.461108 -0.704097 -1.294935
-4.742170 -0.746560 -1.256616
-5.039193 -0.792257 -1.208567
-5.475594 -0.858651 -1.177991
-6.138392 -0.960048 -1.170478
-6.792991 -1.091301 -1.130234
-7.290539 -1.169693 -1.037590
-8.289804 -1.326669 -0.980131
-8.638917 -1.379313 -0.816030
-8.629907 -1.376348 -0.610949
-10.007457 -1.592000 -0.472389
-15.391684 -2.441464 -0.361516
-15.360687 -2.433807 0.000292
-15.327755 -2.423116 0.360569
-11.416468 -1.801435 0.539160
-11.156957 -1.758552 0.789966
-10.943660 -1.721063 1.033694
-10.736823 -1.684756 1.271093
-10.542660 -1.652456 1.499896
-10.289559 -1.609171 1.711180
-10.214760 -1.593827 1.947959
-2.636634 -0.410607 -1.582342
-2.732928 -0.424536 -1.553802
-2.835966 -0.439940 -1.525814
-2.966025 -0.458907 -1.506745
-3.076784 -0.474842 -1.473475
-3.243568 -0.499281 -1.461018
-3.389400 -0.521002 -1.432249
-3.559887 -0.545803 -1.406228
-3.743737 -0.572517 -1.378350
-3.995511 -0.610104 -1.365621
-4.209298 -0.641101 -1.328518
-4.457481 -0.677141 -1.292729
-4.763461 -0.722585 -1.261175
-5.080223 -0.768648 -1.217328
-5.492029 -0.828774 -1.180488
-6.141865 -0.924303 -1.170110
-6.800925 -1.053556 -1.130561
-7.291252 -1.126715 -1.036760
-8.304917 -1.281491 -0.981064
-8.632690 -1.328860 -0.814735
-8.625854 -1.324726 -0.610116
-9.990505 -1.532090 -0.471184
-15.365527 -2.349391 -0.360601
-15.334876 -2.339241 0.000279
-15.299525 -2.331109 0.359582
-26.817019 -4.074329 1.265490
-11.411486 -1.731257 0.807264
-11.193586 -1.694253 1.056358
-10.966046 -1.657903 1.297110
-10.769380 -1.624379 1.530791
-10.513328 -1.582059 1.746846
-10.318728 -1.550979 1.966100
-2.640706 -0.395117 -1.583362
-2.742287 -0.409238 -1.557720
-2.821055 -0.420414 -1.516423
-2.977515 -0.442519 -1.511232
-3.090260 -0.458065 -1.478607
-3.248179 -0.480766 -1.461831
-3.399721 -0.501862 -1.435331
-3.564901 -0.524842 -1.406955
-3.746974 -0.550838 -1.378349
-3.984045 -0.584109 -1.360500
-4.209246 -0.615466 -1.327326
-4.455591 -0.650539 -1.291076
-4.756165 -0.692552 -1.258137
-5.022919 -0.730358 -1.202575
-5.531552 -0.802079 -1.187973
-6.127614 -0.886032 -1.166410
-6.791430 -1.010784 -1.127970
-7.295644 -1.084345 -1.036486
-8.308440 -1.231522 -0.980603
-8.628581 -1.275806 -0.813626
-8.613589 -1.272043 -0.608726
-9.971728 -1.468656 -0.469887
-15.343568 -2.252908 -0.359778
-15.312449 -2.245635 0.000266
-15.277441 -2.235057 0.358733
-15.708582 -2.292441 0.740580
-15.719323 -2.291204 1.111078
-15.708097 -2.283971 1.481159
-11.217481 -1.627782 1.325681
-11.011786 -1.596027 1.563913
-10.752735 -1.554696 1.785105
-10.545612 -1.521034 2.007573
-2.646319 -0.380308 -1.585402
-2.720425 -0.389897 -1.544003
-2.828650 -0.404821 -1.519240
-2.964062 -0.423020 -1.503155
-3.085662 -0.439169 -1.475185
-3.250879 -0.461960 -1.461831
-3.400707 -0.481937 -1.434561
-3.543866 -0.500840 -1.397498
-3.755652 -0.529945 -1.380401
-3.989196 -0.561336 -1.361141
-4.193787 -0.588498 -1.321371
-4.466857 -0.625849 -1.293282
-4.750480 -0.663730 -1.255606
-5.038589 -0.702945 -1.205343
-5.532195 -0.769583 -1.187143
-6.120928 -0.849023 -1.164190
-6.808845 -0.973246 -1.129918
-7.297840 -1.041667 -1.035932
-8.311433 -1.183034 -0.980145
-8.608178 -1.222097 -0.811029
-8.604952 -1.220110 -0.607615
-9.954285 -1.407512 -0.468683
-15.324569 -2.160024 -0.359049
-15.287496 -2.152060 0.000255
-15.256398 -2.142253 0.357933
-26.791559 -3.750528 1.262089
-26.750048 -3.739961 1.889241
-26.696766 -3.723009 2.515284
-26.728895 -3.717988 3.156328
-11.258161 -1.565466 1.597592
-10.986308 -1.523818 1.822391
0.000134 -0.002522 -0.000093
-2.639949 -0.363780 -1.580298
-2.727793 -0.374839 -1.546941
-2.829173 -0.388193 -1.518300
-2.973536 -0.406799 -1.506743
-3.088136 -0.421291 -1.475184
-3.229933 -0.439952 -1.451256
-3.394269 -0.461011 -1.430706
-3.565138 -0.482824 -1.404772
-3.751177 -0.507216 -1.377665
-3.990481 -0.538002 -1.360500
-4.198982 -0.564501 -1.321967
-4.439875 -0.595961 -1.284464
-4.750365 -0.635775 -1.254594
-5.044480 -0.674076 -1.205804
-5.544288 -0.738652 -1.188807
-6.121792 -0.813173 -1.163453
-6.820189 -0.934743 -1.130893
-7.295843 -0.998481 -1.034823
-8.318098 -1.135071 -0.980149
-8.615059 -1.172434 -0.811034
-8.603903 -1.169401 -0.607063
-9.930538 -1.345804 -0.467199
-15.303054 -2.067142 -0.358271
-15.269880 -2.059939 0.000242
-15.234778 -2.049785 0.357131
-26.763182 -3.589548 1.259735
-26.739466 -3.581626 1.886985
-26.686167 -3.564983 2.512289
