# This PCD file was generated using the MATLAB® pcwrite function
# from Computer Vision Toolbox®.
# .PCD v.7 - Point Cloud Data file format
VERSION .7
FIELDS x y z
SIZE 4 4 4
TYPE F F F
COUNT 1 1 1
WIDTH 1639
HEIGHT 1
VIEWPOINT 0 0 0 1 0 0 0
POINTS 1639
DATA ascii
-4.540671 3.065055 -1.182510
-4.881578 3.305187 -1.127409
-5.388472 3.625256 -1.082329
-6.050392 4.084402 -1.040045
-6.671582 4.517417 -0.953649
-7.732351 5.255537 -0.884038
-7.813403 5.313609 -0.671111
-7.792645 5.303174 -0.448493
-8.225962 5.607801 -0.238768
-14.437644 9.921751 -0.008382
-11.445025 7.850188 0.316323
-11.428131 7.844250 0.641959
-24.274784 16.780935 2.056020
0.003932 -0.103037 -0.003300
-9.222732 6.322752 1.308282
-9.199059 6.308548 1.569738
-9.182251 6.301497 1.833214
0.003932 -0.103037 -0.003300
-0.487835 0.241239 -0.359515
-0.497276 0.248103 -0.347340
-2.350191 1.546431 -1.532723
-2.444124 1.613488 -1.505491
-2.540962 1.682674 -1.475930
-2.657677 1.765222 -1.452214
-2.757838 1.836933 -1.414143
-2.900751 1.938787 -1.390890
-3.041276 2.038321 -1.359449
-3.192511 2.146291 -1.325222
-3.389409 2.286572 -1.299647
-3.646861 2.468773 -1.285189
-3.908091 2.654785 -1.257757
-4.161139 2.834209 -1.212427
-4.512794 3.084500 -1.179996
-4.857078 3.329948 -1.126281
-5.329762 3.630311 -1.074840
-6.018090 4.113595 -1.038632
-6.648140 4.558132 -0.954095
-7.707924 5.304645 -0.884761
-7.811513 5.379227 -0.673610
-7.792474 5.369847 -0.450253
-8.191328 5.654010 -0.238698
-14.505748 10.093343 -0.008386
0.003940 -0.102946 -0.003297
-11.414900 7.932996 0.643842
-24.242508 16.966404 2.061642
0.003940 -0.102946 -0.003297
0.003940 -0.102946 -0.003297
-9.205724 6.392317 1.577265
-9.182346 6.380534 1.840685
-4.509024 3.084513 1.036047
-0.473218 0.235218 -0.350325
-0.492411 0.249073 -0.345374
-2.343558 1.562111 -1.534592
-2.435680 1.628696 -1.506378
-2.529181 1.696350 -1.475064
-2.645066 1.780014 -1.451390
-2.743617 1.850748 -1.412591
-2.882891 1.951256 -1.387967
-3.033119 2.059710 -1.361492
-3.194960 2.175749 -1.331618
-3.388050 2.315032 -1.304405
-3.647204 2.501639 -1.290694
-3.884298 2.671746 -1.255208
-4.156321 2.868000 -1.216106
-4.495416 3.112466 -1.180398
-4.838238 3.359947 -1.126637
-5.327516 3.674729 -1.078722
-5.992996 4.149333 -1.038613
-6.630940 4.603333 -0.955470
-7.686422 5.355942 -0.885857
-7.801656 5.441750 -0.675547
-7.785291 5.432087 -0.451636
-8.151567 5.696549 -0.238486
-14.557474 10.259286 -0.008387
0.003928 -0.102832 -0.003293
0.003928 -0.102832 -0.003293
-18.237089 12.901136 1.556781
0.003928 -0.102832 -0.003293
0.003928 -0.102832 -0.003293
0.003928 -0.102832 -0.003293
-9.185491 6.464806 1.849127
-4.346706 3.007640 1.002784
-0.476812 0.242167 -0.354402
-0.497384 0.257180 -0.350272
-0.532431 0.282481 -0.354642
-2.423917 1.642185 -1.505472
-2.523187 1.714163 -1.477623
-2.631233 1.793207 -1.449752
-2.749980 1.880066 -1.421836
-2.878588 1.973387 -1.391596
-3.038920 2.090437 -1.369696
-3.189492 2.199774 -1.334809
-3.384915 2.342430 -1.308568
-3.610343 2.506954 -1.282957
-3.813369 2.654516 -1.237449
-4.148633 2.898840 -1.218862
-4.467892 3.130743 -1.177886
-4.825213 3.391623 -1.128106
-5.306628 3.707520 -1.079031
-5.844539 4.094944 -1.017120
-6.610997 4.648487 -0.956612
-7.657174 5.403882 -0.886206
-7.792318 5.502992 -0.677485
-7.776663 5.495763 -0.453019
-8.103445 5.732956 -0.238040
-14.612845 10.426006 -0.008387
0.003936 -0.102741 -0.003291
0.003936 -0.102741 -0.003291
-18.265522 13.080704 1.565723
0.003936 -0.102741 -0.003291
-24.165266 17.356714 3.474899
0.003936 -0.102741 -0.003291
0.003936 -0.102741 -0.003291
-4.433832 3.108777 1.027201
-0.479068 0.247988 -0.357459
-0.488338 0.254976 -0.345365
-0.531688 0.286596 -0.355578
-2.424270 1.663173 -1.511747
-2.508330 1.725608 -1.475043
-2.626188 1.812738 -1.452998
-2.741849 1.897667 -1.423369
-2.836493 1.968097 -1.377026
-3.035368 2.114662 -1.373793
-3.140984 2.192517 -1.320061
-3.375428 2.365377 -1.310344
-3.581315 2.517620 -1.277977
-3.831819 2.701676 -1.248590
-4.121865 2.915887 -1.216079
-4.443912 3.153835 -1.176622
-4.804411 3.420291 -1.128090
-5.264539 3.722132 -1.074791
-5.913224 4.196145 -1.033278
-6.590806 4.690088 -0.957523
-7.631161 5.450149 -0.886744
-7.785748 5.566648 -0.679703
-7.774396 5.560373 -0.454683
-8.068140 5.778453 -0.237968
-14.663533 10.591331 -0.008386
0.003927 -0.102625 -0.003287
0.003927 -0.102625 -0.003287
-18.316637 13.278655 1.576748
0.003927 -0.102625 -0.003287
0.003927 -0.102625 -0.003287
0.003927 -0.102625 -0.003287
-17.211382 12.502859 3.496104
-4.521533 3.212193 1.051990
-0.470035 0.245840 -0.352352
-0.484803 0.256953 -0.344381
-0.537928 0.296167 -0.361208
-2.407997 1.673395 -1.508147
-2.500347 1.742706 -1.476747
-2.616608 1.829044 -1.453801
-2.735897 1.918410 -1.426443
-2.863146 2.013777 -1.395943
-3.013493 2.125525 -1.369674
-3.154770 2.231511 -1.331583
-3.354610 2.380947 -1.307946
-3.561536 2.534868 -1.276310
-3.821348 2.729077 -1.250605
-4.085680 2.925797 -1.210524
-4.431388 3.184134 -1.178273
-4.790387 3.452692 -1.129558
-5.179762 3.707820 -1.062108
-5.830967 4.188003 -1.023219
-6.568686 4.733914 -0.958433
-7.583691 5.484804 -0.885043
-7.777095 5.629227 -0.681781
-7.763208 5.623087 -0.455971
-8.015429 5.813243 -0.237428
-14.720840 10.763522 -0.008387
0.003914 -0.102511 -0.003283
0.003914 -0.102511 -0.003283
-18.383747 13.490700 1.589304
0.003914 -0.102511 -0.003283
0.003914 -0.102511 -0.003283
0.003914 -0.102511 -0.003283
-17.282866 12.708735 3.525606
-4.533367 3.262465 1.059400
-0.459758 0.242519 -0.346223
-0.475730 0.254648 -0.339476
-0.537032 0.300425 -0.362144
-2.402040 1.690555 -1.510831
-2.502736 1.766919 -1.484443
-2.608373 1.846372 -1.455420
-2.715348 1.927615 -1.421806
-2.847934 2.028107 -1.394477
-2.979555 2.127209 -1.360079
-3.144320 2.252015 -1.332853
-3.338734 2.399186 -1.307339
-3.540159 2.550848 -1.274090
-3.798798 2.746503 -1.248565
-4.088439 2.964560 -1.216512
-4.443704 3.233176 -1.186586
-4.763573 3.475613 -1.128058
-5.183089 3.756538 -1.067288
-5.788706 4.208598 -1.020133
-6.547126 4.776504 -0.959343
-7.559402 5.534425 -0.885952
-7.766388 5.690704 -0.683719
-7.755747 5.686892 -0.457449
-7.979669 5.858204 -0.237357
-14.783074 10.941526 -0.008389
0.003923 -0.102419 -0.003280
0.003923 -0.102419 -0.003280
-18.426640 13.687209 1.599915
-18.430212 13.699696 2.138758
-18.396273 13.684093 2.679023
-18.334444 13.642547 3.211133
-17.287807 12.867287 3.541839
-4.507654 3.283910 1.057936
-0.461883 0.248379 -0.349281
-0.479240 0.261705 -0.343392
-0.538950 0.306838 -0.364956
-2.384569 1.699110 -1.506331
-2.489063 1.779246 -1.482720
-2.585132 1.853140 -1.448897
-2.712458 1.950005 -1.426424
-2.843073 2.050216 -1.398105
-2.966297 2.144969 -1.360067
-3.138275 2.275909 -1.336046
-3.321241 2.416172 -1.306135
-3.524381 2.571928 -1.274076
-3.785444 2.770792 -1.249565
-4.079480 2.995919 -1.219269
-4.417643 3.254878 -1.184904
-4.734461 3.497977 -1.126188
-5.168685 3.792360 -1.068895
-5.750395 4.233429 -1.017884
-6.522128 4.816624 -0.959787
-7.522083 5.574359 -0.885370
-7.762164 5.759604 -0.686357
-7.747836 5.750825 -0.458924
-7.937260 5.898111 -0.237099
-14.843373 11.124395 -0.008390
0.003910 -0.102306 -0.003276
0.003910 -0.102306 -0.003276
-18.314360 13.773446 1.597328
-18.254452 13.737881 2.127882
-18.245413 13.735818 2.668644
0.003910 -0.102306 -0.003276
0.003910 -0.102306 -0.003276
0.003910 -0.102306 -0.003276
-0.458451 0.250216 -0.348254
-0.486784 0.272075 -0.350248
-0.542135 0.314438 -0.368709
-2.380958 1.718774 -1.510811
-2.483616 1.798496 -1.486135
-2.569144 1.865233 -1.446445
-2.695868 1.962838 -1.424098
-2.834701 2.070559 -1.400278
-2.949950 2.160368 -1.358687
-3.118121 2.290008 -1.333470
-3.307768 2.437108 -1.306719
-3.500838 2.587048 -1.271305
-3.772940 2.796834 -1.251073
-4.040987 3.004773 -1.213253
-4.410071 3.290673 -1.188220
-4.716154 3.528512 -1.126914
-5.115689 3.800330 -1.062707
-5.697835 4.247168 -1.013123
-6.491279 4.854130 -0.959534
-7.502538 5.629853 -0.887024
-7.757405 5.828670 -0.688994
-7.739976 5.817395 -0.460494
-7.879329 5.928190 -0.236416
-14.902016 11.308353 -0.008391
0.003919 -0.102214 -0.003274
0.003919 -0.102214 -0.003274
-18.147867 13.817550 1.590014
-18.089916 13.782918 2.118301
-18.084282 13.783387 2.657109
-17.895340 13.648061 3.162621
-17.835388 13.611683 3.687281
0.003919 -0.102214 -0.003274
-0.457775 0.254022 -0.349271
-0.473601 0.266487 -0.342401
-0.542518 0.319829 -0.370584
-2.371865 1.733668 -1.511698
-2.475831 1.814656 -1.487838
-2.571129 1.889712 -1.453761
-2.682483 1.977311 -1.423316
-2.818126 2.083054 -1.398083
-2.955109 2.190733 -1.366890
-3.103223 2.306323 -1.332819
-3.289038 2.452151 -1.304918
-3.497930 2.616093 -1.275707
-3.749088 2.812051 -1.248524
-4.008217 3.015451 -1.208623
-4.383954 3.308587 -1.186124
-4.691807 3.550450 -1.125786
-5.127548 3.856364 -1.069834
-5.664077 4.271758 -1.011432
-6.462665 4.891529 -0.959513
-7.486768 5.686447 -0.889051
-7.746290 5.889064 -0.690932
-7.729492 5.880296 -0.461876
-7.818683 5.951382 -0.235594
-14.963053 11.488188 -0.008392
-18.123981 13.945888 0.522982
-17.985390 13.843292 1.052026
-17.956425 13.830658 1.580058
-17.920223 13.807364 2.107234
-17.904535 13.804980 2.642093
-17.869944 13.787897 3.171837
-17.828012 13.760084 3.701248
0.003907 -0.102101 -0.003270
-0.463924 0.263047 -0.355390
-0.472902 0.270313 -0.343378
-0.537382 0.320809 -0.368700
-2.361571 1.746981 -1.511691
-2.459074 1.824548 -1.484403
-2.562508 1.906856 -1.455379
-2.679555 1.999192 -1.427935
-2.814306 2.106252 -1.402441
-2.941859 2.207816 -1.366880
-3.092297 2.326603 -1.334089
-3.281801 2.477059 -1.307887
-3.500374 2.650553 -1.282317
-3.742894 2.842053 -1.252061
-4.020823 3.062657 -1.217841
-4.339067 3.315295 -1.179447
-4.662357 3.572253 -1.123916
-5.057142 3.847387 -1.059751
-5.655990 4.317810 -1.014482
-6.414345 4.911726 -0.956472
-7.457506 5.730716 -0.889401
-7.738400 5.954551 -0.693289
-7.722755 5.944392 -0.463445
-12.555150 9.732827 -0.377903
-15.015770 11.667979 -0.008390
0.003894 -0.101987 -0.003266
-17.958303 13.988597 1.055226
-17.905783 13.957273 1.582748
-17.873468 13.941772 2.111547
-17.875782 13.948407 2.649793
-17.825542 13.918769 3.178277
-17.883553 13.974269 3.730110
0.003894 -0.101987 -0.003266
-0.460397 0.264845 -0.354365
-0.476163 0.277562 -0.347294
-0.539024 0.327396 -0.371513
-2.340770 1.753326 -1.505395
-2.447625 1.839234 -1.484392
-2.558079 1.927379 -1.459438
-2.652589 2.003704 -1.420211
-2.789505 2.113778 -1.396605
-2.919711 2.217845 -1.362760
-3.088250 2.353286 -1.338562
-3.272442 2.501356 -1.310259
-3.492005 2.676755 -1.285063
-3.728409 2.866730 -1.253062
-3.999508 3.083449 -1.216904
-4.333102 3.351293 -1.183180
-4.651903 3.607717 -1.126496
-5.070817 3.906795 -1.067528
-5.605600 4.330752 -1.010002
-6.392305 4.955954 -0.957614
-7.424356 5.776183 -0.889564
-8.698335 6.786659 -0.782334
-10.342735 8.094086 -0.622335
-12.480958 9.794790 -0.377396
-15.043391 11.830107 -0.008380
0.003903 -0.101895 -0.003263
0.003903 -0.101895 -0.003263
0.003903 -0.101895 -0.003263
-17.837587 14.080444 2.116971
-17.827915 14.082684 2.655175
-17.780220 14.049582 3.184717
-17.928862 14.177855 3.756705
0.003903 -0.101895 -0.003263
-0.459632 0.268694 -0.355381
-0.469902 0.277168 -0.344348
-0.533797 0.328419 -0.369629
-2.325873 1.763542 -1.502692
-2.437823 1.854538 -1.485239
-2.544929 1.941042 -1.458615
-2.644767 2.022539 -1.422514
-2.775244 2.128738 -1.395868
-2.918036 2.244143 -1.368226
-3.079970 2.375875 -1.341114
-3.270807 2.531040 -1.315613
-3.486462 2.705377 -1.288912
-3.711281 2.888278 -1.253047
-3.979593 3.105309 -1.216429
-4.310129 3.373851 -1.182332
-4.622849 3.628396 -1.124625
-5.015305 3.910164 -1.060691
-5.549080 4.338338 -1.004406
-6.364650 4.994022 -0.957826
-7.387318 5.816453 -0.889167
-8.666349 6.842961 -0.783007
-10.326578 8.178568 -0.624179
-12.420710 9.864079 -0.377264
-14.972943 11.915346 -0.008335
0.003890 -0.101782 -0.003259
0.003890 -0.101782 -0.003259
0.003890 -0.101782 -0.003259
0.003890 -0.101782 -0.003259
-17.790894 14.221276 2.661948
-17.738626 14.184083 3.191993
-18.001633 14.405971 3.789453
-4.696558 3.688197 1.132723
-0.446792 0.262802 -0.347212
-0.463640 0.276694 -0.341403
-0.523067 0.324930 -0.363989
-2.326219 1.786027 -1.509865
-2.420916 1.864110 -1.481805
-2.535995 1.958103 -1.460231
-2.635356 2.040164 -1.424047
-2.760926 2.143626 -1.395129
-2.901572 2.258647 -1.366846
-3.068621 2.396089 -1.342383
-3.214136 2.516204 -1.298907
-3.474729 2.729160 -1.290555
-3.688020 2.904821 -1.251006
-3.973169 3.138133 -1.220106
-4.267306 3.380166 -1.176073
-4.596730 3.651322 -1.123498
-4.986010 3.934122 -1.059375
-5.517279 4.365326 -1.003273
-6.330607 5.026947 -0.957107
-7.350050 5.856479 -0.888772
-8.629346 6.895345 -0.783261
-10.271014 8.231685 -0.623679
-12.380238 9.949359 -0.377745
-14.908208 12.005205 -0.008293
0.003899 -0.101690 -0.003257
0.003899 -0.101690 -0.003257
0.003899 -0.101690 -0.003257
-17.980568 14.535159 2.153940
0.003899 -0.101690 -0.003257
-17.742105 14.356064 3.207601
-19.101830 15.474682 4.040067
-4.502576 3.574875 1.090953
-0.446036 0.266600 -0.348226
-0.469564 0.286120 -0.347279
-0.513780 0.322465 -0.359287
-2.311186 1.796120 -1.507161
-2.419352 1.886158 -1.487788
-2.528333 1.976254 -1.462664
-2.617304 2.050750 -1.420950
-2.755169 2.165526 -1.398757
-2.893768 2.280217 -1.369572
-3.071755 2.428268 -1.350060
-3.216704 2.549332 -1.306050
-3.453929 2.745563 -1.288887
-3.676628 2.931033 -1.253021
-3.927426 3.138779 -1.211784
-4.254760 3.411021 -1.178139
-4.575080 3.677853 -1.123481
-4.964227 3.964110 -1.059683
-5.476160 4.384580 -1.000466
-6.305597 5.067180 -0.957785
-7.323341 5.905099 -0.889681
-8.596663 6.951336 -0.783934
-10.247600 8.311042 -0.625147
-12.303668 10.005336 -0.377144
-14.815123 12.071862 -0.008242
0.003886 -0.101577 -0.003253
0.003886 -0.101577 -0.003253
-18.850046 15.413285 1.697762
-24.055883 19.710924 2.896355
0.003886 -0.101577 -0.003253
0.003886 -0.101577 -0.003253
-18.917503 15.506587 4.020051
-4.908814 3.953704 1.195251
-0.450525 0.274756 -0.353326
-0.470011 0.291165 -0.349235
-0.508621 0.323298 -0.357403
-2.301595 1.810643 -1.508051
-2.413441 1.904796 -1.491202
-2.510356 1.986672 -1.459397
-2.619063 2.077688 -1.428654
-2.754978 2.192191 -1.405298
-2.886819 2.303467 -1.372984
-3.049886 2.439988 -1.346844
-3.213148 2.577713 -1.310807
-3.429619 2.759977 -1.286114
-3.673982 2.964654 -1.258078
-3.927582 3.178346 -1.217770
-4.208331 3.414995 -1.171046
-4.549567 3.702502 -1.122725
-4.957488 4.006594 -1.063238
-5.432701 4.403198 -0.997380
-6.271175 5.099706 -0.957067
-7.297856 5.954891 -0.890776
-8.560847 7.007401 -0.784467
-10.214409 8.382761 -0.626052
-12.219169 10.054358 -0.376310
-14.730392 12.149370 -0.008193
0.003874 -0.101463 -0.003249
-24.076849 19.941198 1.449717
-24.060598 19.941574 2.178615
-24.006851 19.910686 2.904764
-23.847063 19.784241 3.620090
0.003874 -0.101463 -0.003249
-23.818115 19.787661 5.087132
0.003874 -0.101463 -0.003249
-0.445658 0.275346 -0.351280
-0.458319 0.286223 -0.342370
-0.503388 0.324158 -0.355520
-2.283401 1.818661 -1.503550
-2.397361 1.915710 -1.488624
-2.501106 2.003568 -1.461014
-2.618825 2.104007 -1.435584
-2.725651 2.195415 -1.397280
-2.875807 2.322577 -1.374342
-3.034767 2.458150 -1.346832
-3.204519 2.603003 -1.313775
-3.426322 2.790935 -1.291068
-3.682367 3.008980 -1.267190
-3.898244 3.192237 -1.214525
-4.201487 3.450645 -1.174778
-4.511117 3.714810 -1.118628
-4.949691 4.049985 -1.066793
-5.423395 4.448507 -1.000429
-6.238722 5.135656 -0.956813
-7.266403 6.002019 -0.891311
-8.530508 7.065657 -0.785420
-10.154762 8.435589 -0.625458
-12.155681 10.124166 -0.376179
-14.656614 12.231490 -0.008147
-20.084887 16.809624 0.599694
-24.050814 20.162216 1.455440
-24.004385 20.129944 2.184106
-23.961334 20.107649 2.913355
-23.809223 19.993280 3.632445
0.003883 -0.101371 -0.003247
-23.750031 19.963976 5.097239
0.003883 -0.101371 -0.003247
-0.443493 0.278040 -0.351275
-0.464075 0.295764 -0.348245
-0.506320 0.331745 -0.359273
-2.288660 1.845778 -1.514315
-2.382959 1.927253 -1.486902
-2.495914 2.023968 -1.465074
-2.601882 2.115581 -1.433259
-2.716664 2.214828 -1.399451
-2.860388 2.337996 -1.373646
-3.028630 2.483057 -1.350666
-3.181631 2.615316 -1.310783
-3.419880 2.819478 -1.294917
-3.651173 3.018940 -1.262613
-3.905877 3.237497 -1.222819
-4.195864 3.487609 -1.178926
-4.487593 3.739551 -1.118242
-4.907651 4.063195 -1.062880
-5.410731 4.491306 -1.002919
-6.223628 5.184441 -0.959117
-7.226619 6.039991 -0.890728
-8.496732 7.121207 -0.786093
-10.111563 8.499175 -0.625801
-12.107308 10.203135 -0.376470
-14.554950 12.289808 -0.008094
-19.947676 16.891325 0.598559
-24.022015 20.375544 1.460884
0.003870 -0.101258 -0.003242
-23.941618 20.328020 2.925283
-23.782345 20.206150 3.646191
0.003870 -0.101258 -0.003242
-23.730209 20.182476 5.118027
-4.021785 3.341545 0.993388
-0.440004 0.279594 -0.350249
-0.464424 0.300817 -0.350201
-0.501161 0.332494 -0.357388
-2.276061 1.857872 -1.513408
-2.376751 1.945792 -1.490315
-2.486417 2.040802 -1.466692
-2.590475 2.131835 -1.434021
-2.710348 2.236623 -1.403081
-2.840610 2.349637 -1.370897
-3.007993 2.495641 -1.348090
-3.164507 2.632463 -1.310174
-3.404480 2.840496 -1.295455
-3.637551 3.043811 -1.264121
-3.848309 3.226954 -1.210804
-4.178104 3.514373 -1.179744
-4.466905 3.766718 -1.118597
-4.856649 4.068361 -1.057018
-5.354152 4.496687 -0.997325
-6.173523 5.203462 -0.956075
-7.194198 6.084202 -0.891077
-8.458073 7.172711 -0.786346
-10.074044 8.567772 -0.626518
-12.053894 10.277980 -0.376620
-14.481898 12.372169 -0.008050
-19.822302 16.982433 0.597790
-23.993065 20.590511 1.466421
-23.939201 20.551023 2.199815
-23.906599 20.537132 2.935544
-23.759823 20.424585 3.660865
0.003879 -0.101166 -0.003240
-2.137015 1.749920 0.461012
0.003879 -0.101166 -0.003240
-0.446897 0.290135 -0.357389
-0.452888 0.295605 -0.343336
-0.489319 0.327380 -0.350809
-2.271497 1.876921 -1.517887
-2.370391 1.964306 -1.493730
-2.467168 2.049210 -1.462611
-2.573427 2.143214 -1.431695
-2.706680 2.260865 -1.408166
-2.833568 2.372262 -1.374307
-2.992993 2.513021 -1.348079
-3.158801 2.659545 -1.314336
-3.378815 2.852579 -1.292132
-3.620871 3.066108 -1.264613
-3.878916 3.292715 -1.226484
-4.141031 3.524308 -1.175150
-4.425362 3.775667 -1.113760
-4.857920 4.118357 -1.062521
-5.321644 4.522368 -0.996190
-6.129422 5.227317 -0.953961
-7.156988 6.124314 -0.890867
-8.420590 7.225303 -0.786739
-10.037549 8.637510 -0.627331
-11.992474 10.345983 -0.376535
-14.373695 12.423880 -0.007994
0.003869 -0.101050 -0.003236
0.003869 -0.101050 -0.003236
-23.923697 20.779053 2.209477
-23.886444 20.760899 2.947843
-23.731089 20.639507 3.674844
0.003869 -0.101050 -0.003236
0.003869 -0.101050 -0.003236
-2.140615 1.776097 0.532997
-0.439466 0.288281 -0.353303
-0.453222 0.300630 -0.345291
-0.494812 0.337316 -0.356440
-2.262774 1.892458 -1.519673
-2.357105 1.976838 -1.492864
-2.457500 2.065911 -1.464229
-2.578465 2.173956 -1.441712
-2.698639 2.281456 -1.411067
-2.823512 2.392371 -1.376350
-2.963705 2.517795 -1.341660
-3.160054 2.692982 -1.321477
-3.371839 2.880993 -1.295982
-3.580836 3.067787 -1.256996
-3.818515 3.279017 -1.213544
-4.134758 3.561170 -1.179297
-4.425057 3.820738 -1.119306
-4.827652 4.141176 -1.061204
-5.269650 4.530806 -0.991432
-6.116564 5.278354 -0.956730
-7.119563 6.164207 -0.890657
-8.382804 7.277719 -0.787132
-9.982623 8.691299 -0.627017
-11.921661 10.405674 -0.376170
-14.271400 12.480067 -0.007939
0.003857 -0.100936 -0.003232
-23.942116 21.032053 1.478240
-23.897394 20.999664 2.218307
-23.860041 20.981174 2.959588
-23.703629 20.857389 3.689286
0.003857 -0.100936 -0.003232
-2.114108 1.773340 0.460708
0.003857 -0.100936 -0.003232
-0.441085 0.294364 -0.356360
-0.449616 0.302214 -0.344306
-0.494923 0.342628 -0.358314
-0.542242 0.385035 -0.370440
-2.349177 1.994116 -1.495422
-2.449092 2.083796 -1.466660
-2.554328 2.179076 -1.435530
-2.677940 2.290876 -1.407416
-2.816142 2.414969 -1.379760
-2.954246 2.539979 -1.344211
-3.151034 2.717593 -1.324447
-3.356075 2.901767 -1.296520
-3.572660 3.097509 -1.260530
-3.785947 3.289373 -1.209376
-4.097600 3.570683 -1.174702
-4.376072 3.822657 -1.112616
-4.803170 4.169018 -1.061186
-5.239973 4.558568 -0.990855
-6.081064 5.309629 -0.956012
-7.083401 6.205195 -0.890633
-8.347657 7.332582 -0.787805
-9.942316 8.758020 -0.627641
-11.843115 10.458269 -0.375569
-14.186830 12.551440 -0.007891
-19.579695 17.371658 0.599668
-23.915520 21.254745 1.484244
-23.878277 21.228643 2.227972
-23.837833 21.207142 2.972075
-23.672985 21.074333 3.703499
0.003865 -0.100845 -0.003229
-2.109178 1.790871 0.462013
-2.107168 1.790366 0.530057
-0.433695 0.292431 -0.352272
-0.448590 0.306093 -0.345281
-0.488423 0.342049 -0.355491
-0.550071 0.397842 -0.377618
-2.335734 2.006502 -1.494556
-2.442885 2.104518 -1.470719
-2.537060 2.190158 -1.433206
-2.672451 2.313878 -1.411771
-2.813740 2.443087 -1.385909
-2.961515 2.577398 -1.354449
-3.136191 2.737090 -1.325030
-3.339649 2.923034 -1.297058
-3.549900 3.114250 -1.258995
-3.785984 3.330174 -1.215824
-4.042416 3.564830 -1.165112
-4.367303 3.861861 -1.116307
-4.772637 4.191414 -1.059872
-5.235810 4.610848 -0.995299
-6.085283 5.376544 -0.961569
-7.048496 6.247321 -0.890795
-8.313831 7.391423 -0.788756
-9.904541 8.827240 -0.628452
-11.773254 10.518330 -0.375250
-14.084857 12.611344 -0.007836
-19.429865 17.439951 0.598213
0.003853 -0.100731 -0.003225
0.003853 -0.100731 -0.003225
0.003853 -0.100731 -0.003225
-23.681871 21.328932 3.724203
0.003853 -0.100731 -0.003225
0.003853 -0.100731 -0.003225
-2.097717 1.803909 0.530437
-0.427534 0.291643 -0.349206
-0.447455 0.310033 -0.346257
-0.488425 0.347463 -0.357363
-0.548425 0.402421 -0.378511
-2.329904 2.026551 -1.498825
-2.435558 2.123588 -1.473965
-2.524804 2.206537 -1.433966
-2.660833 2.332306 -1.413217
-2.794884 2.455549 -1.383845
-2.931605 2.582252 -1.348030
-3.122148 2.758353 -1.326209
-3.303765 2.925467 -1.289872
-3.537913 3.141895 -1.261516
-3.766193 3.352037 -1.215809
-4.024154 3.590807 -1.165929
-4.338640 3.881741 -1.114808
-4.770491 4.241025 -1.065048
-5.217412 4.649028 -0.996953
-6.077685 5.435388 -0.965499
-7.010746 6.289124 -0.890770
-8.279428 7.447317 -0.789569
-9.849978 8.884596 -0.628324
-11.701242 10.579984 -0.374930
-13.950928 12.637023 -0.007772
-19.296017 17.527987 0.597355
0.003841 -0.100617 -0.003221
0.003841 -0.100617 -0.003221
0.003841 -0.100617 -0.003221
0.003841 -0.100617 -0.003221
0.003841 -0.100617 -0.003221
-23.572445 21.507563 5.243102
0.003841 -0.100617 -0.003221
-0.424012 0.293061 -0.348181
-0.438676 0.306825 -0.341352
-0.492317 0.356356 -0.362057
-0.545515 0.405687 -0.378507
-2.323306 2.044534 -1.502240
-2.421380 2.136456 -1.473141
-2.516917 2.226161 -1.437040
-2.656804 2.356091 -1.418301
-2.796706 2.487028 -1.392046
-2.926332 2.607697 -1.352503
-3.106138 2.775842 -1.326198
-3.284893 2.943247 -1.289307
-3.511260 3.153833 -1.258461
-3.749132 3.376438 -1.216717
-3.977678 3.589397 -1.158421
-4.310593 3.900668 -1.113309
-4.738170 4.261847 -1.063408
-5.166687 4.657640 -0.992473
-6.053038 5.477116 -0.966640
-6.982635 6.337563 -0.891865
-8.246146 7.504434 -0.790521
-9.801047 8.943947 -0.628480
-11.638522 10.642503 -0.374801
-13.867128 12.707717 -0.007724
0.003849 -0.100526 -0.003219
0.003849 -0.100526 -0.003219
0.003849 -0.100526 -0.003219
0.003849 -0.100526 -0.003219
0.003849 -0.100526 -0.003219
0.003849 -0.100526 -0.003219
-23.539803 21.720678 5.262921
-4.077350 3.684677 1.044159
-0.424334 0.297894 -0.350217
-0.440231 0.312959 -0.344287
-0.487189 0.356826 -0.360173
-0.533547 0.400335 -0.372216
-2.312264 2.059239 -1.503085
-2.411145 2.152976 -1.474758
-2.509292 2.245330 -1.440115
-2.635841 2.365129 -1.414649
-2.777667 2.499368 -1.389981
-2.924548 2.637558 -1.358898
-3.111848 2.814665 -1.335724
-3.277147 2.971419 -1.293157
-3.495299 3.176751 -1.259461
-3.723392 3.392760 -1.214856
-3.937184 3.595647 -1.152994
-4.299707 3.938393 -1.116629
-4.699308 4.274896 -1.060144
-5.159529 4.706317 -0.996357
-6.016022 5.505521 -0.965689
-6.950997 6.380638 -0.892399
-8.208091 7.557321 -0.791053
-9.757736 9.005426 -0.628917
-11.573607 10.706697 -0.374668
-13.791730 12.786037 -0.007681
0.003837 -0.100412 -0.003215
0.003837 -0.100412 -0.003215
0.003837 -0.100412 -0.003215
0.003837 -0.100412 -0.003215
0.003837 -0.100412 -0.003215
0.003837 -0.100412 -0.003215
-2.048919 1.824911 0.458489
0.003837 -0.100412 -0.003215
-0.419474 0.298184 -0.348171
-0.440318 0.318090 -0.346242
-0.492185 0.367101 -0.365804
-0.514967 0.388902 -0.361438
-2.295474 2.069312 -1.500507
-2.396817 2.165689 -1.473933
-2.502051 2.266625 -1.443961
-2.622531 2.382114 -1.415366
-2.769488 2.521885 -1.393392
-2.920660 2.666701 -1.364651
-3.072335 2.812194 -1.326172
-3.260819 2.991675 -1.293695
-3.489858 3.210853 -1.264517
-3.706050 3.416922 -1.215766
-3.894569 3.598168 -1.146735
-4.284937 3.971296 -1.118839
-4.674725 4.304154 -1.060451
-5.124589 4.729272 -0.994944
-6.020268 5.576631 -0.971711
-6.915359 6.424595 -0.892747
-8.171152 7.611392 -0.791726
-9.703585 9.063242 -0.628884
-11.497719 10.764270 -0.374254
-13.698471 12.847458 -0.007629
0.003845 -0.100321 -0.003213
-19.534769 18.387596 1.244890
-19.496687 18.357710 1.868069
-2.037619 1.833328 0.258457
-2.043494 1.840218 0.325997
0.003845 -0.100321 -0.003213
0.003845 -0.100321 -0.003213
0.003845 -0.100321 -0.003213
-0.423407 0.306651 -0.353269
-0.436638 0.319533 -0.345258
-0.489486 0.370045 -0.365800
-0.505685 0.385820 -0.356944
-0.513934 0.394024 -0.342217
-2.395249 2.191358 -1.481247
-2.496415 2.288780 -1.448576
-2.618983 2.407596 -1.421178
-2.751192 2.535800 -1.392010
-2.897850 2.677042 -1.361436
-3.063815 2.837887 -1.329736
-3.243831 3.012421 -1.294233
-3.465159 3.225644 -1.262476
-3.659867 3.414715 -1.207442
-3.872586 3.621328 -1.146719
-4.240895 3.977701 -1.113631
-4.637879 4.320221 -1.057836
-5.104470 4.767891 -0.996598
-5.961630 5.586639 -0.967506
-6.876247 6.463011 -0.892538
-8.144073 7.677753 -0.793516
-9.652160 9.120440 -0.628944
-11.435019 10.830376 -0.374216
-13.578115 12.887099 -0.007570
0.003833 -0.100207 -0.003208
-19.345795 18.421057 1.239667
-2.033515 1.851254 0.193409
-1.995939 1.816571 0.254576
0.003833 -0.100207 -0.003208
-2.014144 1.835985 0.389170
0.003833 -0.100207 -0.003208
0.003833 -0.100207 -0.003208
-0.420996 0.309283 -0.353264
-0.434146 0.322241 -0.345254
-0.487968 0.374298 -0.366734
-0.496368 0.382728 -0.352450
-0.494180 0.380774 -0.331083
-2.379391 2.202679 -1.479609
-2.476894 2.298522 -1.445481
-2.617899 2.435696 -1.428446
-2.745424 2.560853 -1.396791
-2.885902 2.697739 -1.363347
-3.045494 2.854270 -1.329127
-3.242430 3.047213 -1.300841
-3.459872 3.259141 -1.267530
-3.642378 3.438553 -1.208351
-3.851773 3.643016 -1.146703
-4.222319 4.005543 -1.114727
-4.607333 4.343659 -1.056844
-5.092057 4.812423 -0.999646
-5.907813 5.602712 -0.964229
-6.837243 6.503810 -0.892512
-8.097744 7.723218 -0.793348
-9.588708 9.169293 -0.628350
-11.373381 10.897501 -0.374225
-13.478723 12.941492 -0.007518
-19.062258 18.354992 0.606759
-19.162844 18.458525 1.234815
0.003823 -0.100091 -0.003204
-19.092974 18.409645 2.471834
0.003823 -0.100091 -0.003204
0.003823 -0.100091 -0.003204
-1.964420 1.810880 0.446861
-1.965549 1.813281 0.513481
-0.418691 0.311733 -0.353261
-0.431786 0.324783 -0.345249
-0.479005 0.370985 -0.362032
-0.489827 0.381864 -0.349752
-0.496582 0.388788 -0.334502
-2.363496 2.213911 -1.477970
-2.464810 2.313735 -1.446241
-2.597949 2.445642 -1.425523
-2.726049 2.572795 -1.394725
-2.876531 2.721062 -1.366537
-3.040708 2.883888 -1.334481
-3.217399 3.059205 -1.298070
-3.429428 3.268271 -1.263462
-3.638617 3.475932 -1.213876
-3.830898 3.667264 -1.147106
-4.183892 4.016852 -1.111003
-4.583888 4.370807 -1.057152
-5.045286 4.823802 -0.996003
-5.786314 5.548314 -0.949568
-6.804562 6.546145 -0.893048
-8.059739 7.776780 -0.794020
-9.546859 9.232559 -0.628972
-11.288460 10.941902 -0.373485
-13.359149 12.975589 -0.007460
0.003832 -0.099999 -0.003202
0.003832 -0.099999 -0.003202
-1.969595 1.834261 0.189395
0.003832 -0.099999 -0.003202
-1.941651 1.808806 0.314897
-1.895631 1.764924 0.370291
-1.903786 1.774207 0.435538
0.003832 -0.099999 -0.003202
-0.416256 0.314345 -0.353255
-0.435474 0.333589 -0.350144
-0.474948 0.372700 -0.361088
-0.486960 0.384880 -0.349748
-0.489829 0.388047 -0.331929
-2.363153 2.240461 -1.486097
-2.458328 2.336220 -1.450857
-2.578846 2.457196 -1.423327
-2.729322 2.607080 -1.404296
-2.869179 2.747531 -1.371010
-3.032470 2.911414 -1.338640
-3.201913 3.080513 -1.299159
-3.416280 3.295496 -1.265981
-3.600048 3.479123 -1.207860
-3.805003 3.685242 -1.145841
-4.160145 4.040993 -1.110986
-4.550287 4.391110 -1.055510
-5.005602 4.841755 -0.993753
-5.660847 5.491942 -0.934439
-6.762206 6.583690 -0.892651
-8.015707 7.824554 -0.794132
-9.495622 9.293320 -0.629221
-11.201495 10.987672 -0.372742
-13.276590 13.045332 -0.007413
0.003819 -0.099886 -0.003198
0.003819 -0.099886 -0.003198
-1.951370 1.838682 0.188710
0.003819 -0.099886 -0.003198
-1.886599 1.777018 0.307719
-1.882064 1.773138 0.369745
0.003819 -0.099886 -0.003198
0.003819 -0.099886 -0.003198
-0.410224 0.313227 -0.350188
-0.434207 0.337444 -0.351120
-0.463479 0.366819 -0.354507
-0.480375 0.384014 -0.347049
-0.483168 0.387136 -0.329357
-0.507690 0.411826 -0.325492
-2.439054 2.345228 -1.447762
-2.578560 2.486612 -1.431324
-2.711057 2.620213 -1.402915
-2.859439 2.770822 -1.374201
-3.020490 2.934353 -1.341012
-3.194423 3.109910 -1.303559
-3.393964 3.312486 -1.264953
-3.575289 3.495776 -1.206460
-3.801113 3.725242 -1.151237
-4.143175 4.071950 -1.112824
-4.534152 4.427093 -1.057766
-4.993913 4.887390 -0.997080
-5.652478 5.548411 -0.938370
-6.733511 6.632480 -0.893929
-7.982688 7.883371 -0.795363
-9.455548 9.362061 -0.630124
-11.140342 11.054891 -0.372798
-13.166821 13.087668 -0.007358
0.003828 -0.099794 -0.003196
0.003828 -0.099794 -0.003196
-1.951444 1.861297 0.189831
-1.935854 1.846986 0.252575
-1.886992 1.799236 0.309584
-1.854487 1.767211 0.366419
-1.840345 1.754267 0.425843
-1.822437 1.737511 0.484290
-0.409044 0.316918 -0.351205
-0.431703 0.340079 -0.351114
-0.463284 0.372123 -0.356381
-0.472573 0.381833 -0.343452
-0.479091 0.388751 -0.328496
-0.502170 0.412263 -0.323860
-2.434030 2.368543 -1.453149
-2.562344 2.500221 -1.430583
-2.696682 2.637228 -1.403588
-2.842880 2.787359 -1.374189
-3.015045 2.964044 -1.346365
-3.175904 3.128366 -1.303546
-3.378341 3.336214 -1.266461
-3.536803 3.498387 -1.200446
-3.803734 3.772284 -1.158714
-4.114970 4.091639 -1.111696
-4.494158 4.439234 -1.054501
-4.952592 4.903505 -0.994552
-5.584957 5.545679 -0.932538
-6.693267 6.669821 -0.893719
-7.942243 7.934978 -0.795894
-9.402358 9.417853 -0.630185
-11.064739 11.107551 -0.372385
-13.079494 13.151952 -0.007309
0.003815 -0.099680 -0.003191
-16.636007 16.777206 1.096812
-16.607994 16.754396 1.646346
0.003815 -0.099680 -0.003191
-1.940120 1.875293 0.320257
-1.845111 1.779394 0.366706
-1.853164 1.788859 0.431356
-1.745714 1.680798 0.466545
-0.408991 0.321936 -0.353240
-0.433954 0.347728 -0.355030
-0.454296 0.368666 -0.351680
-0.463452 0.378349 -0.338959
-0.472505 0.387770 -0.325921
-0.496588 0.412757 -0.322226
-2.425809 2.389668 -1.456994
-2.547343 2.515049 -1.430572
-2.688291 2.661376 -1.407682
-2.832845 2.810591 -1.377379
-2.998706 2.982847 -1.346948
-3.178173 3.169308 -1.312359
-3.358516 3.355724 -1.266447
-3.520825 3.524984 -1.202278
-3.784131 3.797047 -1.159530
-4.096264 4.121011 -1.113163
-4.434025 4.432077 -1.046691
-4.915916 4.925824 -0.993139
-5.537502 5.564618 -0.930193
-6.658589 6.715210 -0.894439
-7.904237 7.992035 -0.796845
-9.354165 9.482150 -0.630711
-10.994510 11.165452 -0.372158
-12.983948 13.212205 -0.007258
0.003803 -0.099567 -0.003187
-17.270727 17.623894 1.145552
-16.491100 16.835543 1.644735
-23.365782 23.901672 3.114750
-1.917664 1.875179 0.318413
-1.831172 1.787579 0.366159
-1.842279 1.799628 0.431366
-1.809399 1.767076 0.486528
-0.409015 0.326796 -0.355278
-0.426610 0.345261 -0.351105
-0.446774 0.366252 -0.347917
-0.455823 0.375923 -0.335363
-0.463413 0.384106 -0.321636
-0.484752 0.406532 -0.316524
-2.411879 2.403285 -1.456984
-2.532259 2.529788 -1.430561
-2.688004 2.693154 -1.415884
-2.833153 2.844709 -1.385695
-2.992842 3.012554 -1.352300
-3.152654 3.180751 -1.309587
-3.352004 3.389069 -1.271502
-3.497227 3.542512 -1.201340
-3.756903 3.815309 -1.158266
-4.094326 4.169465 -1.119447
-4.453984 4.503656 -1.057388
-4.882793 4.949883 -0.992284
-5.532069 5.622685 -0.934588
-6.624633 6.756686 -0.894973
-7.872798 8.053288 -0.798356
-9.297792 9.531441 -0.630492
-10.918390 11.217130 -0.371746
-12.894645 13.273859 -0.007210
-17.232893 17.777771 0.567994
0.003812 -0.099475 -0.003185
-17.094994 17.658943 1.715305
-23.250711 24.068598 3.118538
-1.807123 1.783226 0.301728
-1.807936 1.785356 0.363667
-1.822788 1.802104 0.429432
-1.816330 1.796013 0.491345
-0.408861 0.331824 -0.357314
-0.426383 0.350435 -0.353060
-0.441565 0.366463 -0.346034
-0.449301 0.374873 -0.332664
-0.456787 0.383038 -0.319064
-0.480575 0.408118 -0.315705
-2.403371 2.424343 -1.460829
-2.534643 2.563778 -1.440738
-2.677092 2.714158 -1.418609
-2.814342 2.860207 -1.385042
-2.966450 3.022073 -1.348710
-3.128440 3.193400 -1.307366
-3.324602 3.401998 -1.268953
-3.490963 3.578220 -1.206402
-3.751821 3.855420 -1.163662
-4.064284 4.187371 -1.117949
-4.429362 4.532975 -1.058019
-4.868734 4.993779 -0.995331
-5.728656 5.896720 -0.973607
-6.585243 6.797400 -0.895135
-7.834033 8.107237 -0.799167
-9.244657 9.590838 -0.630740
-10.835947 11.265882 -0.371191
-12.809223 13.339290 -0.007162
0.003799 -0.099362 -0.003181
-16.988123 17.746559 1.140662
-16.978765 17.742668 1.713971
-1.792757 1.789406 0.239452
-1.793188 1.791149 0.301273
-1.790256 1.788691 0.362288
-1.806384 1.806959 0.428146
-1.683301 1.678555 0.458065
-0.405213 0.333067 -0.356288
-0.421395 0.350475 -0.351095
-0.441314 0.371695 -0.347908
-0.442886 0.373680 -0.329966
-0.450376 0.381768 -0.316491
-0.471380 0.404358 -0.311631
-0.487383 0.421670 -0.302418
-2.512077 2.569867 -1.436360
-2.647984 2.715968 -1.411752
-2.795203 2.873243 -1.383748
-2.956833 3.047036 -1.352275
-3.113397 3.215676 -1.309008
-3.299726 3.414987 -1.266911
-3.485749 3.615409 -1.211925
-3.714981 3.860743 -1.159068
-4.041652 4.211542 -1.118303
-4.405335 4.561361 -1.058652
-4.832545 5.014637 -0.993918
-5.722716 5.960027 -0.978465
-6.555028 6.845437 -0.896413
-7.788045 8.153743 -0.799279
-9.203842 9.659986 -0.631736
-10.757271 11.310273 -0.370639
-12.730318 13.411432 -0.007117
-18.300566 19.334639 0.610982
-20.323126 21.489185 1.373318
-20.274746 21.452509 2.059810
-1.793108 1.811106 0.240944
-1.796220 1.815718 0.303601
-1.806488 1.827955 0.367856
-1.797075 1.818573 0.428479
-1.728491 1.746798 0.473238
-0.406318 0.339212 -0.359345
-0.422460 0.356773 -0.354030
-0.433786 0.369203 -0.344145
-0.434153 0.369750 -0.325472
-0.443904 0.380513 -0.313918
-0.467222 0.405841 -0.310813
-0.478092 0.417849 -0.298557
-2.504298 2.592584 -1.440716
-2.634296 2.734024 -1.413110
-2.787848 2.900977 -1.388861
-2.945934 3.073030 -1.355839
-3.091648 3.230833 -1.307892
-3.286729 3.443113 -1.269938
-3.478236 3.651826 -1.216987
-3.709377 3.903549 -1.164879
-4.028064 4.248530 -1.121622
-4.386014 4.593204 -1.060257
-4.797639 5.036702 -0.992784
0.003795 -0.099156 -0.003175
-6.518909 6.884946 -0.896761
-7.745893 8.204393 -0.799809
-9.150277 9.715845 -0.631889
-10.684643 11.364806 -0.370366
-12.626462 13.456774 -0.007065
0.003795 -0.099156 -0.003175
-19.508907 20.872255 1.326646
0.003795 -0.099156 -0.003175
-20.092783 21.521730 2.744515
-1.780782 1.822094 0.302914
-1.796372 1.840202 0.368142
-1.791053 1.835116 0.429785
-1.793710 1.839300 0.494333
-0.395464 0.332963 -0.352197
-0.414940 0.354346 -0.350106
-0.426198 0.366684 -0.340384
-0.431286 0.372515 -0.325467
-0.432478 0.373965 -0.307921
-0.459275 0.403362 -0.307552
-0.473774 0.419445 -0.297781
-2.484511 2.603396 -1.438521
-2.613640 2.745575 -1.411045
-2.766700 2.912916 -1.386926
-2.930229 3.092875 -1.357017
-3.082272 3.260571 -1.312291
-3.279392 3.476351 -1.274993
-3.469748 3.686232 -1.221588
-3.668474 3.904124 -1.159037
-4.005646 4.274664 -1.122347
-4.369362 4.633067 -1.063160
-4.795328 5.095726 -0.998618
0.003786 -0.099040 -0.003170
-6.472123 6.920343 -0.896176
-7.696526 8.250284 -0.799781
-9.105454 9.784718 -0.632792
-10.604296 11.414827 -0.369905
-12.532351 13.516816 -0.007013
-18.080423 19.556173 0.611385
-19.391960 20.988670 1.326990
-19.270912 20.871387 1.982610
-20.952978 22.709038 2.880092
-1.781792 1.845600 0.305010
-1.782519 1.847720 0.367597
-1.793226 1.860043 0.433031
0.003786 -0.099040 -0.003170
-0.401181 0.344185 -0.359335
-0.411226 0.355486 -0.349121
-0.422416 0.367890 -0.339439
-0.421415 0.367111 -0.320076
-0.428539 0.375241 -0.307059
-0.451544 0.400638 -0.304292
-0.468387 0.419470 -0.296234
-2.483979 2.634312 -1.447243
-2.614176 2.778309 -1.419931
-2.749329 2.928914 -1.386914
-2.909266 3.106998 -1.355811
-3.068646 3.283530 -1.314485
-3.250961 3.486688 -1.271938
-3.445976 3.702793 -1.220649
-3.645390 3.925300 -1.159021
-3.980414 4.297767 -1.122330
-4.342894 4.657494 -1.063143
-4.747574 5.102059 -0.994697
0.003794 -0.098949 -0.003168
-6.444943 6.969711 -0.897828
-7.659253 8.303559 -0.800731
-9.052868 9.838447 -0.632946
-10.531142 11.468387 -0.369633
-12.435978 13.564449 -0.006965
-16.602043 18.152790 0.564655
0.003794 -0.098949 -0.003168
-19.150928 20.975744 1.982397
0.003794 -0.098949 -0.003168
-1.758564 1.842711 0.302933
-1.772964 1.859232 0.367884
-1.797835 1.887999 0.436926
-1.597078 1.667798 0.445523
-0.397465 0.345323 -0.358311
-0.400430 0.348911 -0.342256
-0.417368 0.367825 -0.337555
-0.407953 0.357707 -0.311992
-0.420958 0.372447 -0.303631
-0.446135 0.400720 -0.302660
-0.467881 0.425040 -0.297770
-2.465724 2.645923 -1.445776
-2.595824 2.792495 -1.419233
-2.742017 2.956107 -1.392025
-2.888207 3.120958 -1.354607
-3.040848 3.293213 -1.311160
-3.230294 3.505478 -1.271922
-3.428581 3.729083 -1.222480
-3.622771 3.948418 -1.159422
-3.960836 4.328736 -1.124167
-4.315459 4.682531 -1.063125
-4.679515 5.089090 -0.986872
-5.603085 6.114244 -0.982094
-6.404150 7.006786 -0.897805
-7.617321 8.357833 -0.801541
-9.011600 9.908319 -0.634035
-10.443018 11.505150 -0.368845
-12.352096 13.635095 -0.006917
0.003782 -0.098835 -0.003164
0.003782 -0.098835 -0.003164
-18.785692 20.821846 1.957427
0.003782 -0.098835 -0.003164
-1.764614 1.872147 0.305957
-1.767927 1.877191 0.369282
-1.782088 1.894349 0.435965
0.003782 -0.098835 -0.003164
-0.392550 0.345247 -0.356264
-0.403585 0.357923 -0.347151
-0.405184 0.359862 -0.330037
-0.402877 0.357590 -0.310191
-0.421776 0.379117 -0.306194
-0.444487 0.404791 -0.303467
-0.461076 0.423782 -0.295453
-2.459324 2.671769 -1.451586
-2.576659 2.804712 -1.417852
-2.727620 2.976668 -1.393935
-2.872890 3.142453 -1.356381
-3.035314 3.326598 -1.317215
-3.214013 3.530488 -1.273935
-3.428443 3.773626 -1.230311
-3.599433 3.969329 -1.159406
-3.966570 4.386909 -1.133046
-4.288352 4.709630 -1.063432
-4.623220 5.086504 -0.981278
-5.574089 6.156375 -0.983465
-6.372524 7.056657 -0.899268
-7.569857 8.403126 -0.801653
-8.949474 9.958723 -0.633812
-10.368742 11.561020 -0.368617
-10.519827 11.734806 -0.006342
-17.710606 19.834328 0.610610
0.003769 -0.098721 -0.003160
-18.594810 20.850637 1.950121
-1.777719 1.909317 0.246738
0.003769 -0.098721 -0.003160
0.003769 -0.098721 -0.003160
-1.839938 1.982991 0.453138
-1.578937 1.689525 0.446281
-0.393409 0.351496 -0.359321
-0.399796 0.359050 -0.346167
-0.403717 0.363650 -0.330971
-0.396705 0.356003 -0.307493
-0.409472 0.370815 -0.299341
-0.439162 0.404712 -0.301836
-0.454431 0.422415 -0.293133
-2.440872 2.683187 -1.450120
-2.563625 2.823841 -1.419894
-2.707387 2.989597 -1.392641
-2.847899 3.151879 -1.353387
-3.015570 3.344147 -1.317201
-3.194356 3.550506 -1.274428
-3.406116 3.793424 -1.230296
-3.575973 3.990104 -1.159390
-3.923865 4.390543 -1.128211
-4.247577 4.719572 -1.060166
-4.591985 5.111644 -0.980981
-5.553771 6.206356 -0.986231
-6.339159 7.102311 -0.900359
-7.532700 8.460163 -0.802882
-8.905970 10.026662 -0.634809
-10.247350 11.559047 -0.366659
-10.241625 11.556436 -0.006240
-17.686672 20.039669 0.613849
0.003778 -0.098630 -0.003158
-1.760954 1.912340 0.183398
0.003778 -0.098630 -0.003158
-1.730998 1.880924 0.304120
-1.754211 1.908081 0.371246
-1.829234 1.995157 0.453472
-1.578990 1.710555 0.449250
-0.387407 0.349974 -0.356256
-0.392578 0.356214 -0.342242
-0.398741 0.363433 -0.329087
-0.391735 0.355703 -0.305693
-0.407948 0.374649 -0.300192
-0.433783 0.404681 -0.300203
-0.451424 0.425143 -0.293128
-2.426061 2.698731 -1.450835
-2.562283 2.857578 -1.428778
-2.693315 3.009562 -1.394549
-2.836650 3.176986 -1.356952
-2.996365 3.363536 -1.317739
-3.173303 3.568945 -1.274414
-3.400819 3.834276 -1.236741
-3.552955 4.012841 -1.159790
-3.908756 4.427237 -1.131530
-4.215893 4.739595 -1.059175
-4.568836 5.147866 -0.982634
-5.529152 6.251811 -0.988300
-6.300245 7.141799 -0.900706
-7.489686 8.513818 -0.803692
-8.851513 10.082399 -0.635055
-10.035818 11.451936 -0.361472
-10.140877 11.580832 -0.006191
0.003766 -0.098516 -0.003153
0.003766 -0.098516 -0.003153
-1.751628 1.925898 0.183687
-22.959991 26.402737 3.261446
0.003766 -0.098516 -0.003153
-1.829151 2.018921 0.389880
-1.838742 2.031466 0.458987
-1.571130 1.722706 0.449998
-0.381395 0.348503 -0.353188
-0.384189 0.352056 -0.337337
-0.391390 0.360566 -0.325325
-0.391377 0.360861 -0.307483
-0.408684 0.381311 -0.302755
-0.431990 0.408764 -0.301011
-0.448308 0.427933 -0.293123
-2.411861 2.716016 -1.452280
-2.542276 2.869996 -1.427397
-2.683481 3.035674 -1.399020
-2.835832 3.215635 -1.365879
-2.974535 3.379899 -1.317174
-3.161584 3.599593 -1.278453
-3.382489 3.860394 -1.238573
-3.533600 4.039904 -1.161440
-3.885705 4.454955 -1.132624
-4.218066 4.800513 -1.066947
-4.982248 5.691240 -1.078497
-5.495307 6.289135 -0.988974
-6.267589 7.191211 -0.902171
-7.442399 8.562733 -0.804082
-8.794901 10.139358 -0.635302
-9.848619 11.373317 -0.357173
-10.102723 11.677296 -0.006161
0.003774 -0.098425 -0.003151
-10.515013 12.170238 0.747344
-17.997147 20.911564 1.926116
-9.759060 11.304230 1.394384
-1.728428 1.925404 0.307850
-1.808834 2.020810 0.388221
-1.719656 1.917932 0.432117
-1.576911 1.751548 0.454817
-0.383354 0.355977 -0.357266
-0.385075 0.358313 -0.340271
-0.381945 0.354788 -0.319686
-0.388816 0.363173 -0.307478
-0.404837 0.382334 -0.301894
-0.430331 0.412679 -0.301821
-0.437018 0.420717 -0.287719
-2.390100 2.722455 -1.448629
-2.522025 2.879955 -1.425332
-2.667168 3.052155 -1.399649
-2.806200 3.218425 -1.360501
-2.967509 3.411248 -1.322677
-3.138401 3.614340 -1.277426
-3.350309 3.867452 -1.234866
-3.515512 4.065657 -1.163089
-3.841221 4.454169 -1.127047
-4.188104 4.821086 -1.066281
-4.956283 5.726602 -1.079871
-5.466020 6.327376 -0.990114
-6.229424 7.229245 -0.902518
-7.390098 8.599700 -0.803633
-8.741526 10.192952 -0.635550
-9.696478 11.324594 -0.353953
0.003762 -0.098311 -0.003147
-10.303875 12.052324 0.363731
-9.867640 11.546123 0.705817
-9.751059 11.416551 1.049239
-9.636096 11.288697 1.385891
-1.728667 1.948795 0.309947
0.003762 -0.098311 -0.003147
-1.716026 1.936666 0.434069
-1.566562 1.760433 0.454825
-0.377336 0.354427 -0.354200
-0.383487 0.362049 -0.341247
-0.375850 0.353119 -0.316863
-0.387217 0.366954 -0.308372
-0.399651 0.382075 -0.300178
-0.423874 0.411085 -0.299374
-0.439859 0.430488 -0.291571
-2.381724 2.746705 -1.453711
-2.516936 2.908964 -1.432163
-2.648467 3.068060 -1.399635
-2.784039 3.232201 -1.359295
-2.962077 3.446085 -1.329283
-3.123792 3.641923 -1.280452
-3.342420 3.904716 -1.240388
-3.521607 4.121984 -1.173061
-3.821261 4.483864 -1.128884
-4.149981 4.835400 -1.063990
-4.931623 5.765765 -1.081801
-5.440623 6.375000 -0.992414
-6.193557 7.275313 -0.903610
-7.365605 8.672757 -0.806401
-8.700931 10.269214 -0.637011
-9.552761 11.291628 -0.351153
-10.166551 12.027252 -0.006144
-9.842496 11.649018 0.349821
-9.730429 11.523347 0.700936
-9.624462 11.400708 1.042738
-9.511631 11.273816 1.377399
0.003749 -0.098197 -0.003143
-9.301881 11.034579 2.033279
0.003749 -0.098197 -0.003143
-1.554251 1.768295 0.454463
-0.374720 0.356707 -0.354196
-0.376386 0.359020 -0.337321
-0.373261 0.355415 -0.316858
-0.384534 0.369297 -0.308367
-0.399195 0.387276 -0.301885
-0.422093 0.415030 -0.300184
-0.430926 0.426039 -0.287710
-2.376031 2.773412 -1.460249
-2.497197 2.920630 -1.430782
-2.637456 3.092128 -1.403466
-2.783083 3.270352 -1.368224
-2.936741 3.457273 -1.327062
-3.097298 3.653999 -1.278410
-3.337934 3.946517 -1.247295
-3.539618 4.193595 -1.187196
-3.781092 4.489241 -1.124789
-4.121537 4.859331 -1.063971
-4.910478 5.809404 -1.084567
-5.414717 6.420069 -0.994483
-6.159940 7.321677 -0.904887
-7.317564 8.718180 -0.806652
-8.650064 10.329990 -0.637632
-9.432187 11.280345 -0.349104
-9.942188 11.899383 -0.006058
-9.713504 11.631657 0.347648
-9.604802 11.508476 0.696706
-9.504718 11.391462 1.036932
-9.387682 11.257907 1.368908
0.003761 -0.098103 -0.003141
-9.184702 11.023918 2.021641
-1.531682 1.761734 0.392633
0.003761 -0.098103 -0.003141
-0.366652 0.352358 -0.349087
-0.367094 0.353205 -0.331438
-0.369532 0.356321 -0.315913
-0.381851 0.371639 -0.308362
-0.395256 0.388302 -0.301023
-0.417901 0.416254 -0.299364
-0.425570 0.425785 -0.286162
-2.368904 2.798683 -1.466060
-2.486397 2.944227 -1.434876
-2.627458 3.117641 -1.407938
-2.766084 3.289400 -1.369402
-2.919272 3.479223 -1.328702
-3.085458 3.683881 -1.282450
-3.294214 3.942244 -1.239895
-3.519062 4.220694 -1.188844
-3.763761 4.523885 -1.127737
-4.094191 4.884603 -1.064279
0.003748 -0.097990 -0.003137
-5.384686 6.460448 -0.995855
-6.117161 7.357134 -0.904861
-7.276567 8.775420 -0.807881
0.003748 -0.097990 -0.003137
-6.407054 7.723707 -0.239809
-9.727680 11.783389 -0.005977
-9.590126 11.619411 0.345660
-9.477139 11.489456 0.692289
-9.379610 11.378223 1.030708
-9.272310 11.254873 1.361900
-9.182358 11.148585 1.692309
-9.073519 11.023049 2.011671
-1.524370 1.775489 0.393613
-1.538901 1.793940 0.456332
-0.363979 0.354650 -0.349083
-0.364416 0.355501 -0.331433
-0.362381 0.353142 -0.312152
-0.377941 0.372634 -0.307459
-0.392445 0.390680 -0.301020
-0.417231 0.421607 -0.300987
-0.422469 0.428434 -0.286157
-2.354544 2.815283 -1.467505
-2.475944 2.967375 -1.438970
-2.617249 3.143142 -1.412409
-2.750147 3.309843 -1.371178
-2.908312 3.508058 -1.333101
-3.068510 3.707715 -1.284464
-3.277028 3.968833 -1.242188
-3.504752 4.252581 -1.192157
-3.752720 4.563303 -1.132169
-4.444170 5.376058 -1.163264
-4.848631 5.875843 -1.086197
-5.356991 6.506269 -0.997922
-6.080385 7.402673 -0.905953
-6.119591 7.453563 -0.684759
-6.088869 7.420903 -0.456203
0.003757 -0.097898 -0.003134
-9.613872 11.783339 -0.005925
-9.457634 11.598467 0.343397
-9.356297 11.477119 0.688336
-9.259501 11.365394 1.024762
-9.153772 11.238396 1.353777
-9.071328 11.144158 1.683764
-8.959638 11.013530 2.000587
-1.527520 1.800984 0.397184
-1.530447 1.805937 0.457080
-0.358220 0.352774 -0.346017
-0.359709 0.354943 -0.329468
-0.363166 0.359400 -0.314966
-0.375302 0.374851 -0.307455
-0.389631 0.393061 -0.301015
-0.414339 0.424061 -0.300982
-0.421835 0.433789 -0.287694
-2.343576 2.836197 -1.471131
-2.455292 2.976871 -1.436905
-2.606854 3.168649 -1.416879
-2.726925 3.321262 -1.369376
-2.884559 3.519858 -1.331432
-3.061040 3.743582 -1.290532
-3.272497 4.010007 -1.249094
-3.483311 4.277379 -1.193391
-3.733190 4.594172 -1.134375
-4.422217 5.411666 -1.165517
-4.821427 5.910646 -1.087571
-5.328766 6.547028 -0.999526
-6.043433 7.442822 -0.906672
-6.064890 7.472152 -0.683336
-6.036830 7.442407 -0.455430
-6.185435 7.633291 -0.234843
0.003744 -0.097784 -0.003130
-9.337284 11.582466 0.341407
-9.230930 11.457535 0.684012
-9.141854 11.349969 1.018814
-9.036207 11.225624 1.346025
-8.951984 11.127960 1.673594
0.003744 -0.097784 -0.003130
0.003744 -0.097784 -0.003130
0.003744 -0.097784 -0.003130
-0.355621 0.354954 -0.346012
-0.353857 0.353038 -0.326523
-0.361632 0.362999 -0.315900
-0.371471 0.375730 -0.306553
-0.387935 0.396846 -0.301865
-0.412367 0.428060 -0.301791
-0.421067 0.439228 -0.289232
-2.326660 2.849762 -1.471119
-2.432361 2.985602 -1.434155
-2.585673 3.180750 -1.415585
-2.719047 3.352018 -1.375323
-2.874962 3.552105 -1.336935
-3.038886 3.761252 -1.290517
-3.244468 4.024866 -1.247695
-3.460954 4.302700 -1.194622
-3.707752 4.619448 -1.135099
-4.400266 5.449516 -1.168094
-4.799260 5.956310 -1.090616
-5.300336 6.590170 -1.001360
-6.003666 7.482285 -0.907205
-5.987713 7.467442 -0.679672
