# This PCD file was generated using the MATLAB® pcwrite function
# from Computer Vision Toolbox®.
# .PCD v.7 - Point Cloud Data file format
VERSION .7
FIELDS x y z
SIZE 4 4 4
TYPE F F F
COUNT 1 1 1
WIDTH 1623
HEIGHT 1
VIEWPOINT 0 0 0 1 0 0 0
POINTS 1623
DATA ascii
1.541797 -6.810282 -1.993038
1.701259 -7.523957 -2.010791
1.903532 -8.422158 -2.037868
2.169680 -9.611526 -2.086843
2.475379 -10.979765 -2.113492
2.930397 -12.745346 -2.141809
3.471291 -15.105061 -2.171593
3.984121 -17.360691 -2.073421
5.115937 -22.320704 -2.129600
0.000093 -0.031107 -0.001178
6.495741 -28.403704 -1.352018
0.000093 -0.031107 -0.001178
0.000093 -0.031107 -0.001178
0.000093 -0.031107 -0.001178
0.000093 -0.031107 -0.001178
0.000093 -0.031107 -0.001178
15.727109 -69.304321 6.642107
15.696378 -69.284836 8.318931
15.741108 -69.542404 10.031517
0.000093 -0.031107 -0.001178
0.000093 -0.031107 -0.001178
0.000083 -0.030993 -0.001173
0.000083 -0.030993 -0.001173
0.128682 -0.604883 -0.313713
0.147581 -0.690392 -0.340238
0.159394 -0.743807 -0.346701
0.171968 -0.801422 -0.352420
0.189071 -0.879504 -0.364051
0.206479 -0.958512 -0.371978
1.175602 -5.322577 -1.972756
1.272885 -5.765612 -1.984610
1.377140 -6.245991 -1.986006
1.502404 -6.822951 -1.994162
1.658513 -7.535395 -2.011321
1.853310 -8.431274 -2.037436
2.113667 -9.619928 -2.086045
2.413586 -10.999472 -2.114639
2.854949 -12.762386 -2.141854
3.410425 -15.252832 -2.189991
3.880853 -17.381960 -2.073253
5.805166 -26.029659 -2.480543
4.954604 -22.239836 -1.587313
0.000083 -0.030993 -0.001173
0.000083 -0.030993 -0.001173
0.000083 -0.030993 -0.001173
0.000083 -0.030993 -0.001173
0.000083 -0.030993 -0.001173
0.000083 -0.030993 -0.001173
0.000083 -0.030993 -0.001173
0.000083 -0.030993 -0.001173
0.000083 -0.030993 -0.001173
0.000083 -0.030993 -0.001173
0.000083 -0.030993 -0.001173
0.000094 -0.030902 -0.001170
0.000094 -0.030902 -0.001170
0.118312 -0.572691 -0.295877
0.142370 -0.684111 -0.336648
0.154514 -0.741068 -0.344988
0.169085 -0.809444 -0.355672
0.182371 -0.871417 -0.360198
0.201546 -0.961417 -0.372706
1.144724 -5.327306 -1.972089
1.240654 -5.776438 -1.985907
1.343370 -6.263057 -1.989004
1.465720 -6.842668 -1.997490
1.614889 -7.542818 -2.010839
1.804935 -8.441702 -2.037464
2.057584 -9.636007 -2.086909
2.349313 -11.017320 -2.115417
2.785550 -12.785737 -2.143193
3.310532 -15.215985 -2.181985
3.773389 -17.354713 -2.067524
4.969894 -22.887732 -2.178324
4.815272 -22.215229 -1.583638
6.378732 -29.444794 -1.398221
0.000094 -0.030902 -0.001170
0.000094 -0.030902 -0.001170
16.446894 -76.206230 1.824969
0.000094 -0.030902 -0.001170
0.000094 -0.030902 -0.001170
0.000094 -0.030902 -0.001170
0.000094 -0.030902 -0.001170
0.000094 -0.030902 -0.001170
14.395208 -67.353676 11.324761
0.000094 -0.030902 -0.001170
0.000082 -0.030791 -0.001166
0.000082 -0.030791 -0.001166
0.107782 -0.538744 -0.277105
0.138138 -0.683112 -0.335751
0.151053 -0.745418 -0.346699
0.164219 -0.808512 -0.354857
0.177380 -0.872379 -0.360197
0.194476 -0.955189 -0.369796
1.114617 -5.335549 -1.972789
1.205791 -5.779886 -1.984647
1.307157 -6.274527 -1.990214
1.426476 -6.850863 -1.997510
1.571895 -7.559730 -2.012889
1.755293 -8.446113 -2.036109
1.998675 -9.630340 -2.083202
2.286442 -11.032475 -2.115824
2.711489 -12.809633 -2.144533
3.230048 -15.267602 -2.186762
3.655381 -17.304770 -2.059021
4.825629 -22.875782 -2.174516
4.675569 -22.185860 -1.579684
0.000082 -0.030791 -0.001166
14.671624 -69.802048 -1.641335
0.000082 -0.030791 -0.001166
0.000082 -0.030791 -0.001166
15.738103 -75.212975 3.597182
0.000082 -0.030791 -0.001166
0.000082 -0.030791 -0.001166
0.000082 -0.030791 -0.001166
14.475639 -69.561836 9.995610
0.000082 -0.030791 -0.001166
0.000082 -0.030791 -0.001166
0.000090 -0.030702 -0.001163
0.000090 -0.030702 -0.001163
0.095931 -0.495992 -0.253638
0.135451 -0.689036 -0.338440
0.146319 -0.742590 -0.344986
0.159741 -0.809345 -0.354857
0.173655 -0.878721 -0.362508
0.191192 -0.965300 -0.373433
1.084439 -5.343609 -1.973489
1.174057 -5.788270 -1.985303
1.274967 -6.294726 -1.994401
1.389112 -6.868278 -2.000287
1.528697 -7.562590 -2.011394
1.707217 -8.457878 -2.036597
1.940793 -9.620135 -2.078663
2.225405 -11.046897 -2.116231
2.639096 -12.830719 -2.145548
3.141514 -15.281966 -2.186260
3.546697 -17.280663 -2.053756
4.682855 -22.848448 -2.169407
4.533959 -22.143890 -1.574895
14.143259 -69.138351 -3.275971
0.000090 -0.030702 -0.001163
15.082413 -73.933365 0.014564
0.000090 -0.030702 -0.001163
0.000090 -0.030702 -0.001163
0.000090 -0.030702 -0.001163
13.996472 -68.997803 6.579074
13.463952 -66.496941 7.943698
0.000090 -0.030702 -0.001163
14.383334 -71.236130 11.949224
0.000090 -0.030702 -0.001163
0.000080 -0.030588 -0.001158
0.000080 -0.030588 -0.001158
0.088496 -0.472192 -0.240497
0.132831 -0.694942 -0.341130
0.142591 -0.745110 -0.345841
0.155613 -0.811938 -0.355669
0.169273 -0.881379 -0.363278
0.186158 -0.968091 -0.374158
1.052005 -5.340425 -1.970086
1.140536 -5.792974 -1.984681
1.238524 -6.299982 -1.993825
1.350110 -6.877938 -2.000859
1.487572 -7.582553 -2.014456
1.659433 -8.471273 -2.037546
1.879006 -9.606427 -2.073296
2.160023 -11.059772 -2.116267
2.567229 -12.843207 -2.145267
3.055997 -15.311321 -2.187979
3.442205 -17.259174 -2.048953
4.549201 -22.842863 -2.166519
4.394159 -22.106907 -1.570522
0.000080 -0.030588 -0.001158
0.000080 -0.030588 -0.001158
14.670051 -74.085548 0.014307
14.774874 -74.687782 1.781371
0.000080 -0.030588 -0.001158
0.000080 -0.030588 -0.001158
0.000080 -0.030588 -0.001158
0.000080 -0.030588 -0.001158
13.325111 -67.943573 9.739765
0.000080 -0.030588 -0.001158
0.000080 -0.030588 -0.001158
0.000088 -0.030499 -0.001155
0.000088 -0.030499 -0.001155
0.085871 -0.472605 -0.240494
0.127864 -0.690345 -0.338437
0.138000 -0.744059 -0.344984
0.150428 -0.809138 -0.354042
0.163882 -0.880461 -0.362507
0.177778 -0.954437 -0.368341
1.021065 -5.344432 -1.969417
1.105981 -5.797658 -1.984059
1.203470 -6.318353 -1.997417
1.313567 -6.900601 -2.005288
1.444207 -7.598732 -2.016505
1.609731 -8.474838 -2.036191
1.820927 -9.601587 -2.070003
2.096886 -11.073854 -2.116675
2.490460 -12.854230 -2.144665
2.965752 -15.316895 -2.186366
3.334696 -17.251871 -2.045773
4.432373 -22.965147 -2.175687
0.000088 -0.030499 -0.001155
0.000088 -0.030499 -0.001155
0.000088 -0.030499 -0.001155
14.639812 -76.230942 0.014459
0.000088 -0.030499 -0.001155
0.000088 -0.030499 -0.001155
0.000088 -0.030499 -0.001155
13.123238 -68.808342 6.545423
0.000088 -0.030499 -0.001155
12.938843 -68.044334 9.743141
0.000088 -0.030499 -0.001155
0.000088 -0.030499 -0.001155
0.000079 -0.030385 -0.001150
0.000079 -0.030385 -0.001150
0.000079 -0.030385 -0.001150
0.121755 -0.678670 -0.332157
0.133556 -0.742959 -0.344128
0.145794 -0.809905 -0.354040
0.158631 -0.879460 -0.361735
0.174855 -0.968174 -0.373431
0.990239 -5.354002 -1.970802
1.072779 -5.803834 -1.984077
1.168658 -6.332583 -1.999818
1.273859 -6.913839 -2.006963
1.401681 -7.612521 -2.018047
1.559287 -8.482230 -2.035760
1.761311 -9.596724 -2.066713
2.031367 -11.085991 -2.116714
2.416597 -12.868226 -2.144707
2.875772 -15.337989 -2.186975
3.236249 -17.274570 -2.046295
0.000079 -0.030385 -0.001150
5.454856 -29.212881 -2.071225
0.000079 -0.030385 -0.001150
0.000079 -0.030385 -0.001150
0.000079 -0.030385 -0.001150
0.000079 -0.030385 -0.001150
13.598697 -73.372627 3.492133
0.000079 -0.030385 -0.001150
0.000079 -0.030385 -0.001150
0.000079 -0.030385 -0.001150
0.000079 -0.030385 -0.001150
0.000079 -0.030385 -0.001150
0.000079 -0.030385 -0.001150
0.000087 -0.030297 -0.001147
0.000087 -0.030297 -0.001147
0.000087 -0.030297 -0.001147
0.117902 -0.679275 -0.332155
0.129982 -0.747205 -0.345838
0.141957 -0.814228 -0.355666
0.152940 -0.876654 -0.360194
0.168957 -0.967255 -0.372703
0.960566 -5.365036 -1.972868
1.036837 -5.800646 -1.980895
1.131928 -6.343041 -2.001028
1.235224 -6.926613 -2.008637
1.358391 -7.630109 -2.020602
1.511979 -8.498614 -2.037629
1.706571 -9.608529 -2.067160
1.968388 -11.101257 -2.117490
2.339731 -12.878354 -2.144105
2.789751 -15.365870 -2.188695
3.149903 -17.381306 -2.056777
4.287238 -23.695082 -2.240181
0.000087 -0.030297 -0.001147
4.404253 -24.417084 -1.151976
0.000087 -0.030297 -0.001147
0.000087 -0.030297 -0.001147
0.000087 -0.030297 -0.001147
0.000087 -0.030297 -0.001147
0.000087 -0.030297 -0.001147
12.206586 -68.329544 6.485346
0.000087 -0.030297 -0.001147
11.999441 -67.383545 9.627250
11.858853 -66.733910 11.143112
0.000087 -0.030297 -0.001147
0.000075 -0.030185 -0.001143
0.000075 -0.030185 -0.001143
0.077537 -0.470252 -0.238611
0.114800 -0.683381 -0.333949
0.126275 -0.749583 -0.346691
0.137444 -0.814929 -0.355665
0.148396 -0.879250 -0.360964
0.164054 -0.969929 -0.373431
0.929856 -5.370386 -1.972884
1.005601 -5.811851 -1.982832
1.096679 -6.349156 -2.001047
1.195834 -6.935390 -2.009209
1.317934 -7.648906 -2.023662
1.462875 -8.505141 -2.037195
1.654071 -9.623560 -2.068435
1.906560 -11.111953 -2.117525
2.267103 -12.899259 -2.145442
2.705561 -15.404973 -2.192083
0.000075 -0.030185 -0.001143
4.108709 -23.478010 -2.217460
4.077000 -23.322657 -1.650139
0.000075 -0.030185 -0.001143
0.000075 -0.030185 -0.001143
0.000075 -0.030185 -0.001143
0.000075 -0.030185 -0.001143
12.707830 -73.260345 3.479070
0.000075 -0.030185 -0.001143
11.818450 -68.357269 6.481384
0.000075 -0.030185 -0.001143
0.000075 -0.030185 -0.001143
11.521556 -67.003204 11.176964
0.000075 -0.030185 -0.001143
0.000085 -0.030094 -0.001140
0.000085 -0.030094 -0.001140
0.000085 -0.030094 -0.001140
0.112052 -0.689196 -0.336639
0.121845 -0.748430 -0.345835
0.132009 -0.810199 -0.353224
0.143647 -0.879957 -0.360963
0.158321 -0.968903 -0.372702
0.898466 -5.371814 -1.971532
0.971672 -5.813692 -1.981569
1.059341 -6.349606 -1.999280
1.157340 -6.949636 -2.011433
1.275017 -7.661980 -2.025204
1.413754 -8.511398 -2.036762
1.597489 -9.635041 -2.068884
1.841468 -11.126848 -2.118303
2.195586 -12.913558 -2.145809
2.620670 -15.441649 -2.195192
3.045486 -17.960150 -2.121274
3.956808 -23.376757 -2.205858
4.357728 -25.798773 -1.823727
0.000085 -0.030094 -0.001140
0.000085 -0.030094 -0.001140
12.453234 -74.080269 0.012884
0.000085 -0.030094 -0.001140
0.000085 -0.030094 -0.001140
0.000085 -0.030094 -0.001140
0.000085 -0.030094 -0.001140
0.000085 -0.030094 -0.001140
0.000085 -0.030094 -0.001140
0.000085 -0.030094 -0.001140
0.000085 -0.030094 -0.001140
0.000073 -0.029983 -0.001135
0.000073 -0.029983 -0.001135
0.071595 -0.465672 -0.235790
0.108421 -0.691505 -0.337534
0.117276 -0.747236 -0.344978
0.127813 -0.812647 -0.354037
0.138309 -0.878869 -0.360192
0.152465 -0.967905 -0.371976
0.867410 -5.374944 -1.970864
0.937660 -5.821116 -1.982227
1.021848 -6.355672 -1.999299
1.119332 -6.967463 -2.014760
1.231282 -7.678861 -2.027760
1.365538 -8.523132 -2.037710
1.542170 -9.643955 -2.068914
1.772286 -11.104156 -2.112050
2.119784 -12.930133 -2.146500
2.529692 -15.442701 -2.193299
2.992383 -18.303200 -2.159779
3.782016 -23.177622 -2.184988
0.000073 -0.029983 -0.001135
0.000073 -0.029983 -0.001135
0.000073 -0.029983 -0.001135
9.588179 -59.121166 0.009831
9.580854 -59.211098 1.401741
0.000073 -0.029983 -0.001135
0.000073 -0.029983 -0.001135
0.000073 -0.029983 -0.001135
0.000073 -0.029983 -0.001135
0.000073 -0.029983 -0.001135
0.000073 -0.029983 -0.001135
0.000073 -0.029983 -0.001135
0.000084 -0.029891 -0.001132
0.000084 -0.029891 -0.001132
0.000084 -0.029891 -0.001132
0.103223 -0.683189 -0.333047
0.113147 -0.747801 -0.344977
0.123591 -0.815078 -0.354849
0.133699 -0.881362 -0.360961
0.145911 -0.961299 -0.369067
0.837218 -5.383460 -1.972247
0.903721 -5.822556 -1.980963
0.984847 -6.357580 -1.998128
1.081470 -6.987003 -2.018639
1.187222 -7.685696 -2.027783
1.317827 -8.538444 -2.039580
1.486217 -9.648705 -2.068114
1.703434 -11.081048 -2.105797
2.046431 -12.947861 -2.147514
2.440941 -15.456891 -2.193350
0.000084 -0.029891 -0.001132
3.676926 -23.377914 -2.201942
3.619683 -23.042377 -1.625889
0.000084 -0.029891 -0.001132
0.000084 -0.029891 -0.001132
0.000084 -0.029891 -0.001132
0.000084 -0.029891 -0.001132
0.000084 -0.029891 -0.001132
0.000084 -0.029891 -0.001132
0.000084 -0.029891 -0.001132
10.435489 -67.490913 7.994114
0.000084 -0.029891 -0.001132
10.472704 -67.977837 11.306730
0.000084 -0.029891 -0.001132
0.000072 -0.029780 -0.001127
0.000072 -0.029780 -0.001127
0.000072 -0.029780 -0.001127
0.096662 -0.666011 -0.324075
0.109279 -0.750118 -0.345830
0.118939 -0.815698 -0.354849
0.128101 -0.878391 -0.359420
0.140547 -0.962020 -0.369066
0.805463 -5.388227 -1.972263
0.869810 -5.823809 -1.979701
0.948116 -6.361128 -1.997551
1.040183 -6.993172 -2.018660
1.145432 -7.707612 -2.031856
1.268773 -8.555612 -2.041911
1.430247 -9.653104 -2.067313
1.635173 -11.059434 -2.099912
1.970683 -12.965510 -2.148530
2.346738 -15.453367 -2.190901
2.885089 -19.037876 -2.242588
3.498765 -23.137333 -2.177362
3.458707 -22.901573 -1.614560
3.657743 -24.277021 -1.140335
3.658565 -24.313219 -0.566951
3.644536 -24.279461 0.003188
3.628563 -24.232615 0.571376
3.627298 -24.254932 1.145495
0.000072 -0.029780 -0.001127
0.000072 -0.029780 -0.001127
9.973702 -67.056633 7.935480
0.000072 -0.029780 -0.001127
0.000072 -0.029780 -0.001127
0.000072 -0.029780 -0.001127
0.000082 -0.029689 -0.001124
0.000082 -0.029689 -0.001124
0.000082 -0.029689 -0.001124
0.092333 -0.661133 -0.321382
0.104882 -0.748854 -0.344975
0.115083 -0.819873 -0.356474
0.123098 -0.877169 -0.358648
0.135442 -0.964547 -0.369793
0.775271 -5.390669 -1.971594
0.837249 -5.834229 -1.981637
0.911940 -6.368272 -1.998166
1.001301 -6.998755 -2.018680
1.100677 -7.710145 -2.030868
1.222002 -8.568238 -2.043319
1.374289 -9.657206 -2.066513
1.568360 -11.045222 -2.095510
1.899331 -12.982072 -2.149544
2.259759 -15.460232 -2.190117
2.802784 -19.216717 -2.261873
3.521048 -24.194866 -2.275163
0.000082 -0.029689 -0.001124
0.000082 -0.029689 -0.001124
0.000082 -0.029689 -0.001124
0.000082 -0.029689 -0.001124
0.000082 -0.029689 -0.001124
0.000082 -0.029689 -0.001124
10.724909 -74.684174 5.285866
3.446583 -24.082109 2.269989
0.000082 -0.029689 -0.001124
0.000082 -0.029689 -0.001124
9.631521 -67.683449 11.238091
0.000082 -0.029689 -0.001124
0.000070 -0.029577 -0.001119
0.000070 -0.029577 -0.001119
0.000070 -0.029577 -0.001119
0.073810 -0.555349 -0.267556
0.100999 -0.751144 -0.345829
0.110397 -0.820443 -0.356474
0.118982 -0.883245 -0.360959
0.131343 -0.974442 -0.373428
0.743972 -5.398778 -1.972977
0.803311 -5.835097 -1.980374
0.875432 -6.373298 -1.998184
0.960480 -7.008277 -2.019804
1.059087 -7.735411 -2.035953
1.172925 -8.586786 -2.046111
1.317165 -9.665067 -2.066544
1.501666 -11.044464 -2.093694
1.825298 -12.996583 -2.150233
2.168776 -15.477186 -2.190726
2.691766 -19.228495 -2.261475
3.308280 -23.688047 -2.225731
3.473549 -24.935448 -1.755281
0.000070 -0.029577 -0.001119
0.000070 -0.029577 -0.001119
12.496288 -90.230103 0.014268
10.248093 -74.103622 1.747676
0.000070 -0.029577 -0.001119
0.000070 -0.029577 -0.001119
3.285485 -23.967876 2.257249
0.000070 -0.029577 -0.001119
9.463163 -69.261467 9.831236
9.214196 -67.621986 11.218375
0.000070 -0.029577 -0.001119
0.000078 -0.029489 -0.001116
0.000078 -0.029489 -0.001116
0.000078 -0.029489 -0.001116
0.062121 -0.491883 -0.235258
0.096952 -0.753416 -0.346683
0.105098 -0.815510 -0.354032
0.114170 -0.885672 -0.361730
0.124751 -0.967707 -0.370519
0.713064 -5.402874 -1.972992
0.768381 -5.835905 -1.979112
0.837795 -6.378266 -1.998202
0.919797 -7.009772 -2.018723
1.015131 -7.754871 -2.039520
1.124412 -8.599080 -2.047519
1.261697 -9.672396 -2.066575
1.438004 -11.050886 -2.093360
1.748358 -13.007059 -2.150275
2.078232 -15.477507 -2.189107
2.577876 -19.244022 -2.261541
3.205953 -23.991364 -2.252518
3.333840 -24.982594 -1.757313
0.000078 -0.029489 -0.001116
0.000078 -0.029489 -0.001116
0.000078 -0.029489 -0.001116
9.782967 -73.968742 1.742831
9.736505 -73.822464 3.482292
0.000078 -0.029489 -0.001116
3.142468 -23.946804 2.253447
0.000078 -0.029489 -0.001116
9.055074 -69.242073 9.820685
8.861814 -67.955627 11.264877
0.000078 -0.029489 -0.001116
0.000089 -0.029398 -0.001113
0.000089 -0.029398 -0.001113
0.000089 -0.029398 -0.001113
0.061284 -0.506320 -0.242433
0.093246 -0.757451 -0.348393
0.099510 -0.808764 -0.350778
0.109239 -0.886213 -0.361729
0.119343 -0.968304 -0.370518
0.680468 -5.401293 -1.970956
0.735665 -5.845768 -1.981049
0.802197 -6.390456 -2.000603
0.878138 -7.013080 -2.018193
0.971374 -7.766239 -2.041062
1.074559 -8.613229 -2.049391
1.203029 -9.667940 -2.064111
1.371652 -11.051312 -2.091917
1.674648 -13.024631 -2.151613
1.986606 -15.489469 -2.189160
2.453830 -19.153986 -2.249327
3.056872 -23.922405 -2.244438
3.182272 -24.974100 -1.755450
0.000089 -0.029398 -0.001113
0.000089 -0.029398 -0.001113
0.000089 -0.029398 -0.001113
0.000089 -0.029398 -0.001113
0.000089 -0.029398 -0.001113
0.000089 -0.029398 -0.001113
3.029074 -24.192148 2.274767
0.000089 -0.029398 -0.001113
0.000089 -0.029398 -0.001113
8.484959 -68.216469 11.299364
0.000089 -0.029398 -0.001113
0.000077 -0.029286 -0.001109
0.000077 -0.029286 -0.001109
0.054054 -0.469267 -0.236713
0.057807 -0.501257 -0.239740
0.088378 -0.752472 -0.345824
0.097459 -0.829187 -0.359723
0.103700 -0.883068 -0.360186
0.114621 -0.974438 -0.372700
0.650225 -5.410624 -1.973023
0.701264 -5.842269 -1.978505
0.765122 -6.391080 -1.999431
0.837719 -7.016019 -2.017664
0.927290 -7.775438 -2.042098
1.026276 -8.628813 -2.051721
1.151530 -9.693821 -2.068296
1.309869 -11.056718 -2.091579
1.598049 -13.038153 -2.152304
1.899516 -15.516259 -2.191434
2.341829 -19.179922 -2.250782
2.889359 -23.728498 -2.224676
3.037215 -24.980024 -1.754699
3.640052 -30.022621 -1.405276
0.000077 -0.029286 -0.001109
9.435602 -78.135422 0.011359
0.000077 -0.029286 -0.001109
0.000077 -0.029286 -0.001109
8.478770 -70.754158 4.991178
0.000077 -0.029286 -0.001109
0.000077 -0.029286 -0.001109
0.000077 -0.029286 -0.001109
8.119440 -68.390091 11.320232
0.000077 -0.029286 -0.001109
0.000087 -0.029195 -0.001106
0.000087 -0.029195 -0.001106
0.000087 -0.029195 -0.001106
0.055174 -0.501472 -0.239738
0.084232 -0.752887 -0.345824
0.092578 -0.825994 -0.358096
0.098940 -0.883538 -0.360186
0.104464 -0.934240 -0.356700
0.104574 -0.936622 -0.333407
0.668877 -5.855514 -1.981722
0.727852 -6.389588 -1.997664
0.797834 -7.012834 -2.015479
0.882899 -7.782451 -2.042626
0.979579 -8.645898 -2.054510
1.096776 -9.707965 -2.069988
1.247928 -11.077640 -2.094204
1.526338 -13.054602 -2.153640
1.815349 -15.546177 -2.194263
2.236067 -19.202454 -2.252001
2.756137 -23.736240 -2.224011
2.964171 -25.567255 -1.794870
3.467310 -29.996696 -1.403237
0.000087 -0.029195 -0.001106
0.000087 -0.029195 -0.001106
8.538448 -74.418312 1.748938
8.387452 -73.336220 3.451244
0.000087 -0.029195 -0.001106
0.000087 -0.029195 -0.001106
0.000087 -0.029195 -0.001106
7.869506 -69.482338 9.833346
0.000087 -0.029195 -0.001106
0.000087 -0.029195 -0.001106
0.000075 -0.029084 -0.001101
0.000075 -0.029084 -0.001101
0.000075 -0.029084 -0.001101
0.052051 -0.498117 -0.237940
0.080446 -0.756831 -0.347533
0.088447 -0.831870 -0.360534
0.094017 -0.883991 -0.360185
0.096833 -0.912517 -0.347974
0.000075 -0.029084 -0.001101
0.635126 -5.857275 -1.981098
0.691630 -6.397345 -1.998872
0.756810 -7.021146 -2.016601
0.838883 -7.793067 -2.044168
0.929305 -8.659195 -2.056381
1.041026 -9.729750 -2.073343
1.181769 -11.078890 -2.093130
1.449385 -13.045416 -2.150766
1.724625 -15.568385 -2.195983
2.127867 -19.234638 -2.254380
2.614398 -23.704090 -2.219637
0.000075 -0.029084 -0.001101
8.353153 -76.055008 -3.556188
8.337278 -76.163597 -1.767657
0.000075 -0.029084 -0.001101
0.000075 -0.029084 -0.001101
8.030764 -73.984978 3.479316
8.144359 -75.284050 5.303459
0.000075 -0.029084 -0.001101
2.561193 -23.816141 2.800347
0.000075 -0.029084 -0.001101
7.256112 -67.881660 11.220778
0.000075 -0.029084 -0.001101
0.000083 -0.028995 -0.001098
0.000083 -0.028995 -0.001098
0.047366 -0.478610 -0.241399
0.049260 -0.498309 -0.237938
0.076444 -0.758981 -0.348387
0.084393 -0.837719 -0.362973
0.088754 -0.882591 -0.359413
0.089631 -0.892568 -0.339974
0.090097 -0.900187 -0.319730
0.602732 -5.872034 -1.984954
0.654001 -6.391634 -1.995914
0.716168 -7.021460 -2.015520
0.794583 -7.801518 -2.045203
0.880202 -8.670092 -2.057789
0.987859 -9.745030 -2.075449
1.120267 -11.087143 -2.093532
1.370510 -13.037958 -2.148216
1.635768 -15.583839 -2.196866
2.015598 -19.262621 -2.256297
2.464020 -23.623987 -2.210812
3.220533 -30.924067 -2.168558
0.000083 -0.028995 -0.001098
0.000083 -0.028995 -0.001098
8.159489 -79.000595 0.010665
7.730695 -75.115486 1.762581
0.000083 -0.028995 -0.001098
0.000083 -0.028995 -0.001098
7.611618 -74.494896 6.993568
2.418224 -23.771120 2.793290
0.000083 -0.028995 -0.001098
0.000083 -0.028995 -0.001098
0.000083 -0.028995 -0.001098
0.000073 -0.028881 -0.001093
0.000073 -0.028881 -0.001093
0.044330 -0.473490 -0.238581
0.046997 -0.502038 -0.239730
0.073128 -0.768299 -0.352662
0.079905 -0.839896 -0.363784
0.082554 -0.868290 -0.353249
0.082665 -0.872574 -0.331974
0.083256 -0.881882 -0.312892
0.085068 -0.902082 -0.297396
0.618471 -6.406584 -1.999504
0.676271 -7.029178 -2.016642
0.749278 -7.800078 -2.043708
0.831386 -8.684595 -2.060119
0.930778 -9.756447 -2.076725
1.055051 -11.097405 -2.094308
1.294556 -13.011910 -2.142749
1.547403 -15.604728 -2.198585
1.907637 -19.267527 -2.255662
2.325270 -23.565939 -2.204211
3.046965 -30.985666 -2.171723
0.000073 -0.028881 -0.001093
0.000073 -0.028881 -0.001093
0.000073 -0.028881 -0.001093
0.000073 -0.028881 -0.001093
0.000073 -0.028881 -0.001093
0.000073 -0.028881 -0.001093
0.000073 -0.028881 -0.001093
2.287810 -23.849806 2.800888
2.261840 -23.669062 3.339972
6.377290 -66.938972 11.051567
0.000073 -0.028881 -0.001093
0.000081 -0.028792 -0.001090
0.000081 -0.028792 -0.001090
0.000081 -0.028792 -0.001090
0.045186 -0.512885 -0.245111
0.068589 -0.766833 -0.351807
0.074902 -0.836606 -0.362157
0.076724 -0.859470 -0.349395
0.076114 -0.856240 -0.325427
0.076461 -0.861661 -0.305370
0.078162 -0.883600 -0.290995
0.579937 -6.402413 -1.997140
0.637021 -7.044347 -2.019969
0.702481 -7.796565 -2.041706
0.783651 -8.712390 -2.065674
0.877059 -9.786874 -2.082157
0.991338 -11.103193 -2.094342
1.216072 -13.003532 -2.140198
1.457356 -15.609312 -2.198077
1.795366 -19.298178 -2.258043
2.197062 -23.702143 -2.215790
2.877033 -31.091982 -2.178090
0.000081 -0.028792 -0.001090
0.000081 -0.028792 -0.001090
0.000081 -0.028792 -0.001090
0.000081 -0.028792 -0.001090
0.000081 -0.028792 -0.001090
6.813030 -75.073418 5.278793
0.000081 -0.028792 -0.001090
0.000081 -0.028792 -0.001090
2.124161 -23.663857 3.337388
0.000081 -0.028792 -0.001090
0.000081 -0.028792 -0.001090
0.000072 -0.028678 -0.001086
0.000072 -0.028678 -0.001086
0.038978 -0.472018 -0.237638
0.041478 -0.502366 -0.239727
0.064488 -0.768908 -0.352660
0.070262 -0.836930 -0.362156
0.071140 -0.850595 -0.345540
0.069767 -0.838016 -0.318155
0.070224 -0.845144 -0.299215
0.072595 -0.876379 -0.288434
0.543254 -6.405550 -1.997159
0.596634 -7.047793 -2.019989
0.658093 -7.804235 -2.042741
0.732519 -8.703082 -2.062475
0.820711 -9.789699 -2.081771
0.824455 -9.876639 -1.861624
1.139810 -12.992506 -2.137322
1.365747 -15.595627 -2.195067
1.686844 -19.335777 -2.261347
1.845531 -21.240370 -1.984537
2.698890 -31.115864 -2.178748
0.000072 -0.028678 -0.001086
0.000072 -0.028678 -0.001086
0.000072 -0.028678 -0.001086
0.000072 -0.028678 -0.001086
0.000072 -0.028678 -0.001086
0.000072 -0.028678 -0.001086
0.000072 -0.028678 -0.001086
0.000072 -0.028678 -0.001086
1.981789 -23.600594 3.326725
0.000072 -0.028678 -0.001086
0.000072 -0.028678 -0.001086
0.000080 -0.028590 -0.001083
0.000080 -0.028590 -0.001083
0.000080 -0.028590 -0.001083
0.038894 -0.504275 -0.240622
0.059799 -0.763769 -0.350094
0.064286 -0.822658 -0.355649
0.065516 -0.839847 -0.340915
0.064057 -0.825291 -0.313063
0.063582 -0.822953 -0.291009
0.065755 -0.852123 -0.280113
0.506987 -6.414165 -1.998962
0.554843 -7.049173 -2.019458
0.612865 -7.801991 -2.041245
0.000080 -0.028590 -0.001083
0.000080 -0.028590 -0.001083
0.000080 -0.028590 -0.001083
1.065031 -12.996788 -2.137039
1.271326 -15.577691 -2.191503
1.576671 -19.356941 -2.262799
1.721163 -21.222742 -1.982008
2.522703 -31.232634 -2.185954
1.783061 -22.134830 -1.032335
0.000080 -0.028590 -0.001083
0.000080 -0.028590 -0.001083
6.129763 -76.897545 1.799628
0.000080 -0.028590 -0.001083
0.000080 -0.028590 -0.001083
0.000080 -0.028590 -0.001083
0.000080 -0.028590 -0.001083
1.837662 -23.556547 3.318846
1.835107 -23.633436 3.891998
0.000080 -0.028590 -0.001083
0.000070 -0.028476 -0.001078
0.000070 -0.028476 -0.001078
0.000070 -0.028476 -0.001078
0.036864 -0.515071 -0.246001
0.055428 -0.762195 -0.349237
0.059440 -0.819270 -0.354022
0.059197 -0.819882 -0.332438
0.058361 -0.810682 -0.307244
0.058301 -0.813820 -0.287587
0.060169 -0.841041 -0.276272
0.470656 -6.422591 -2.000767
0.514287 -7.050231 -2.018927
0.567416 -7.795638 -2.038736
0.631816 -8.720544 -2.064831
0.707029 -9.780722 -2.078089
0.000070 -0.028476 -0.001078
0.988251 -13.004726 -2.137403
1.178216 -15.537251 -2.184878
1.465181 -19.407455 -2.267728
1.593520 -21.206663 -1.979666
2.123868 -28.325871 -1.981636
1.649869 -22.117025 -1.031108
1.645612 -22.115374 -0.512381
0.000070 -0.028476 -0.001078
0.000070 -0.028476 -0.001078
0.000070 -0.028476 -0.001078
5.572343 -76.123734 5.344291
0.000070 -0.028476 -0.001078
0.000070 -0.028476 -0.001078
1.697367 -23.499487 3.309299
1.691425 -23.477875 3.864666
0.000070 -0.028476 -0.001078
0.000078 -0.028387 -0.001075
0.000078 -0.028387 -0.001075
0.031944 -0.481138 -0.242325
0.034655 -0.522308 -0.249588
0.051201 -0.762397 -0.349235
0.054390 -0.812210 -0.350768
0.053251 -0.798005 -0.323190
0.052585 -0.792319 -0.299971
0.052894 -0.800927 -0.282801
0.000078 -0.028387 -0.001075
0.434863 -6.440310 -2.005547
0.473869 -7.052969 -2.018946
0.522575 -7.796741 -2.038252
0.582682 -8.737516 -2.068082
0.648795 -9.778779 -2.076871
0.651924 -9.879381 -1.859861
0.000078 -0.028387 -0.001075
1.087828 -15.527860 -2.182701
1.358391 -19.435032 -2.270104
1.473919 -21.195253 -1.977876
1.538953 -22.244968 -1.555460
1.523674 -22.083923 -1.029224
1.515172 -22.076500 -0.511343
1.508161 -22.090893 0.001754
1.973746 -28.981283 0.676397
5.486503 -80.941971 3.791290
5.300511 -78.618805 5.517074
0.000078 -0.028387 -0.001075
0.000078 -0.028387 -0.001075
1.566083 -23.566092 3.317303
0.000078 -0.028387 -0.001075
0.000078 -0.028387 -0.001075
0.000069 -0.028273 -0.001070
0.000069 -0.028273 -0.001070
0.029710 -0.488262 -0.246077
0.032647 -0.536681 -0.256764
0.046962 -0.764390 -0.350089
0.049166 -0.801450 -0.345886
0.048100 -0.788990 -0.319335
0.047224 -0.779488 -0.294878
0.048803 -0.806753 -0.284851
0.050325 -0.835821 -0.274350
0.054180 -0.902974 -0.274411
0.433541 -7.057387 -2.019516
0.476482 -7.799577 -2.038274
0.532778 -8.744495 -2.069028
0.592544 -9.780290 -2.076484
0.598053 -9.929944 -1.868771
0.000069 -0.028273 -0.001070
0.640160 -9.967978 -1.399624
1.243783 -19.450560 -2.271092
1.350389 -21.235302 -1.980912
1.408281 -22.209545 -1.552466
0.000069 -0.028273 -0.001070
1.381270 -22.035107 -0.510259
0.000069 -0.028273 -0.001070
0.000069 -0.028273 -0.001070
0.000069 -0.028273 -0.001070
0.000069 -0.028273 -0.001070
0.000069 -0.028273 -0.001070
4.546542 -74.633461 8.748986
0.000069 -0.028273 -0.001070
1.413385 -23.430849 3.853809
0.000069 -0.028273 -0.001070
0.000077 -0.028185 -0.001067
0.000077 -0.028185 -0.001067
0.030048 -0.539437 -0.273297
0.029810 -0.538528 -0.257658
0.042955 -0.766340 -0.350943
0.044609 -0.799794 -0.345072
0.042774 -0.772576 -0.312398
0.043039 -0.779651 -0.294877
0.044311 -0.806904 -0.284849
0.045815 -0.835987 -0.274349
0.048553 -0.889824 -0.270242
0.392653 -7.051985 -2.017332
0.432784 -7.796217 -2.036776
0.482817 -8.751198 -2.069975
0.544042 -9.890784 -2.099370
0.613856 -11.230244 -2.113414
0.000077 -0.028185 -0.001067
0.907707 -15.511443 -2.178901
1.133602 -19.485056 -2.274397
1.277478 -22.091530 -2.060205
1.278187 -22.175358 -1.549612
0.000077 -0.028185 -0.001067
1.257174 -22.020403 -0.509818
0.000077 -0.028185 -0.001067
0.000077 -0.028185 -0.001067
0.000077 -0.028185 -0.001067
4.884545 -87.423325 6.130361
0.000077 -0.028185 -0.001067
0.000077 -0.028185 -0.001067
4.421355 -80.445854 11.327856
1.279527 -23.379171 3.844002
0.000077 -0.028185 -0.001067
0.000085 -0.028096 -0.001064
0.000085 -0.028096 -0.001064
0.029175 -0.576549 -0.293010
0.026772 -0.535016 -0.255861
0.038422 -0.761062 -0.348375
0.039327 -0.783530 -0.337752
0.037661 -0.754266 -0.304690
0.038610 -0.777916 -0.294148
0.039827 -0.807048 -0.284848
0.041261 -0.838030 -0.274988
0.042145 -0.861383 -0.261308
0.352692 -7.063613 -2.020106
0.389128 -7.819728 -2.042367
0.432804 -8.757619 -2.070922
0.486412 -9.911309 -2.103139
0.548966 -11.265007 -2.119370
0.692495 -13.041230 -2.140476
0.817236 -15.490608 -2.175334
1.024798 -19.487013 -2.273993
1.191032 -22.800194 -2.125770
1.160737 -22.375507 -1.563190
1.130884 -21.879187 -1.018837
1.126075 -21.939322 -0.507855
0.000085 -0.028096 -0.001064
0.000085 -0.028096 -0.001064
0.000085 -0.028096 -0.001064
4.598182 -91.773857 6.433331
0.000085 -0.028096 -0.001064
0.000085 -0.028096 -0.001064
0.000085 -0.028096 -0.001064
1.137858 -23.321203 3.833221
0.000085 -0.028096 -0.001064
0.000075 -0.027982 -0.001059
0.000075 -0.027982 -0.001059
0.026254 -0.583671 -0.296763
0.024271 -0.545782 -0.261243
0.033240 -0.743119 -0.339820
0.033791 -0.758082 -0.326365
0.033016 -0.746997 -0.301606
0.033903 -0.772439 -0.291964
0.035250 -0.805278 -0.284162
0.036464 -0.838166 -0.274988
0.037453 -0.867231 -0.263093
0.312114 -7.063505 -2.019574
0.341557 -7.790867 -2.034289
0.382286 -8.754017 -2.069564
0.430464 -9.935351 -2.107740
0.486048 -11.309093 -2.127174
0.616155 -13.062748 -2.143432
0.727377 -15.477127 -2.172877
0.909748 -19.500563 -2.274980
1.092388 -23.592489 -2.199136
1.005333 -21.801752 -1.522729
0.000075 -0.027982 -0.001059
0.993852 -21.895575 -0.506770
0.000075 -0.027982 -0.001059
0.000075 -0.027982 -0.001059
0.000075 -0.027982 -0.001059
0.000075 -0.027982 -0.001059
0.000075 -0.027982 -0.001059
0.000075 -0.027982 -0.001059
0.000075 -0.027982 -0.001059
0.996833 -23.165615 3.806542
0.000075 -0.027982 -0.001059
0.000083 -0.027893 -0.001056
0.000083 -0.027893 -0.001056
0.023705 -0.599582 -0.305209
0.021502 -0.551166 -0.263932
0.029115 -0.743189 -0.339818
0.029017 -0.747209 -0.321484
0.028731 -0.743391 -0.300064
0.029929 -0.779983 -0.294873
0.030639 -0.805370 -0.284161
0.031929 -0.842028 -0.276265
0.032839 -0.873051 -0.264878
0.269941 -7.053596 -2.016288
0.296940 -7.794522 -2.034816
0.330541 -8.756032 -2.069589
0.371476 -9.931747 -2.106522
0.420601 -11.350956 -2.134609
0.542274 -13.093579 -2.148007
0.635670 -15.479080 -2.172646
0.797745 -19.507362 -2.275272
0.986471 -24.330503 -2.267495
0.874661 -21.769327 -1.520150
0.872365 -21.812851 -1.015349
0.865915 -21.848879 -0.505635
0.858524 -21.861019 0.001378
0.000083 -0.027893 -0.001056
0.000083 -0.027893 -0.001056
0.000083 -0.027893 -0.001056
0.000083 -0.027893 -0.001056
0.876034 -23.163233 2.708981
0.868584 -23.187475 3.258714
0.000083 -0.027893 -0.001056
0.858531 -23.258541 4.381466
0.000071 -0.027782 -0.001052
0.000071 -0.027782 -0.001052
0.018928 -0.560772 -0.284554
0.017963 -0.538678 -0.257649
0.024374 -0.725180 -0.331262
0.024448 -0.734492 -0.315790
0.024418 -0.741595 -0.299291
0.025331 -0.772579 -0.291962
0.026181 -0.805450 -0.284161
0.027133 -0.838326 -0.274985
0.027913 -0.871217 -0.264282
0.229690 -7.060692 -2.017960
0.252110 -7.792134 -2.033825
0.280372 -8.759640 -2.070075
0.316063 -9.929639 -2.105717
0.357585 -11.358909 -2.135751
0.465903 -13.128012 -2.153231
0.547089 -15.492286 -2.174084
0.682714 -19.525549 -2.276955
0.851165 -24.590559 -2.291324
0.852187 -24.752878 -1.728325
0.741731 -21.775600 -1.013465
0.000071 -0.027782 -0.001052
0.000071 -0.027782 -0.001052
0.000071 -0.027782 -0.001052
0.000071 -0.027782 -0.001052
0.000071 -0.027782 -0.001052
0.000071 -0.027782 -0.001052
0.742170 -23.145962 2.706352
0.731949 -23.087082 3.243880
0.000071 -0.027782 -0.001052
0.000071 -0.027782 -0.001052
0.000082 -0.027691 -0.001049
0.000082 -0.027691 -0.001049
0.016551 -0.580204 -0.294880
0.015650 -0.556551 -0.266620
0.020203 -0.719785 -0.328694
0.020438 -0.732676 -0.314974
0.020437 -0.741620 -0.299290
0.020999 -0.770757 -0.291234
0.021831 -0.805475 -0.284159
0.022415 -0.836473 -0.274344
0.022898 -0.865536 -0.262494
0.190650 -7.069453 -2.020183
0.207374 -7.791427 -2.033341
0.231523 -8.757056 -2.069176
0.259176 -9.935105 -2.106577
0.292714 -11.374420 -2.138374
0.393615 -13.157919 -2.157805
0.461295 -15.512793 -2.176631
0.574532 -19.550791 -2.279562
0.743917 -25.621929 -2.387153
0.650377 -22.547447 -1.574052
0.619434 -21.747341 -1.012042
0.000082 -0.027691 -0.001049
0.637251 -22.808781 0.001346
0.000082 -0.027691 -0.001049
0.000082 -0.027691 -0.001049
0.000082 -0.027691 -0.001049
0.000082 -0.027691 -0.001049
0.000082 -0.027691 -0.001049
0.611803 -23.417393 3.289772
0.000082 -0.027691 -0.001049
0.000082 -0.027691 -0.001049
0.000070 -0.027579 -0.001044
0.000070 -0.027579 -0.001044
0.013310 -0.578407 -0.293938
0.012342 -0.545800 -0.261234
0.016209 -0.719779 -0.328692
0.016207 -0.730852 -0.314159
0.016366 -0.743469 -0.300059
0.016767 -0.772630 -0.291960
0.017136 -0.801730 -0.282790
0.017793 -0.838372 -0.274982
0.018214 -0.871296 -0.264281
0.148357 -7.045361 -2.013038
0.162635 -7.790436 -2.032854
0.179548 -8.748435 -2.066896
0.200505 -9.940278 -2.107438
0.225477 -11.377836 -2.138779
0.318793 -13.191423 -2.163027
0.369665 -15.523087 -2.177792
0.461456 -19.523876 -2.276144
0.587384 -25.229525 -2.350302
0.514820 -22.463051 -1.567993
0.000070 -0.027579 -0.001044
0.485334 -21.694363 -0.501998
0.501437 -22.780048 0.001273
0.000070 -0.027579 -0.001044
0.000070 -0.027579 -0.001044
0.000070 -0.027579 -0.001044
0.477636 -23.022532 2.147086
0.474075 -23.057467 2.695051
0.467140 -23.125490 3.248196
0.000070 -0.027579 -0.001044
0.000070 -0.027579 -0.001044
0.000080 -0.027488 -0.001041
0.000080 -0.027488 -0.001041
0.010367 -0.596036 -0.303324
0.009330 -0.549335 -0.263026
0.012049 -0.716155 -0.326980
0.012041 -0.730835 -0.314158
0.012193 -0.747155 -0.301600
0.012379 -0.774478 -0.292686
0.012548 -0.801721 -0.282789
0.012951 -0.836466 -0.274341
0.013143 -0.867463 -0.263088
0.106500 -7.030627 -2.008648
0.116686 -7.796964 -2.034395
0.127945 -8.757025 -2.068764
0.141697 -9.939237 -2.107051
0.158219 -11.382798 -2.139552
0.241335 -13.226514 -2.168574
0.278325 -15.556569 -2.182288
0.345087 -19.484446 -2.271337
0.444108 -25.588844 -2.383600
0.380841 -22.411722 -1.564299
0.363626 -21.635048 -1.006691
0.000080 -0.027488 -0.001041
0.000080 -0.027488 -0.001041
0.346238 -21.774807 0.506075
0.000080 -0.027488 -0.001041
0.000080 -0.027488 -0.001041
0.340585 -22.979063 2.142738
0.337299 -23.045876 2.693352
0.329427 -23.076269 3.240882
0.000080 -0.027488 -0.001041
0.000080 -0.027488 -0.001041
0.000068 -0.027377 -0.001036
0.000068 -0.027377 -0.001036
0.007016 -0.588930 -0.299567
0.006315 -0.547499 -0.262128
0.007997 -0.708873 -0.323556
0.008166 -0.734455 -0.315784
0.007963 -0.739721 -0.298515
0.008055 -0.772567 -0.291957
0.008312 -0.811058 -0.286206
0.008279 -0.834532 -0.273700
0.008347 -0.871237 -0.264278
0.067256 -7.015615 -2.004256
0.071830 -7.781928 -2.030366
0.079153 -8.749712 -2.066944
0.086323 -9.933892 -2.105830
0.094944 -11.397136 -2.142174
0.165793 -13.261128 -2.174122
0.191850 -15.573611 -2.184557
0.232320 -19.420456 -2.263747
0.296664 -25.562988 -2.381078
0.255855 -22.407415 -1.563947
0.238795 -21.594721 -1.004802
0.000068 -0.027377 -0.001036
0.227559 -21.646194 0.001026
0.221064 -21.774355 0.505962
0.000068 -0.027377 -0.001036
0.220326 -22.934223 1.603028
0.212073 -22.934706 2.138394
0.204889 -23.055281 2.694213
0.000068 -0.027377 -0.001036
0.000068 -0.027377 -0.001036
0.000068 -0.027377 -0.001036
0.000079 -0.027285 -0.001033
0.000079 -0.027285 -0.001033
0.003786 -0.588858 -0.299565
0.003366 -0.556353 -0.266611
0.004155 -0.723265 -0.330398
0.003972 -0.736206 -0.316595
0.003860 -0.739649 -0.298513
0.003765 -0.772498 -0.291955
0.003652 -0.805366 -0.284154
0.003641 -0.836362 -0.274338
0.003494 -0.871178 -0.264277
0.025810 -7.013866 -2.003724
0.027159 -7.770501 -2.027349
0.027433 -8.753807 -2.067890
0.027574 -9.934119 -2.105858
0.027537 -11.405248 -2.143687
0.089757 -13.281493 -2.177400
0.099970 -15.623881 -2.191557
0.120501 -19.389576 -2.260096
0.149219 -25.484509 -2.373731
0.118967 -21.648308 -1.510932
0.114454 -21.557667 -1.003099
0.106805 -21.579252 -0.499420
0.000079 -0.027285 -0.001033
0.097361 -22.109060 0.513682
0.091990 -22.744318 1.060456
0.084342 -22.891157 1.599883
0.075922 -22.839891 2.129397
0.072333 -23.046062 2.692982
0.000079 -0.027285 -0.001033
0.000079 -0.027285 -0.001033
0.000079 -0.027285 -0.001033
0.000067 -0.027174 -0.001029
0.000067 -0.027174 -0.001029
0.000467 -0.617021 -0.314583
0.000227 -0.536602 -0.256740
0.000161 -0.714151 -0.326120
-0.000109 -0.737939 -0.317406
-0.000372 -0.741397 -0.299282
-0.000514 -0.772418 -0.291955
-0.000834 -0.805266 -0.284152
-0.001003 -0.832485 -0.273058
-0.001363 -0.871080 -0.264276
-0.014395 -7.009947 -2.002640
-0.017395 -7.760736 -2.024837
-0.022793 -8.759568 -2.069297
-0.027741 -9.939877 -2.107131
-0.035962 -11.405119 -2.143718
0.011146 -13.271811 -2.175818
0.010239 -15.665692 -2.197444
0.005668 -19.385855 -2.259689
-0.001727 -25.502775 -2.375480
-0.005468 -21.618599 -1.508906
-0.013209 -21.555882 -1.003072
-0.017198 -21.539425 -0.498559
-0.026031 -22.467169 0.000970
0.000067 -0.027174 -0.001029
-0.038925 -22.836260 1.064683
-0.047167 -22.847258 1.596744
-0.051577 -22.929489 2.137699
0.000067 -0.027174 -0.001029
0.000067 -0.027174 -0.001029
0.000067 -0.027174 -0.001029
0.000067 -0.027174 -0.001029
0.000077 -0.027083 -0.001026
-0.063994 -13.577302 -7.612925
-0.002798 -0.609839 -0.310825
-0.002697 -0.552587 -0.264813
-0.003836 -0.721271 -0.329540
-0.004151 -0.728689 -0.313338
-0.004380 -0.744976 -0.300822
-0.004819 -0.772280 -0.291952
-0.005305 -0.805154 -0.284151
-0.005661 -0.834252 -0.273696
-0.006205 -0.869048 -0.263679
-0.054497 -7.000041 -1.999903
-0.061915 -7.762341 -2.025363
-0.072950 -8.745549 -2.066093
-0.086496 -9.935505 -2.106327
-0.103486 -11.410497 -2.144861
-0.062781 -13.273532 -2.176179
-0.078630 -15.443568 -2.166334
-0.102382 -19.387461 -2.259976
-0.117831 -20.888329 -1.945491
-0.136439 -22.733368 -1.586861
-0.133382 -21.559359 -1.003319
-0.140845 -21.514879 -0.498068
-0.159921 -23.152533 0.000963
-0.161821 -22.814318 0.529999
-0.169803 -22.783627 1.062189
-0.178143 -22.800627 1.593464
-0.188501 -23.064081 2.150275
0.000077 -0.027083 -0.001026
0.000077 -0.027083 -0.001026
0.000077 -0.027083 -0.001026
0.000077 -0.027083 -0.001026
0.000065 -0.026971 -0.001021
0.000065 -0.026971 -0.001021
-0.006163 -0.602665 -0.307070
-0.005686 -0.539937 -0.258529
-0.008035 -0.728366 -0.332961
-0.008198 -0.730392 -0.314150
-0.008617 -0.742991 -0.300050
-0.009257 -0.774009 -0.292678
-0.009801 -0.806896 -0.284834
-0.010430 -0.832199 -0.273054
-0.011278 -0.874622 -0.265465
-0.094553 -6.993738 -1.998268
-0.107607 -7.748178 -2.021839
-0.122913 -8.729305 -2.062428
-0.143507 -9.934760 -2.106355
-0.168932 -11.405690 -2.144152
-0.141413 -13.280719 -2.177514
-0.166654 -15.377390 -2.157197
0.000065 -0.026971 -0.001021
-0.241122 -20.851309 -1.942212
-0.358315 -30.480679 -2.128149
-0.261785 -21.618025 -1.006174
-0.268549 -21.535542 -0.498640
-0.301406 -23.813076 0.000950
-0.300482 -23.084768 0.536266
-0.304401 -22.756140 1.060908
-0.309340 -22.809101 1.594095
0.000065 -0.026971 -0.001021
0.000065 -0.026971 -0.001021
0.000065 -0.026971 -0.001021
0.000065 -0.026971 -0.001021
0.000065 -0.026971 -0.001021
0.000073 -0.026883 -0.001018
0.000073 -0.026883 -0.001018
-0.010051 -0.636045 -0.324903
-0.008559 -0.536238 -0.256734
-0.011987 -0.722776 -0.330392
-0.012248 -0.730231 -0.314149
-0.012623 -0.737309 -0.297737
-0.013530 -0.771971 -0.291949
-0.014231 -0.802956 -0.283464
-0.015167 -0.837710 -0.274973
-0.016042 -0.868719 -0.263677
-0.134616 -6.991045 -1.997734
-0.151972 -7.743454 -2.020846
-0.173115 -8.734186 -2.063834
-0.200532 -9.933660 -2.106382
-0.234546 -11.410310 -2.145293
-0.217851 -13.289450 -2.179171
-0.255536 -15.407746 -2.161691
-0.262396 -15.485758 -1.805077
-0.360631 -20.829554 -1.940416
-0.382770 -21.872290 -1.527070
0.000073 -0.026883 -0.001018
-0.393394 -21.591513 -0.500043
0.000073 -0.026883 -0.001018
0.000073 -0.026883 -0.001018
-0.439180 -22.961660 1.070547
0.000073 -0.026883 -0.001018
0.000073 -0.026883 -0.001018
0.000073 -0.026883 -0.001018
0.000073 -0.026883 -0.001018
0.000073 -0.026883 -0.001018
0.000073 -0.026883 -0.001018
0.000064 -0.026769 -0.001013
0.000064 -0.026769 -0.001013
-0.012832 -0.604115 -0.308004
-0.011575 -0.539654 -0.258526
-0.015871 -0.717166 -0.327823
-0.016215 -0.726389 -0.312520
-0.016755 -0.738967 -0.298506
-0.017758 -0.769934 -0.291221
-0.018747 -0.804636 -0.284147
-0.019739 -0.833726 -0.273692
-0.020940 -0.870416 -0.264271
-0.174653 -6.988125 -1.997200
-0.196333 -7.740409 -2.020360
-0.222909 -8.721285 -2.061092
-0.257908 -9.945919 -2.109318
-0.300167 -11.412590 -2.146065
-0.294148 -13.285881 -2.178883
-0.351624 -15.744511 -2.209306
-0.418954 -18.456951 -2.152127
-0.480715 -20.842960 -1.941961
-0.507930 -21.845690 -1.525461
-0.511292 -21.655302 -1.008251
-0.519560 -21.674746 -0.502095
0.000064 -0.026769 -0.001013
0.000064 -0.026769 -0.001013
-0.573055 -23.034550 1.074027
0.000064 -0.026769 -0.001013
0.000064 -0.026769 -0.001013
0.000064 -0.026769 -0.001013
0.000064 -0.026769 -0.001013
0.000064 -0.026769 -0.001013
0.000064 -0.026769 -0.001013
0.000071 -0.026680 -0.001010
0.000071 -0.026680 -0.001010
-0.016353 -0.610993 -0.311757
-0.014292 -0.530523 -0.254036
-0.020213 -0.729609 -0.333810
-0.020503 -0.735318 -0.316585
-0.020908 -0.740603 -0.299275
-0.022208 -0.775294 -0.293401
-0.022994 -0.796906 -0.281410
-0.024432 -0.835402 -0.274331
-0.025740 -0.868265 -0.263674
-0.215084 -6.998415 -2.000523
-0.240599 -7.735188 -2.019367
-0.272524 -8.706131 -2.057888
-0.314065 -9.914829 -2.103108
-0.365822 -11.414492 -2.146835
-0.370394 -13.281898 -2.178596
-0.446087 -15.884667 -2.229380
-0.524182 -18.424326 -2.148701
-0.600922 -20.853668 -1.943319
-0.633258 -21.834335 -1.524967
-0.638637 -21.749752 -1.012872
-0.647170 -21.773224 -0.504517
0.000071 -0.026680 -0.001010
0.000071 -0.026680 -0.001010
0.000071 -0.026680 -0.001010
0.000071 -0.026680 -0.001010
0.000071 -0.026680 -0.001010
0.000071 -0.026680 -0.001010
0.000071 -0.026680 -0.001010
0.000071 -0.026680 -0.001010
0.000071 -0.026680 -0.001010
0.000082 -0.026589 -0.001007
0.000082 -0.026589 -0.001007
-0.019850 -0.614300 -0.313632
-0.017175 -0.530347 -0.254035
-0.024381 -0.732993 -0.335520
-0.024897 -0.744219 -0.320651
-0.025016 -0.740372 -0.299274
-0.026327 -0.769458 -0.291217
-0.027496 -0.798532 -0.282092
-0.029097 -0.835135 -0.274329
-0.030662 -0.869902 -0.264268
-0.255415 -7.002719 -2.002194
-0.284955 -7.733577 -2.019387
-0.322480 -8.704305 -2.057910
-0.370823 -9.908846 -2.102303
-0.431287 -11.410126 -2.146496
-0.446804 -13.283392 -2.179281
-0.536274 -15.850061 -2.224973
-0.629573 -18.407011 -2.147130
-0.636516 -18.415783 -1.716339
0.000082 -0.026589 -0.001007
-0.767019 -21.841450 -1.017399
-0.776358 -21.882942 -0.507218
0.000082 -0.026589 -0.001007
0.000082 -0.026589 -0.001007
0.000082 -0.026589 -0.001007
0.000082 -0.026589 -0.001007
0.000082 -0.026589 -0.001007
0.000082 -0.026589 -0.001007
0.000082 -0.026589 -0.001007
0.000082 -0.026589 -0.001007
0.000082 -0.026589 -0.001007
0.000070 -0.026478 -0.001002
0.000070 -0.026478 -0.001002
-0.022804 -0.603496 -0.307998
-0.019581 -0.517628 -0.247751
-0.028805 -0.741783 -0.339796
-0.029528 -0.753085 -0.324716
-0.029294 -0.743784 -0.300812
-0.030674 -0.771064 -0.291943
-0.032067 -0.798263 -0.282091
-0.033819 -0.836755 -0.274969
-0.035679 -0.873422 -0.265458
-0.297666 -7.022123 -2.008276
-0.329480 -7.735561 -2.020419
-0.373599 -8.694358 -2.056089
-0.428656 -9.888767 -2.098588
-0.499214 -11.417078 -2.148378
-0.523099 -13.280494 -2.179317
-0.630110 -15.846486 -2.225018
-0.734872 -18.391069 -2.145791
-0.741535 -18.391813 -1.714534
-0.748029 -18.388458 -1.284805
-0.898861 -21.990265 -1.024623
-0.908735 -22.037832 -0.510982
-0.943296 -22.676846 0.000531
0.000070 -0.026478 -0.001002
0.000070 -0.026478 -0.001002
0.000070 -0.026478 -0.001002
0.000070 -0.026478 -0.001002
0.000070 -0.026478 -0.001002
0.000070 -0.026478 -0.001002
0.000070 -0.026478 -0.001002
0.000070 -0.026478 -0.001002
0.000078 -0.026389 -0.000999
0.000078 -0.026389 -0.000999
-0.023573 -0.545031 -0.277014
-0.022496 -0.517400 -0.247749
-0.033459 -0.750532 -0.344073
-0.034132 -0.761927 -0.328781
-0.034056 -0.754567 -0.305436
-0.035357 -0.776346 -0.294123
-0.036605 -0.799838 -0.282773
-0.038541 -0.834536 -0.274327
-0.041056 -0.880738 -0.267840
0.000078 -0.026389 -0.000999
-0.375652 -7.743036 -2.022971
-0.423291 -8.688068 -2.055189
-0.485599 -9.889948 -2.099446
-0.563790 -11.394283 -2.144706
-0.601596 -13.275078 -2.179030
-0.721316 -15.846463 -2.225619
-0.843042 -18.370396 -2.143988
-0.885266 -19.138914 -1.784763
-0.894016 -19.250690 -1.345488
-1.038808 -22.191999 -1.034363
-1.051223 -22.285604 -0.516925
-1.075441 -22.708895 0.000470
0.000078 -0.026389 -0.000999
0.000078 -0.026389 -0.000999
0.000078 -0.026389 -0.000999
0.000078 -0.026389 -0.000999
-1.498698 -30.584923 3.578862
0.000078 -0.026389 -0.000999
0.000078 -0.026389 -0.000999
0.000078 -0.026389 -0.000999
0.000068 -0.026275 -0.000995
0.000068 -0.026275 -0.000995
-0.025196 -0.518337 -0.262930
-0.024666 -0.504676 -0.241466
-0.037539 -0.748413 -0.343215
-0.039520 -0.783503 -0.338539
-0.038929 -0.767155 -0.310829
-0.039569 -0.774172 -0.293395
-0.041256 -0.803266 -0.284140
-0.043186 -0.834211 -0.274326
-0.046183 -0.884193 -0.269029
-0.378192 -7.017999 -2.008308
-0.419749 -7.734838 -2.021471
-0.473038 -8.683430 -2.054749
-0.541605 -9.873217 -2.096562
-0.627900 -11.367197 -2.140294
-0.678255 -13.279161 -2.180361
-0.812464 -15.843914 -2.225940
-0.969019 -18.759933 -2.190174
-1.039680 -19.986544 -1.864465
-1.053912 -20.187536 -1.411472
-1.520265 -28.908951 -1.347980
0.000068 -0.026275 -0.000995
0.000068 -0.026275 -0.000995
0.000068 -0.026275 -0.000995
0.000068 -0.026275 -0.000995
0.000068 -0.026275 -0.000995
0.000068 -0.026275 -0.000995
-1.672795 -30.543972 3.575057
0.000068 -0.026275 -0.000995
0.000068 -0.026275 -0.000995
0.000068 -0.026275 -0.000995
0.000076 -0.026186 -0.000992
0.000076 -0.026186 -0.000992
-0.026038 -0.484583 -0.245089
-0.027656 -0.509766 -0.244155
-0.041578 -0.748080 -0.343213
-0.044291 -0.790464 -0.341791
-0.043711 -0.777875 -0.315451
-0.044726 -0.790572 -0.299939
-0.045625 -0.801024 -0.283454
-0.048029 -0.839529 -0.276245
-0.051761 -0.897165 -0.273198
-0.418310 -7.013679 -2.007774
-0.463463 -7.743853 -2.024527
-0.524035 -8.699877 -2.059380
-0.598033 -9.865916 -2.095755
-0.693165 -11.363282 -2.140323
-0.752315 -13.277033 -2.180719
-0.903270 -15.834902 -2.225425
-1.120752 -19.577158 -2.286435
-1.203477 -20.888861 -1.949367
-1.230397 -21.222734 -1.484432
-1.461319 -25.120424 -1.171732
0.000076 -0.026186 -0.000992
0.000076 -0.026186 -0.000992
0.000076 -0.026186 -0.000992
0.000076 -0.026186 -0.000992
0.000076 -0.026186 -0.000992
0.000076 -0.026186 -0.000992
-1.843790 -30.545971 3.576368
0.000076 -0.026186 -0.000992
0.000076 -0.026186 -0.000992
0.000076 -0.026186 -0.000992
0.000067 -0.026072 -0.000987
0.000067 -0.026072 -0.000987
-0.027873 -0.470216 -0.237576
-0.029609 -0.495235 -0.236975
-0.045977 -0.749520 -0.344067
-0.049850 -0.808338 -0.349924
-0.049343 -0.795926 -0.323158
-0.050461 -0.808785 -0.307211
-0.050686 -0.810031 -0.286872
-0.052994 -0.840997 -0.276882
-0.057931 -0.911973 -0.277961
-0.458890 -7.016814 -2.009445
-0.509219 -7.740869 -2.024547
-0.574454 -8.704388 -2.061247
-0.654656 -9.862209 -2.095780
-0.757747 -11.349197 -2.138502
-0.831131 -13.276168 -2.181403
-0.994359 -15.831318 -2.225746
-1.238803 -19.603760 -2.290431
-1.384718 -21.785492 -2.033907
-1.410565 -22.127127 -1.548336
0.000067 -0.026072 -0.000987
0.000067 -0.026072 -0.000987
0.000067 -0.026072 -0.000987
0.000067 -0.026072 -0.000987
0.000067 -0.026072 -0.000987
0.000067 -0.026072 -0.000987
0.000067 -0.026072 -0.000987
-2.024085 -30.524490 3.575119
0.000067 -0.026072 -0.000987
0.000067 -0.026072 -0.000987
0.000067 -0.026072 -0.000987
0.000075 -0.025984 -0.000984
0.000075 -0.025984 -0.000984
