# This PCD file was generated using the MATLAB® pcwrite function
# from Computer Vision Toolbox®.
# .PCD v.7 - Point Cloud Data file format
VERSION .7
FIELDS x y z
SIZE 4 4 4
TYPE F F F
COUNT 1 1 1
WIDTH 1668
HEIGHT 1
VIEWPOINT 0 0 0 1 0 0 0
POINTS 1668
DATA ascii
0.513173 0.446077 -0.325234
2.962043 2.892167 -1.747974
3.165116 3.093065 -1.745427
3.393492 3.318977 -1.743540
3.639017 3.562962 -1.735291
3.919390 3.840224 -1.725159
4.250314 4.167433 -1.718304
4.579605 4.494250 -1.689696
5.003656 4.913507 -1.670001
5.541804 5.445671 -1.658167
6.239830 6.136126 -1.653691
6.718836 6.671350 -1.558901
7.287474 7.237040 -1.445037
9.778912 9.731368 -1.608758
12.065741 12.015104 -1.582988
15.623692 15.568020 -1.531835
20.453203 20.395298 -1.330349
28.397141 28.324934 -0.905071
28.573055 28.482944 0.027412
23.351822 23.259544 0.788218
23.083725 22.977341 1.542752
22.080559 21.962111 2.201708
43.172646 42.977821 5.731069
43.271561 43.064556 7.188397
-0.000102 -0.066793 -0.002829
43.413860 43.152412 10.108963
43.458965 43.185490 11.597143
0.408380 0.337721 -0.343133
0.422724 0.351679 -0.336446
0.472132 0.400434 -0.355366
0.494534 0.422306 -0.351384
0.492590 0.420080 -0.330020
0.521333 0.448339 -0.328474
2.983490 2.878544 -1.750245
3.189104 3.079599 -1.748290
3.412916 3.299516 -1.743497
3.659122 3.540110 -1.734605
3.946579 3.821036 -1.726893
4.262281 4.130877 -1.713303
4.613456 4.473928 -1.692163
5.030864 4.883363 -1.669482
5.569239 5.409695 -1.656856
-0.000094 -0.066705 -0.002825
6.713819 6.587039 -1.548490
7.343447 7.209044 -1.447718
9.843901 9.680310 -1.609791
12.189525 11.995317 -1.589659
15.733260 15.497615 -1.533585
20.420725 20.122093 -1.320205
28.316071 27.910238 -0.896874
28.494972 28.079222 0.027484
28.549671 28.115599 0.958956
21.920067 21.557796 1.456489
22.448420 22.072918 2.225939
22.247942 21.861475 2.935449
43.203861 42.489487 7.135602
-0.000094 -0.066705 -0.002825
43.300358 42.546162 10.025746
43.365761 42.583920 11.505079
0.409474 0.334262 -0.342106
0.422626 0.346907 -0.334480
0.468495 0.391637 -0.350669
0.503731 0.425805 -0.355855
0.499253 0.421143 -0.332573
0.562215 0.482459 -0.352014
3.001699 2.862745 -1.750975
3.200480 3.054817 -1.744620
3.433584 3.281235 -1.744138
3.681175 3.520440 -1.735199
3.971615 3.801054 -1.728033
4.282233 4.102373 -1.711602
4.643688 4.451456 -1.693623
5.067627 4.862606 -1.672178
5.604885 5.381752 -1.658033
6.285431 6.039475 -1.646904
6.695586 6.493177 -1.535499
7.399335 7.180647 -1.450399
9.906919 9.630570 -1.610828
11.444436 11.128508 -1.484119
15.852518 15.436241 -1.536301
20.409382 19.880075 -1.311814
28.209105 27.485680 -0.888156
28.404625 27.668949 0.027538
28.473833 27.719120 0.951320
21.931152 21.321192 1.449258
23.016851 22.373770 2.269776
22.293880 21.655342 2.925213
43.092255 41.893772 7.077634
-0.000108 -0.066596 -0.002820
43.212456 41.972931 9.949683
43.251156 41.984352 11.410758
0.408055 0.328418 -0.339040
0.427516 0.346981 -0.336429
0.477480 0.395168 -0.355348
0.503994 0.420507 -0.354053
0.513771 0.429654 -0.340252
-0.000100 -0.066507 -0.002817
3.011871 2.839127 -1.747091
3.226449 3.044205 -1.748937
3.452794 3.261545 -1.744095
3.704499 3.501929 -1.736432
3.992437 3.776924 -1.727391
4.297839 4.069776 -1.708251
4.669590 4.424792 -1.693566
5.094505 4.832132 -1.671658
5.638958 5.352237 -1.658795
6.316205 5.999241 -1.645723
6.685013 6.407968 -1.524448
7.462283 7.158712 -1.454466
9.969699 9.580420 -1.611866
-0.000100 -0.066507 -0.002817
-0.000100 -0.066507 -0.002817
20.581308 19.817940 -1.315248
22.426460 21.587061 -0.702495
28.357969 27.306522 0.027638
23.072916 22.191095 0.766295
-0.000100 -0.066507 -0.002817
22.573883 21.690027 2.213895
42.849407 41.205456 5.594111
42.999550 41.324177 7.023632
-0.000100 -0.066507 -0.002817
43.126511 41.408966 9.875238
43.165127 41.420181 11.325347
0.412873 0.328475 -0.341069
0.433735 0.348166 -0.339354
0.482754 0.394882 -0.357213
0.519807 0.429955 -0.363004
0.519237 0.429283 -0.341951
-0.000111 -0.066396 -0.002812
3.031720 2.823885 -1.748592
3.248336 3.029576 -1.751075
3.471100 3.239836 -1.743369
3.727718 3.483285 -1.737665
4.014492 3.753998 -1.727343
4.329241 4.050978 -1.710946
4.693960 4.396627 -1.693006
5.127690 4.805981 -1.672974
5.674301 5.323864 -1.659972
6.359564 5.971023 -1.647863
6.677662 6.324657 -1.514041
7.517870 7.126778 -1.456868
10.035337 9.529500 -1.613130
11.555730 10.976374 -1.481458
11.599153 11.014814 -1.111990
20.917034 19.904013 -1.328842
28.100529 26.754930 -0.874378
28.259268 26.889517 0.027683
22.797806 21.666344 0.753078
-0.000111 -0.066396 -0.002812
22.705364 21.558628 2.214437
42.777569 40.664406 5.554494
42.895988 40.751572 6.968683
-0.000111 -0.066396 -0.002812
43.026932 40.839245 9.798830
43.071171 40.855721 11.239185
0.416333 0.327434 -0.342080
0.432251 0.342233 -0.336411
0.473758 0.381370 -0.348765
0.526454 0.430850 -0.365681
0.526016 0.430122 -0.344503
-0.000103 -0.066307 -0.002808
3.049153 2.808299 -1.749326
3.260685 3.005819 -1.748132
3.492798 3.222505 -1.744692
3.748084 3.461886 -1.737620
4.035013 3.729644 -1.726701
4.348659 4.022167 -1.709246
4.713940 4.364339 -1.690932
5.158491 4.779169 -1.673835
5.707582 5.291591 -1.660318
6.399547 5.937364 -1.648894
6.657315 6.234491 -1.501382
7.580712 7.103936 -1.460933
10.093060 9.477558 -1.613712
12.579711 11.821454 -1.603835
16.195869 15.229043 -1.542929
21.007812 19.767893 -1.327337
28.026068 26.377466 -0.867027
28.195639 26.520756 0.027758
28.261049 26.575020 0.929574
-0.000103 -0.066307 -0.002808
23.071985 21.656090 2.238250
42.715199 40.124939 5.515820
42.806057 40.199249 6.916765
-0.000103 -0.066307 -0.002808
42.946545 40.280766 9.726336
43.010841 40.330051 11.163054
0.426200 0.332118 -0.348184
0.434669 0.339761 -0.336403
0.469949 0.372625 -0.344068
0.533313 0.431483 -0.368359
0.539533 0.436964 -0.351327
2.914464 2.650650 -1.773006
3.056681 2.781482 -1.743901
3.282930 2.990366 -1.750270
3.514421 3.205027 -1.746016
3.767550 3.438432 -1.736936
4.060248 3.708373 -1.727840
4.376357 4.001097 -1.710846
4.750048 4.345661 -1.694410
5.190579 4.753479 -1.675155
5.741193 5.261425 -1.661082
6.438303 5.904579 -1.649927
6.661391 6.164022 -1.493882
7.652235 7.088712 -1.466660
10.156730 9.424444 -1.614748
12.674729 11.769870 -1.606823
16.302563 15.153418 -1.544543
21.088505 19.609043 -1.324809
27.983461 26.025505 -0.860614
28.138962 26.163151 0.027837
28.200537 26.204004 0.922736
-0.000095 -0.066218 -0.002805
-0.000095 -0.066218 -0.002805
42.595833 39.553047 5.471313
42.712326 39.636448 6.863917
-0.000095 -0.066218 -0.002805
42.845421 39.724121 9.651860
42.893814 39.744106 11.071677
0.427219 0.328593 -0.347156
0.431858 0.332636 -0.332480
0.478975 0.375988 -0.348748
0.540111 0.432144 -0.371037
2.748425 2.467275 -1.768451
2.911221 2.616613 -1.761602
3.078450 2.768966 -1.746943
3.303208 2.974071 -1.751683
3.534579 3.186135 -1.746657
3.786255 3.415531 -1.736253
4.086128 3.688929 -1.729576
4.399673 3.975986 -1.710794
4.776779 4.319679 -1.694860
5.221086 4.726285 -1.676014
5.783287 5.239003 -1.664331
6.482696 5.876847 -1.652436
6.658010 6.089516 -1.485096
8.600960 7.883606 -1.639271
10.218457 9.372717 -1.615786
12.755799 11.709018 -1.608342
16.417732 15.085176 -1.546986
21.318867 19.595835 -1.331906
27.922901 25.670355 -0.853906
28.107046 25.832846 0.027940
28.154131 25.859905 0.916604
-0.000106 -0.066107 -0.002800
-0.000106 -0.066107 -0.002800
42.534363 39.041809 5.434851
42.649010 39.122597 6.817826
-0.000106 -0.066107 -0.002800
42.761139 39.190018 9.582264
42.818100 39.217621 10.994038
0.421869 0.319253 -0.341036
0.445741 0.340826 -0.341276
0.482801 0.374531 -0.349675
0.539011 0.425507 -0.368340
2.768301 2.456412 -1.771835
2.938779 2.611012 -1.768875
3.090630 2.747581 -1.744599
3.322034 2.956370 -1.752370
3.557413 3.169645 -1.748664
3.811845 3.398894 -1.738764
4.114739 3.671881 -1.732501
4.415751 3.944247 -1.707996
4.801933 4.292236 -1.694806
5.250017 4.697596 -1.676415
5.810831 5.203109 -1.663439
6.524088 5.846143 -1.654208
6.658357 6.019246 -1.477278
8.658262 7.844781 -1.641391
10.284352 9.324576 -1.617519
12.852760 11.662394 -1.611887
16.538553 15.021492 -1.549981
21.597023 19.623699 -1.341932
27.879864 25.335653 -0.847829
28.060436 25.492998 0.028024
28.101763 25.514521 0.910370
-0.000098 -0.066018 -0.002797
-0.000098 -0.066018 -0.002797
42.452194 38.517883 5.396320
42.532688 38.566730 6.764008
-0.000098 -0.066018 -0.002797
42.685284 38.670128 9.515590
42.727531 38.684109 10.913786
0.431733 0.323854 -0.347139
0.444198 0.334840 -0.338333
0.474827 0.362386 -0.342166
0.543167 0.423686 -0.369227
2.765310 2.424812 -1.760698
2.958201 2.597854 -1.771276
3.104025 2.727397 -1.743024
3.340751 2.938574 -1.753057
3.573185 3.146721 -1.747258
3.830298 3.375770 -1.738081
4.134750 3.646998 -1.731859
4.443048 3.922743 -1.709595
4.829827 4.267228 -1.695763
5.281699 4.671304 -1.677736
5.852696 5.180161 -1.666687
6.566782 5.816486 -1.656349
6.669828 5.959781 -1.472043
8.710985 7.801590 -1.642680
10.355901 9.281344 -1.620170
12.924476 11.592350 -1.612302
16.650282 14.948905 -1.552149
21.801992 19.582121 -1.347379
27.871069 25.035727 -0.842880
28.021263 25.163921 0.028114
28.074606 25.195999 0.905041
28.067976 25.174105 1.788575
-0.000109 -0.065907 -0.002792
42.365414 37.996212 5.357780
42.470516 38.066593 6.719536
-0.000109 -0.065907 -0.002792
42.591667 38.140556 9.445973
42.696659 38.210655 10.849889
0.431408 0.319161 -0.345094
0.439984 0.326580 -0.333433
0.483888 0.365617 -0.346845
0.545972 0.420659 -0.369217
2.786350 2.414988 -1.764936
2.953476 2.562135 -1.759063
3.128323 2.716962 -1.747604
3.355207 2.916928 -1.751568
3.602006 3.134331 -1.751994
3.858559 3.361321 -1.741871
4.163192 3.629600 -1.734784
4.473815 3.902817 -1.712293
4.854681 4.239480 -1.695709
5.314062 4.643902 -1.679054
5.892493 5.153265 -1.669107
6.577982 5.756734 -1.650376
6.698510 5.916151 -1.470680
8.769295 7.760477 -1.644797
10.416934 9.228315 -1.621212
12.997291 11.523204 -1.612902
16.758390 14.867281 -1.553762
21.929609 19.469742 -1.348067
27.798502 24.682261 -0.836098
27.985079 24.832588 0.028209
28.026783 24.862684 0.899130
28.041033 24.859619 1.777962
-0.000101 -0.065818 -0.002788
42.288048 37.476040 5.320183
42.353508 37.523617 6.667101
42.758076 37.858700 8.078003
42.499931 37.605961 9.376363
42.548519 37.638489 10.757343
0.427233 0.311003 -0.339992
0.448836 0.329844 -0.338314
0.485115 0.361670 -0.345899
0.550192 0.418691 -0.370103
2.805082 2.402128 -1.767465
2.971291 2.547633 -1.760652
3.139212 2.693619 -1.744489
3.372833 2.897108 -1.751528
3.614717 3.108707 -1.749223
3.877374 3.337255 -1.741187
4.185025 3.604974 -1.734736
4.496571 3.877131 -1.712243
4.881572 4.212010 -1.696159
5.341065 4.613365 -1.678996
5.929799 5.125819 -1.671115
6.559613 5.673576 -1.637404
6.742735 5.884282 -1.472541
8.821630 7.716537 -1.646088
10.489738 9.182281 -1.623862
13.082222 11.460524 -1.614787
16.881472 14.803691 -1.557034
22.200996 19.476797 -1.357348
27.751074 24.346752 -0.830030
27.940153 24.506145 0.028288
27.981850 24.527229 0.893272
28.005205 24.532160 1.766688
-0.000113 -0.065707 -0.002783
42.216000 36.979977 5.284624
42.306793 37.036156 6.625433
42.348675 37.062443 7.960556
42.416191 37.098095 9.310965
42.478569 37.129223 10.684145
0.435877 0.314300 -0.345076
0.448483 0.325050 -0.336350
0.490234 0.361289 -0.347765
0.539481 0.403881 -0.361135
2.806968 2.375366 -1.759747
2.982134 2.527018 -1.758182
3.157838 2.678034 -1.745993
3.394042 2.881435 -1.753668
3.640011 3.094144 -1.752595
3.899769 3.317479 -1.742422
4.203196 3.578433 -1.733502
4.511925 3.845001 -1.709446
4.910511 4.187751 -1.697622
5.369386 4.583935 -1.679399
5.965493 5.096848 -1.672709
6.544942 5.594718 -1.625537
6.778340 5.846803 -1.472791
8.869234 7.668385 -1.646548
10.556272 9.133620 -1.625826
13.158854 11.394322 -1.615941
16.984814 14.722139 -1.558515
22.171415 19.225552 -1.348522
27.682859 24.005720 -0.823574
27.884855 24.174488 0.028353
27.922150 24.191500 0.887158
27.947155 24.197800 1.754451
38.118313 33.018894 3.569490
-0.000104 -0.065618 -0.002780
42.217911 36.530621 6.578830
42.253326 36.550991 7.903298
42.357849 36.618305 9.252077
42.372417 36.607674 10.604599
0.440667 0.314130 -0.347106
0.452054 0.323697 -0.337320
0.489991 0.356272 -0.345880
0.544877 0.403209 -0.362916
2.822328 2.360486 -1.760568
2.987316 2.501578 -1.752466
3.172173 2.658728 -1.745189
3.408120 2.859539 -1.752179
3.656707 3.072037 -1.751872
3.913415 3.290167 -1.739825
4.234249 3.563002 -1.737615
4.541661 3.825348 -1.712145
4.936374 4.160803 -1.698074
5.400478 4.556881 -1.680719
6.017410 5.081626 -1.678858
6.537075 5.522573 -1.615516
6.822717 5.816838 -1.474978
8.921101 7.623789 -1.647839
10.615052 9.078025 -1.626638
11.256421 9.624305 -1.375748
17.080204 14.633389 -1.559307
22.507763 19.291859 -1.361929
27.664743 23.711884 -0.818691
27.825153 23.842989 0.028410
27.886820 23.880720 0.881904
27.905893 23.881859 1.743443
36.704559 31.423431 3.420328
36.833229 31.513687 4.565361
42.144222 36.044144 6.535260
42.171547 36.057354 7.849392
42.272915 36.121166 9.188291
42.319923 36.138401 10.539552
0.433668 0.303884 -0.339966
0.451612 0.318947 -0.335354
0.496453 0.356972 -0.348684
0.548924 0.401333 -0.363802
2.834870 2.343137 -1.759683
3.016405 2.495789 -1.760549
3.186390 2.639358 -1.744384
3.432001 2.846026 -1.755770
3.678128 3.052836 -1.753197
3.934108 3.268934 -1.740421
4.255058 3.538697 -1.737570
4.569057 3.802182 -1.713745
4.957646 4.129961 -1.697011
5.433755 4.529906 -1.682500
6.044820 5.043458 -1.677964
6.531029 5.450874 -1.605861
6.868478 5.787827 -1.477488
8.974084 7.577288 -1.649129
10.678075 9.025920 -1.628142
-0.000107 -0.065418 -0.002771
-0.000107 -0.065418 -0.002771
22.554840 19.107792 -1.357863
27.606052 23.386696 -0.812694
27.781939 23.521059 0.028487
27.809225 23.537504 0.875392
27.839085 23.547785 1.731004
36.505585 30.878952 3.384972
36.574635 30.917700 4.510801
42.061798 35.555889 6.490979
42.085674 35.553394 7.794371
42.189915 35.618847 9.124510
42.243919 35.654480 10.469661
0.446382 0.310270 -0.348107
0.455230 0.317472 -0.336325
0.493545 0.349569 -0.344926
0.539371 0.387804 -0.355731
2.847718 2.325244 -1.758796
3.028748 2.475611 -1.758892
3.222171 2.637146 -1.755117
3.453485 2.829335 -1.757910
3.695112 3.029883 -1.752474
3.953794 3.245676 -1.740377
4.280757 3.517181 -1.739306
4.594855 3.777616 -1.714794
4.982430 4.100606 -1.696958
5.462402 4.498973 -1.682901
-0.000099 -0.065330 -0.002768
6.515341 5.371855 -1.593998
6.909112 5.752190 -1.478706
9.025299 7.529172 -1.650141
10.743950 8.972799 -1.629873
11.359711 9.484669 -1.374412
17.294559 14.464690 -1.562675
22.663532 18.969990 -1.357359
25.142595 21.038662 -0.736482
27.715961 23.183800 0.028537
27.772488 23.224550 0.870136
27.807096 23.238693 1.720659
36.440620 30.454529 3.362459
36.473660 30.462654 4.476293
37.170616 31.037157 5.707655
42.028740 35.079674 7.745502
42.113026 35.127689 9.063004
42.144276 35.143841 10.393452
0.440595 0.301197 -0.341986
0.456078 0.313841 -0.335337
0.506798 0.355857 -0.352416
0.540595 0.383653 -0.354826
2.866985 2.313560 -1.762181
3.048510 2.463457 -1.762108
3.229144 2.611602 -1.750467
3.460047 2.801201 -1.752792
3.712324 3.009332 -1.752436
3.972785 3.222987 -1.740335
4.304235 3.495056 -1.740449
4.611778 3.748361 -1.713099
5.009324 4.074435 -1.697917
5.493783 4.473505 -1.684684
6.118309 4.986238 -1.681982
6.507674 5.304248 -1.584720
6.954597 5.722569 -1.481215
9.073621 7.483884 -1.651160
10.794252 8.909675 -1.629536
13.468555 11.125998 -1.621111
17.375357 14.368093 -1.562511
22.832644 18.889141 -1.360705
27.514978 22.761505 -0.801602
27.680532 22.892271 0.028609
27.716698 22.907528 0.864480
27.751509 22.921616 1.709251
36.402927 30.079014 3.343726
36.433273 30.084803 4.450939
37.007633 30.540503 5.655821
41.981499 34.644028 7.701360
42.036434 34.667191 9.005043
42.065842 34.669277 10.325029
0.450684 0.305304 -0.348091
0.456913 0.310197 -0.334352
0.496918 0.342952 -0.343970
0.550082 0.386309 -0.359296
2.876431 2.293703 -1.759587
3.061592 2.444836 -1.761263
3.247344 2.595439 -1.751971
3.462077 2.769549 -1.745497
3.729949 2.988046 -1.752396
3.996052 3.203776 -1.742210
4.327609 3.472759 -1.741592
4.636629 3.724305 -1.714151
5.037544 4.049340 -1.699379
5.521306 4.443171 -1.685087
6.115447 4.925086 -1.673225
6.500369 5.235780 -1.575440
6.996948 5.690071 -1.483081
9.126103 7.439198 -1.652731
10.861073 8.860142 -1.631732
13.548120 11.061069 -1.622820
17.445799 14.257843 -1.561242
22.986139 18.794298 -1.363137
27.461880 22.452045 -0.796023
27.638952 22.590696 0.028676
27.681383 22.610897 0.859542
27.707096 22.617359 1.698695
36.418293 29.740232 3.329664
36.439678 29.738571 4.431033
36.944759 30.132233 5.619894
41.872292 34.150043 7.645460
41.968121 34.206322 8.948397
42.006191 34.215412 10.262182
0.452804 0.302814 -0.348082
0.463121 0.310966 -0.337277
0.507483 0.346874 -0.349585
0.551269 0.382125 -0.358390
2.899803 2.285188 -1.765535
3.085920 2.435352 -1.766913
3.253996 2.569856 -1.747321
3.473979 2.746180 -1.743283
3.750391 2.969001 -1.753723
4.020690 3.185610 -1.744723
4.350865 3.450318 -1.742736
4.668839 3.706127 -1.717951
5.058122 4.017971 -1.698319
5.551706 4.415102 -1.686410
6.150151 4.894838 -1.674820
6.489446 5.165100 -1.565425
7.045261 5.662288 -1.486236
-0.000114 -0.065018 -0.002755
10.926133 8.808882 -1.633698
13.635111 11.001875 -1.625449
17.592987 14.210150 -1.566859
23.066343 18.639174 -1.361273
27.418560 22.154013 -0.790807
27.987980 22.608891 0.029188
27.631151 22.305370 0.854212
27.664759 22.318163 1.688420
36.457352 29.423592 3.317997
36.486687 29.428303 4.416371
36.947937 29.781900 5.594495
41.805023 33.695797 7.597955
-0.000114 -0.065018 -0.002755
41.901424 33.730080 10.189281
0.442819 0.290622 -0.338905
0.466641 0.309486 -0.338247
0.512605 0.346252 -0.351451
0.553829 0.379046 -0.358381
2.918930 2.273097 -1.768921
3.094568 2.413080 -1.763634
3.271989 2.553511 -1.748826
3.500289 2.734411 -1.748328
3.767775 2.947503 -1.753683
4.043779 3.166081 -1.746598
4.366550 3.421756 -1.740910
4.705489 3.691311 -1.723400
5.087600 3.993730 -1.700288
5.574358 4.380760 -1.685437
6.183187 4.863137 -1.676002
6.477925 5.094707 -1.555411
7.085802 5.627933 -1.487780
9.225761 7.345066 -1.655042
8.594131 6.833304 -1.279574
13.709441 10.932064 -1.626607
17.710648 14.137502 -1.569861
23.399656 18.687410 -1.374307
27.374289 21.858482 -0.785641
27.557497 21.998812 0.028808
27.589247 22.009949 0.849216
27.630836 22.028925 1.678802
36.532921 29.138645 3.309859
36.553123 29.135872 4.404330
36.987133 29.463499 5.574940
41.721542 33.233582 7.548200
-0.000105 -0.064929 -0.002751
41.826271 33.274063 10.124557
0.444870 0.288152 -0.338898
0.468786 0.306897 -0.338239
0.505273 0.335710 -0.344881
2.768326 2.127958 -1.771915
2.928075 2.253016 -1.766328
3.120658 2.403896 -1.770094
3.289894 2.537048 -1.750330
3.511954 2.710874 -1.746114
3.788527 2.927551 -1.755009
4.056350 3.138189 -1.744002
4.389552 3.399050 -1.742055
4.738238 3.671817 -1.727197
5.116946 3.969292 -1.702257
5.606725 4.352578 -1.687217
6.215383 4.828919 -1.676769
-0.000117 -0.064818 -0.002746
7.127708 5.594554 -1.489645
9.285034 7.302679 -1.657715
8.658573 6.803620 -1.283173
13.791238 10.867943 -1.628687
17.835207 14.064561 -1.573271
23.637167 18.655527 -1.381673
27.347902 21.580341 -0.781059
27.516834 21.699915 0.028876
27.551140 21.720701 0.844407
27.563139 21.716061 1.667282
36.638103 28.868433 3.304130
36.658390 28.865658 4.396612
37.059738 29.173948 5.560767
41.641430 32.767395 7.498731
-0.000117 -0.064818 -0.002746
41.747257 32.820019 10.059826
0.451019 0.288797 -0.341945
0.470972 0.304221 -0.338229
0.518771 0.341522 -0.352372
-0.000111 -0.064732 -0.002743
2.938917 2.233505 -1.764588
3.139139 2.389382 -1.772498
3.309625 2.521021 -1.752602
3.534218 2.694712 -1.748980
3.805686 2.905814 -1.754971
4.078262 3.116524 -1.745238
4.416033 3.377774 -1.744386
4.768776 3.651685 -1.730448
5.145355 3.942573 -1.703719
5.642808 4.328732 -1.690379
6.246514 4.795599 -1.677536
6.463269 4.960993 -1.537595
7.173566 5.562048 -1.492154
9.336637 7.256568 -1.659287
8.750765 6.792690 -1.290684
-0.000111 -0.064732 -0.002743
17.957066 13.993802 -1.576687
23.820127 18.571798 -1.385651
27.294603 21.276291 -0.775671
27.463575 21.402111 0.028920
27.497032 21.414289 0.839072
27.521725 21.419571 1.657283
20.898684 16.244707 1.875218
36.775585 28.616322 4.391129
37.163521 28.900013 5.550813
41.582855 32.334949 7.454844
-0.000111 -0.064732 -0.002743
41.702656 32.386074 10.002913
0.466657 0.296829 -0.352124
0.473089 0.301606 -0.338221
0.526689 0.342953 -0.356112
-0.000103 -0.064643 -0.002739
2.962127 2.224401 -1.770537
3.148875 2.368039 -1.770031
3.317162 2.496390 -1.748724
3.555957 2.678985 -1.751849
3.819747 2.881670 -1.753569
4.096494 3.093127 -1.745197
4.428195 3.346606 -1.741372
4.794641 3.627824 -1.732050
5.171399 3.915370 -1.704679
5.669552 4.297468 -1.690785
6.283688 4.766844 -1.679961
6.451552 4.892691 -1.527953
7.221424 5.532889 -1.495310
9.392705 7.213748 -1.661689
8.834048 6.776416 -1.297045
8.687503 6.658514 -1.017483
-0.000103 -0.064643 -0.002739
23.779987 18.320879 -1.376941
27.249250 20.989384 -0.770699
27.404612 21.103239 0.028959
36.901333 28.420015 1.122273
21.157961 16.256855 1.267947
20.973244 16.109617 1.873710
21.141655 16.228844 2.512171
37.298092 28.661484 5.546463
41.504990 31.892200 7.408149
-0.000103 -0.064643 -0.002739
41.625416 31.943129 9.940399
0.450958 0.280647 -0.338874
0.476584 0.300023 -0.339192
0.536043 0.345383 -0.360790
2.797631 2.073172 -1.766454
2.972358 2.205249 -1.768798
3.153069 2.341689 -1.764315
3.333312 2.478496 -1.749460
3.567223 2.655219 -1.749635
3.838635 2.860238 -1.754212
4.114594 3.069615 -1.745157
4.446253 3.320005 -1.740737
4.814937 3.598272 -1.731454
5.194213 3.885667 -1.704629
5.695297 4.263913 -1.690728
6.323129 4.737912 -1.682798
6.447960 4.829496 -1.520153
7.269183 5.503358 -1.498467
9.460856 7.177323 -1.666023
8.922188 6.762992 -1.304098
8.767180 6.639977 -1.022185
-0.000114 -0.064532 -0.002734
-0.000114 -0.064532 -0.002734
27.207857 20.708574 -0.765909
27.739531 21.100611 0.029454
21.504265 16.338352 0.650169
21.497789 16.322641 1.282863
21.165560 16.058819 1.882528
21.057251 15.965804 2.490979
37.456444 28.441616 5.545857
41.432064 31.446592 7.362020
-0.000114 -0.064532 -0.002734
41.561676 31.515240 9.881973
0.469469 0.290527 -0.351088
0.477350 0.296237 -0.338206
0.537049 0.341242 -0.359843
2.820244 2.064212 -1.772695
2.988275 2.190387 -1.770477
3.169785 2.325814 -1.765907
3.338012 2.451025 -1.744043
3.575380 2.629153 -1.745972
3.859915 2.841609 -1.756221
4.138630 3.050553 -1.747672
4.474814 3.301368 -1.744258
4.851295 3.582182 -1.736902
5.219951 3.858153 -1.705590
5.729460 4.238185 -1.693431
6.346701 4.700317 -1.681913
6.454733 4.778213 -1.515305
7.324101 5.476952 -1.502911
9.513433 7.131234 -1.667873
9.013227 6.748430 -1.311377
-0.000106 -0.064443 -0.002731
8.714347 6.516256 -0.756148
24.280218 18.258648 -1.392946
-0.000106 -0.064443 -0.002731
21.445766 16.104235 0.022233
21.299320 15.983258 0.641240
21.333227 16.004034 1.267658
21.141644 15.849243 1.872394
21.054100 15.778672 2.480274
37.616665 28.223284 5.545718
41.354649 31.013750 7.316710
-0.000106 -0.064443 -0.002731
41.494415 31.089138 9.823537
0.465923 0.283885 -0.347006
0.482135 0.295772 -0.340153
0.536476 0.336219 -0.357961
2.827778 2.045351 -1.769980
2.993945 2.167869 -1.766177
3.196682 2.317475 -1.773182
-0.000118 -0.064332 -0.002726
3.592318 2.609752 -1.746663
3.875060 2.818341 -1.755502
4.158017 3.027929 -1.748271
4.494102 3.275685 -1.744215
4.886095 3.564645 -1.741802
5.242439 3.828163 -1.705541
5.755686 4.206426 -1.693837
6.373267 4.661557 -1.681439
6.475432 4.734119 -1.513402
7.373878 5.450296 -1.506715
9.562623 7.082415 -1.669170
-0.000118 -0.064332 -0.002726
8.931520 6.604393 -1.032141
8.798452 6.500706 -0.760061
24.619097 18.299793 -1.406253
27.135708 20.163662 -0.756832
21.726118 16.120441 0.022639
22.685831 16.830379 0.680490
21.601616 16.012302 1.278300
37.456921 27.793863 3.305498
21.162043 15.664328 2.482153
37.823452 28.039562 5.552599
41.292725 30.597025 7.274756
-0.000118 -0.064332 -0.002726
41.426773 30.667212 9.765840
0.469376 0.282228 -0.348017
0.481457 0.290938 -0.338188
0.534567 0.330001 -0.355139
2.838798 2.027596 -1.769056
3.011505 2.153408 -1.768709
3.194148 2.287234 -1.764222
3.377138 2.420353 -1.749360
3.605108 2.586316 -1.745176
3.884013 2.790549 -1.752053
4.177795 3.004468 -1.748869
4.516914 3.251348 -1.745360
4.906913 3.536564 -1.741758
5.271667 3.801710 -1.707510
5.786458 4.177941 -1.695623
6.392465 4.619139 -1.679311
6.510871 4.702699 -1.515185
7.406449 5.406590 -1.506646
8.403727 6.141364 -1.460893
9.186956 6.715242 -1.325020
9.022195 6.589250 -1.037943
8.887477 6.487960 -0.764387
24.750067 18.170208 -1.407312
26.111938 19.160837 -0.724968
27.258329 19.998861 0.029196
22.534344 16.510866 0.673157
21.105804 15.449786 1.243608
20.985762 15.356978 1.843071
21.287497 15.568309 2.486465
21.238087 15.521685 3.103190
41.224174 30.179724 7.232236
-0.000109 -0.064243 -0.002722
41.357788 30.237558 9.707404
0.469968 0.278612 -0.346990
0.479275 0.285163 -0.335247
0.535412 0.325963 -0.354194
2.845005 2.007143 -1.765445
3.028603 2.139356 -1.771241
3.212048 2.272169 -1.766625
3.392884 2.402064 -1.750097
3.629340 2.572226 -1.749496
3.901895 2.769371 -1.752699
4.195400 2.980479 -1.748831
4.529725 3.220952 -1.742941
4.925982 3.507275 -1.741162
5.303231 3.778231 -1.710490
5.821814 4.152681 -1.698785
6.379698 4.553688 -1.668906
6.544563 4.669881 -1.516601
7.425062 5.354673 -1.504002
9.668232 6.989637 -1.673146
9.290036 6.709190 -1.334142
9.124709 6.584248 -1.045219
8.975032 6.473223 -0.768575
24.909492 18.067591 -1.410203
27.058119 19.618443 -0.747766
21.660208 15.687225 0.022720
21.899885 15.850903 0.651556
21.501842 15.551222 1.261852
21.124208 15.272365 1.847633
21.441574 15.492390 2.494154
21.665115 15.644116 3.152551
41.142574 29.757244 7.188026
-0.000121 -0.064132 -0.002717
41.305416 29.835464 9.654904
0.469080 0.274075 -0.344945
0.486865 0.286683 -0.339150
0.544810 0.328146 -0.358871
2.863781 1.996564 -1.769897
3.037918 2.120415 -1.769506
3.215065 2.246290 -1.760914
3.416009 2.389092 -1.754679
3.636433 2.546608 -1.745835
3.918136 2.746990 -1.752663
4.209760 2.954204 -1.747514
4.550100 3.196061 -1.743494
4.955844 3.485695 -1.744415
5.328405 3.750019 -1.711452
5.859370 4.127272 -1.702405
6.378313 4.495422 -1.661397
6.579685 4.637978 -1.518385
8.412507 6.003770 -1.696709
-0.000112 -0.064043 -0.002714
9.390546 6.702655 -1.343036
9.216618 6.572899 -1.051395
9.064322 6.458881 -0.772900
24.979357 17.899574 -1.408077
21.511240 15.400883 -0.592473
20.150578 14.412986 0.021017
21.424282 15.317737 0.634870
21.482580 15.349300 1.255663
21.529839 15.378543 1.875530
21.420679 15.289944 2.481570
21.319166 15.206965 3.089498
41.086777 29.346836 7.148025
-0.000112 -0.064043 -0.002714
41.227425 29.418964 9.597183
0.478135 0.276310 -0.350028
0.487588 0.282778 -0.338165
0.531289 0.313746 -0.348553
2.873384 1.977099 -1.768076
3.055245 2.105629 -1.772038
3.237633 2.233660 -1.765752
3.430497 2.368913 -1.754646
3.657944 2.529418 -1.748703
3.925534 2.717297 -1.748533
4.227067 2.930035 -1.747477
4.570358 3.171027 -1.744048
4.965807 3.448590 -1.740523
5.348687 3.718300 -1.710899
5.889743 4.098110 -1.704190
6.370080 4.436182 -1.652649
6.611444 4.603559 -1.519432
8.457418 5.958162 -1.698242
8.617156 6.070054 -1.478913
9.436517 6.648803 -1.343639
9.305655 6.551247 -1.056826
9.146745 6.436341 -0.776534
25.013748 17.700357 -1.403848
21.716692 15.354191 -0.595403
20.288260 14.330387 0.021253
-0.000124 -0.063932 -0.002709
22.112041 15.609036 1.287412
28.302229 19.983116 2.456172
21.680927 15.288479 2.501646
22.008198 15.509760 3.176571
41.030575 28.951038 7.109407
-0.000124 -0.063932 -0.002709
41.150829 29.007765 9.540577
0.477218 0.271747 -0.347984
0.489512 0.280157 -0.338157
0.530490 0.308852 -0.346670
2.887661 1.963200 -1.769841
3.048415 2.074641 -1.760907
3.250812 2.215096 -1.765722
3.439499 2.346647 -1.752309
3.671260 2.507388 -1.747943
3.932246 2.688303 -1.744404
4.248873 2.909052 -1.749353
4.593592 3.148076 -1.745788
4.984364 3.418972 -1.739930
5.371963 3.688670 -1.711358
5.921587 4.069825 -1.706435
6.358147 4.371572 -1.642659
6.648677 4.571136 -1.521583
8.503814 5.920066 -1.700752
-0.000115 -0.063843 -0.002706
11.770395 8.210590 -1.668597
9.405976 6.543980 -1.063920
9.249321 6.429562 -0.781959
25.266214 17.668505 -1.412225
26.946947 18.835312 -0.734945
19.709099 13.749748 0.020636
21.612961 15.079527 0.635614
22.264046 15.525165 1.291208
20.989557 14.622870 1.813655
22.181147 15.446138 2.548948
39.343769 27.438562 5.658200
40.971199 28.556839 7.070783
-0.000115 -0.063843 -0.002706
41.082161 28.606293 9.486567
0.483435 0.271963 -0.351031
0.492976 0.278343 -0.339127
0.542865 0.312841 -0.353223
2.898152 1.945145 -1.768917
3.066990 2.060763 -1.764293
3.259360 2.193359 -1.763257
3.449171 2.323181 -1.749969
3.686456 2.485676 -1.747910
3.952657 2.668951 -1.746416
4.266427 2.883920 -1.749314
4.617262 3.124166 -1.747527
5.007483 3.392540 -1.740984
5.394108 3.656873 -1.711309
-0.000107 -0.063754 -0.002702
-0.000107 -0.063754 -0.002702
6.683350 4.538472 -1.523369
8.548860 5.876429 -1.702610
8.771777 6.029463 -1.493140
11.833939 8.150959 -1.670566
9.428620 6.476859 -1.062000
9.340651 6.413847 -0.786422
25.456289 17.577684 -1.416756
21.722729 14.980114 -0.590369
19.830999 13.665810 0.020848
21.529720 14.831771 0.630717
22.178604 15.270285 1.281123
20.993311 14.446346 1.806895
39.772541 27.407385 4.554661
39.733334 27.361691 5.691087
40.898872 28.157553 7.030470
-0.000107 -0.063754 -0.002702
41.011913 28.197218 9.431819
0.478269 0.264399 -0.345932
0.490613 0.272653 -0.336184
0.533356 0.301829 -0.345717
2.909675 1.928544 -1.768891
3.081784 2.045767 -1.765974
3.276835 2.177758 -1.765663
3.467419 2.306541 -1.752245
3.699084 2.464139 -1.747152
3.963640 2.643114 -1.744333
4.282825 2.860171 -1.749278
4.636557 3.099546 -1.748082
5.025695 3.362702 -1.740391
5.416392 3.627918 -1.711769
5.957518 3.993951 -1.703120
-0.000119 -0.063643 -0.002697
6.720304 4.508961 -1.525893
8.591046 5.832820 -1.704151
8.857328 6.013737 -1.501636
11.897398 8.094077 -1.672769
14.701918 10.010190 -1.647785
-0.000119 -0.063643 -0.002697
25.727180 17.547276 -1.425944
26.868929 18.323164 -0.726596
-0.000119 -0.063643 -0.002697
23.064461 15.698196 0.673374
22.011444 14.973952 1.266739
20.811186 14.144278 1.784286
22.612076 15.368988 2.578588
22.362352 15.188170 3.189759
40.849499 27.777903 6.994637
-0.000119 -0.063643 -0.002697
40.941578 27.813093 9.380017
0.471537 0.256042 -0.339813
0.493924 0.270990 -0.337154
0.529524 0.294997 -0.341959
2.905935 1.902367 -1.759909
3.086386 2.023043 -1.761677
3.295724 2.163087 -1.768879
3.474478 2.283128 -1.749139
3.708944 2.439789 -1.744943
3.985392 2.624579 -1.747027
4.298002 2.834535 -1.748603
4.659441 3.076126 -1.749824
5.038956 3.329540 -1.738151
5.443976 3.601118 -1.713742
5.971075 3.953202 -1.700314
6.329842 4.191629 -1.616008
6.757085 4.475734 -1.528045
8.631971 5.790462 -1.705693
8.938073 5.993894 -1.509302
9.898246 6.642560 -1.386793
14.797488 9.954906 -1.652082
-0.000110 -0.063554 -0.002694
25.897881 17.452799 -1.429761
26.831823 18.072050 -0.722561
20.191549 13.574560 0.021410
23.208378 15.607387 0.675197
22.087669 14.840420 1.266343
21.299494 14.298751 1.819258
22.093847 14.824151 2.509492
40.516048 27.229258 5.759174
40.779026 27.387598 6.955714
-0.000110 -0.063554 -0.002694
40.889305 27.434511 9.331946
0.484879 0.260987 -0.347953
0.491546 0.265248 -0.334212
0.527229 0.289010 -0.339139
2.933896 1.896149 -1.769733
3.097207 2.003816 -1.760795
3.303939 2.141139 -1.766416
3.480643 2.257493 -1.745262
3.722153 2.416852 -1.744182
4.003937 2.603785 -1.748357
4.311958 2.807010 -1.747288
4.677977 3.048560 -1.749783
5.061603 3.302733 -1.739207
5.489776 3.584962 -1.721263
5.997328 3.921049 -1.701182
6.323244 4.134695 -1.608091
6.799467 4.447773 -1.531672
8.674746 5.744766 -1.707233
9.025457 5.977723 -1.518074
12.033432 7.985570 -1.678555
14.898029 9.894769 -1.656556
-0.000122 -0.063443 -0.002689
26.095978 17.362307 -1.434747
26.795832 17.817314 -0.718522
20.199808 13.411634 0.021486
22.908262 15.207875 0.663960
22.719313 15.071470 1.297639
21.350245 14.155005 1.816736
21.345341 14.141960 2.415218
40.700302 27.004015 5.762780
40.721947 27.009983 6.919587
-0.000122 -0.063443 -0.002689
40.828968 27.043779 9.281645
0.488160 0.259259 -0.348963
0.502180 0.268270 -0.340073
0.527787 0.285085 -0.338194
2.951106 1.883279 -1.773289
3.101496 1.981102 -1.756498
3.304744 2.113587 -1.759893
3.500104 2.241605 -1.748307
3.739481 2.397557 -1.745601
4.013394 2.575992 -1.745593
4.326808 2.781248 -1.746612
4.687823 3.016456 -1.746774
5.075048 3.268554 -1.736966
5.521996 3.560873 -1.724749
6.024093 3.887679 -1.702049
6.315303 4.075779 -1.599762
6.840905 4.417167 -1.534931
8.714595 5.699243 -1.708451
-0.000113 -0.063354 -0.002685
12.099438 7.929452 -1.681219
-0.000113 -0.063354 -0.002685
19.269945 12.648563 -1.593741
26.350937 17.314253 -1.443024
26.754702 17.568316 -0.714495
26.907211 17.656528 0.029602
26.978714 17.698030 0.779631
20.431112 13.378150 1.162389
40.891373 26.820091 3.468664
20.410721 13.346124 2.300467
40.637882 26.626574 5.732399
40.649956 26.615986 6.880663
-0.000113 -0.063354 -0.002685
40.775555 26.671570 9.234679
0.497283 0.261146 -0.354048
0.507047 0.267308 -0.342020
0.529845 0.282052 -0.338186
2.959585 1.863925 -1.771470
3.124176 1.969700 -1.762446
3.326395 2.100638 -1.764733
3.521450 2.225960 -1.752121
3.761819 2.380532 -1.749196
4.036403 2.558078 -1.748970
4.353136 2.761845 -1.750404
4.710820 2.991833 -1.748516
5.102202 3.244639 -1.739671
5.535283 3.522913 -1.722180
6.053262 3.857297 -1.703837
6.304504 4.017171 -1.591019
6.886375 4.390667 -1.539295
8.753574 5.650819 -1.709346
10.130556 6.547575 -1.690371
9.342500 6.029113 -1.293647
10.117872 6.530132 -1.117113
9.893692 6.382004 -0.816426
26.483652 17.177437 -1.444457
26.723013 17.321163 -0.710687
26.874607 17.414270 0.029645
26.919254 17.431084 0.775098
20.493685 13.245985 1.161599
22.127319 14.302357 1.868870
-0.000125 -0.063243 -0.002680
20.257660 13.070204 2.845335
40.595070 26.247038 6.845928
-0.000125 -0.063243 -0.002680
40.710629 26.285202 9.184738
0.480330 0.246262 -0.340801
0.507468 0.263544 -0.341034
2.821517 1.752335 -1.782332
2.957103 1.838263 -1.763385
3.132777 1.949849 -1.760711
3.344957 2.085517 -1.767951
3.531460 2.203778 -1.750553
3.771122 2.355936 -1.746988
4.051411 2.534939 -1.748935
4.366134 2.734820 -1.749091
4.728328 2.964789 -1.748478
5.122777 3.216380 -1.740179
5.550932 3.487990 -1.720621
6.080655 3.825648 -1.705166
6.294918 3.959860 -1.582692
6.920185 4.356350 -1.541083
8.781341 5.597251 -1.708311
9.299253 5.929220 -1.546041
12.233755 7.814661 -1.686776
10.215934 6.510710 -1.123649
9.907106 6.309978 -0.814422
26.555523 17.007595 -1.442798
26.686333 17.079672 -0.706889
26.867025 17.190268 0.029718
-0.000117 -0.063154 -0.002677
20.531256 13.103110 1.159565
20.118639 12.834400 1.692821
20.890631 13.319932 2.337400
20.341242 12.958852 2.846662
40.537312 25.879597 6.811185
-0.000117 -0.063154 -0.002677
40.643002 25.910831 9.135898
0.492266 0.250065 -0.347922
0.521136 0.268185 -0.348851
-0.000108 -0.063066 -0.002673
2.957429 1.814617 -1.757090
3.135155 1.926090 -1.755562
3.361900 2.069285 -1.770358
3.552259 2.188466 -1.754369
3.789702 2.337302 -1.749133
4.064703 2.510695 -1.748219
4.378966 2.707731 -1.747779
4.744058 2.936630 -1.747845
5.138324 3.184896 -1.739039
5.571270 3.456111 -1.720576
6.102930 3.790711 -1.705118
6.291488 3.906973 -1.576021
6.943842 4.315525 -1.540660
8.822085 5.552049 -1.709853
-0.000108 -0.063066 -0.002673
12.299016 7.757034 -1.689442
10.092223 6.349396 -1.105930
10.182782 6.404878 -0.833868
-0.000108 -0.063066 -0.002673
26.657900 16.845613 -0.703362
26.818909 16.942308 0.029741
21.675421 13.671220 0.619305
19.961926 12.576593 1.123349
20.337481 12.810270 1.705145
20.735067 13.052691 2.311638
20.347000 12.798141 2.837206
40.478329 25.514765 6.776718
-0.000108 -0.063066 -0.002673
40.597343 25.553856 9.092636
0.492596 0.246423 -0.346895
0.521546 0.264371 -0.347864
-0.000120 -0.062954 -0.002669
2.975767 1.802433 -1.761543
3.152677 1.911977 -1.758950
3.377204 2.051966 -1.771952
3.580801 2.177896 -1.762028
3.805030 2.316566 -1.749827
4.082641 2.489367 -1.749550
4.402872 2.687621 -1.750935
4.766097 2.912426 -1.749588
5.150385 3.151330 -1.736800
5.602923 3.431280 -1.724064
6.129955 3.758739 -1.706447
6.281001 3.850132 -1.567695
6.982272 4.283918 -1.543552
8.859272 5.504450 -1.710752
10.266640 6.386812 -1.694003
9.794594 6.085915 -1.341023
10.442752 6.488165 -1.140029
10.287454 6.388670 -0.839290
10.157591 6.302732 -0.549369
26.619181 16.607134 -0.699616
-0.000120 -0.062954 -0.002669
26.835838 16.725471 0.764794
20.576387 12.800476 1.153967
20.556709 12.784038 1.717470
20.651449 12.834080 2.294134
20.386965 12.659896 2.832670
40.413136 25.149387 6.741685
-0.000120 -0.062954 -0.002669
40.533920 25.188894 9.046018
0.494377 0.243676 -0.346888
0.527869 0.264224 -0.350790
-0.000111 -0.062866 -0.002665
2.984923 1.784464 -1.760621
3.162452 1.892969 -1.758069
3.383473 2.028172 -1.768677
3.590496 2.155437 -1.760460
3.817084 2.293753 -1.749071
4.104119 2.469167 -1.752246
4.415417 2.660361 -1.749624
4.781510 2.884071 -1.748956
5.169358 3.120854 -1.736758
5.626248 3.401116 -1.725030
6.152523 3.722432 -1.706399
6.282435 3.799609 -1.562266
7.021310 4.250812 -1.546442
8.896195 5.456619 -1.711652
10.289558 6.316554 -1.691437
10.863302 6.670094 -1.481652
10.576788 6.487850 -1.150424
-0.000111 -0.062866 -0.002665
10.251835 6.280005 -0.552391
26.595621 16.380180 -0.696319
-0.000111 -0.062866 -0.002665
21.199213 13.030226 0.601587
20.485176 12.580165 1.144878
20.725912 12.719609 1.725411
20.571600 12.615379 2.277008
20.738865 12.714333 2.871485
40.369648 24.791035 6.710020
-0.000111 -0.062866 -0.002665
40.470989 24.827608 9.000137
0.491782 0.238141 -0.343825
0.525331 0.258462 -0.347848
-0.000123 -0.062754 -0.002660
2.992762 1.764995 -1.758804
3.169031 1.872016 -1.755482
3.382966 2.001176 -1.762156
3.590980 2.126527 -1.754279
3.825801 2.268968 -1.746863
4.117010 2.444651 -1.751530
4.440716 2.640949 -1.753417
4.798388 2.856635 -1.748918
5.182660 3.088173 -1.735070
5.641113 3.365790 -1.723472
6.174193 3.687085 -1.706351
6.268767 3.743280 -1.553530
7.051992 4.215755 -1.547864
8.933811 5.406996 -1.712549
10.359876 6.278039 -1.696886
10.899632 6.603623 -1.481108
-0.000123 -0.062754 -0.002660
10.518769 6.363964 -0.851778
10.355756 6.259837 -0.555864
26.553270 16.143635 -0.692581
26.732283 16.241198 0.029873
21.363543 12.957470 0.604219
20.380161 12.354068 1.135121
20.983145 12.712261 1.740853
21.315563 12.910419 2.351542
-0.000123 -0.062754 -0.002660
40.315693 24.439056 6.677780
-0.000123 -0.062754 -0.002660
40.415325 24.473988 8.956487
0.494911 0.236401 -0.344835
0.524130 0.253818 -0.345885
2.868059 1.668240 -1.779400
3.004454 1.749293 -1.759676
3.183203 1.855741 -1.757163
3.391653 1.979899 -1.760506
3.599972 2.104671 -1.752713
3.843949 2.249913 -1.749009
4.134595 2.422973 -1.752862
4.444829 2.608628 -1.748915
4.815122 2.829073 -1.748882
5.197413 3.056437 -1.733932
5.659101 3.332381 -1.722925
6.200688 3.654607 -1.707682
6.269389 3.693102 -1.548102
7.092432 4.183051 -1.551125
8.969266 5.360234 -1.713452
10.409756 6.226628 -1.699020
10.938366 6.543828 -1.481261
10.815157 6.464711 -1.167903
10.639294 6.353924 -0.858435
10.483263 6.257768 -0.560709
26.519335 15.914341 -0.689110
26.712580 16.019112 0.029924
26.763601 16.044527 0.755234
20.591640 12.321109 1.143078
21.464985 12.836987 1.774844
20.697371 12.366663 2.275236
20.358335 12.159056 2.799359
40.248844 24.082407 6.643852
-0.000114 -0.062666 -0.002657
40.353577 24.119825 8.912087
0.507037 0.239721 -0.351957
0.530505 0.253473 -0.348811
2.864598 1.643198 -1.770941
3.012067 1.729747 -1.757859
3.199181 1.839727 -1.759697
3.408057 1.963275 -1.762913
3.614340 2.084356 -1.753452
3.859205 2.228139 -1.749704
4.148821 2.399268 -1.752829
4.468742 2.587181 -1.752070
4.830535 2.799620 -1.748250
5.213620 3.025609 -1.733343
5.675805 3.296914 -1.721872
6.220300 3.617990 -1.707176
6.262280 3.640127 -1.541022
-0.000126 -0.062554 -0.002652
9.013126 5.314152 -1.715639
10.462788 6.176884 -1.701707
12.615776 7.455320 -1.701856
-0.000126 -0.062554 -0.002652
-0.000126 -0.062554 -0.002652
10.606408 6.246672 -0.565184
26.493284 15.685402 -0.685816
26.670563 15.785545 0.029947
26.719376 15.802963 0.751498
20.771221 12.262103 1.149135
-0.000126 -0.062554 -0.002652
20.838764 12.289062 2.283085
21.489979 12.665773 2.944831
40.203083 23.741472 6.613843
-0.000126 -0.062554 -0.002652
40.311867 23.771133 8.871786
0.504319 0.234281 -0.348894
0.527789 0.247879 -0.345869
2.878948 1.629472 -1.773729
3.036223 1.720636 -1.765895
3.208529 1.820466 -1.758819
3.429128 1.949287 -1.767755
3.625062 2.062688 -1.752656
3.875542 2.207891 -1.751124
4.166180 2.377350 -1.754162
4.479013 2.558653 -1.750122
4.845278 2.770919 -1.747620
5.232969 2.996640 -1.733853
5.700060 3.267236 -1.723344
6.222878 3.571465 -1.702080
6.266582 3.594282 -1.536838
7.130629 4.095443 -1.548810
9.054116 5.268332 -1.717506
10.513901 6.125721 -1.704119
12.669091 7.388768 -1.703144
15.708540 9.169592 -1.683157
-0.000118 -0.062465 -0.002648
26.405807 15.439936 -1.398190
26.450663 15.454893 -0.682221
26.637104 15.559055 0.029979
26.701550 15.585363 0.748625
20.715948 12.068761 1.142324
20.692650 12.051064 1.699518
20.967930 12.203198 2.289617
21.566278 12.543995 2.945450
40.154728 23.401880 6.583831
-0.000118 -0.062465 -0.002648
40.234493 23.414005 8.825141
0.500054 0.228024 -0.344813
0.532582 0.246689 -0.347817
2.894742 1.616548 -1.777454
3.034053 1.696079 -1.758706
3.214617 1.799366 -1.756232
3.437828 1.927209 -1.766104
3.638811 2.042846 -1.753395
3.893369 2.188473 -1.753270
4.188709 2.357428 -1.757539
4.500595 2.536742 -1.752641
4.863149 2.744071 -1.748176
5.251012 2.965672 -1.733813
5.725814 3.238379 -1.725318
6.219012 3.520048 -1.695147
6.291534 3.559149 -1.537617
7.153458 4.052222 -1.548389
9.096591 5.223190 -1.719697
10.553811 6.065393 -1.704593
12.725512 7.323837 -1.704894
10.777451 6.188543 -1.151688
19.103140 11.009191 -1.523057
26.370119 15.215720 -1.391455
26.420124 15.233402 -0.678984
26.599413 15.325835 0.030008
26.664791 15.358476 0.745263
21.319878 12.258310 1.171911
21.144175 12.147728 1.730824
-0.000129 -0.062354 -0.002643
21.566216 12.378060 2.935751
40.133583 23.071445 6.558029
-0.000129 -0.062354 -0.002643
40.190094 23.079163 8.786312
0.504770 0.226853 -0.346843
0.519272 0.234951 -0.338032
2.883171 1.587198 -1.764310
3.042875 1.677289 -1.757786
3.236583 1.786685 -1.762182
3.457156 1.912042 -1.770135
3.659259 2.025923 -1.757211
3.901791 2.162696 -1.751063
4.210717 2.338065 -1.760916
4.515918 2.510137 -1.752606
4.879708 2.715298 -1.748139
5.268361 2.935518 -1.733775
5.733530 3.197773 -1.721745
6.207375 3.466031 -1.686381
6.320776 3.527829 -1.539640
7.180434 4.013044 -1.549074
9.139769 5.176141 -1.721886
10.597504 6.009586 -1.705902
12.782872 7.256275 -1.706642
10.772831 6.100905 -1.147202
-0.000124 -0.062268 -0.002640
26.333597 14.986861 -1.384625
26.397480 15.012153 -0.675921
26.567675 15.104194 0.030039
26.613352 15.118955 0.741467
21.274532 12.064509 1.165580
21.016485 11.913341 1.714820
21.457581 12.155592 2.327680
40.021687 22.708868 5.432080
40.050865 22.717783 6.523239
-0.000124 -0.062268 -0.002640
40.143753 22.736641 8.746741
0.506407 0.224061 -0.346835
0.522492 0.232923 -0.339002
2.900312 1.575033 -1.768973
3.051278 1.658985 -1.756867
3.242453 1.765475 -1.759596
3.466880 1.891324 -1.769297
3.669599 2.004042 -1.756414
3.919415 2.143058 -1.753211
4.226109 2.314820 -1.761568
4.532299 2.485156 -1.753210
4.883949 2.680750 -1.743947
5.287191 2.906214 -1.734285
5.750489 3.163907 -1.721199
6.193633 3.411314 -1.677157
6.351568 3.497249 -1.542078
7.193473 3.966018 -1.546814
9.181783 5.130390 -1.724077
10.646070 5.956410 -1.708039
12.833436 7.187574 -1.707705
-0.000115 -0.062179 -0.002636
19.112869 10.723135 -1.513594
26.294462 14.764542 -1.377896
26.368811 14.795326 -0.672823
26.529053 14.880489 0.030061
26.574804 14.895048 0.738147
21.234264 11.880268 1.159717
20.872889 11.673016 1.697678
21.971941 12.281642 2.375931
39.971924 22.377127 5.407962
39.980953 22.374563 6.490967
-0.000115 -0.062179 -0.002636
40.092560 22.403463 8.707528
0.508054 0.221236 -0.346828
0.533326 0.235105 -0.344861
2.917417 1.562714 -1.773636
3.067388 1.644986 -1.760425
3.260814 1.751303 -1.763839
3.468481 1.866126 -1.764402
3.686272 1.985693 -1.758693
3.933661 2.121495 -1.753906
4.239721 2.290576 -1.761537
4.548548 2.460058 -1.753816
4.906346 2.656412 -1.746287
5.304201 2.875844 -1.734248
5.770669 3.131800 -1.721663
6.198173 3.367266 -1.672981
6.385658 3.468321 -1.545343
-0.000127 -0.062068 -0.002631
9.220131 5.082390 -1.725624
10.694351 5.902900 -1.710174
10.724750 5.915348 -1.422878
16.038456 8.870157 -1.695394
19.146730 10.597541 -1.511271
26.271091 14.552884 -1.372080
26.340282 14.580294 -0.669773
26.488707 14.657751 0.030081
21.685614 11.979564 0.600061
22.088715 12.194130 1.202753
20.929611 11.546972 1.696965
21.927662 12.091367 2.363672
39.912716 22.042879 5.382901
39.922298 22.040562 6.460933
-0.000127 -0.062068 -0.002631
40.037155 22.070671 8.667938
0.521733 0.225053 -0.354966
0.536560 0.232968 -0.345832
2.923619 1.544322 -1.771739
3.074012 1.625709 -1.758610
3.263265 1.728275 -1.759545
3.482713 1.848027 -1.765998
3.698004 1.964557 -1.758666
3.947794 2.099832 -1.754603
4.246584 2.262659 -1.758777
4.562973 2.433965 -1.753783
4.915208 2.624580 -1.743878
5.315959 2.842619 -1.732563
5.785552 3.096807 -1.720614
6.199022 3.321378 -1.667890
6.412745 3.435364 -1.546955
-0.000118 -0.061979 -0.002628
9.261685 5.036030 -1.727816
10.709420 5.830873 -1.707065
12.931698 7.048247 -1.709601
16.117514 8.793180 -1.698225
19.244467 10.507484 -1.514029
26.240913 14.339090 -1.365995
26.301376 14.361292 -0.666504
26.464251 14.445562 0.030117
26.508455 14.458728 0.731934
22.064251 12.015101 1.197748
21.190323 11.532727 1.712829
22.056623 11.997554 2.370206
39.976513 21.778591 5.374716
39.937592 21.749763 6.443237
-0.000118 -0.061979 -0.002628
39.989590 21.744911 8.630578
0.517339 0.218845 -0.350887
0.518304 0.219170 -0.333113
2.923481 1.522549 -1.766094
3.082109 1.607257 -1.757691
3.278290 1.712155 -1.762083
3.503621 1.832675 -1.770840
3.704727 1.940735 -1.756332
3.961817 2.078072 -1.755300
4.268570 2.242016 -1.762156
4.575606 2.406866 -1.753113
4.942356 2.602705 -1.747999
5.333085 2.811170 -1.732524
5.801919 3.062665 -1.720068
6.186409 3.267154 -1.659125
6.435093 3.398321 -1.547323
8.159643 4.322262 -1.737369
9.299539 4.987473 -1.729364
10.784216 5.789108 -1.713344
12.975883 6.975724 -1.709975
16.185717 8.709884 -1.699957
19.371717 10.428469 -1.518981
26.202118 14.122334 -1.359549
26.271381 14.148920 -0.663505
26.431917 14.224782 0.030146
26.461386 14.235717 0.728508
21.540958 11.568200 1.165759
21.348234 11.455277 1.720196
22.148762 11.877987 2.372608
40.409245 21.714081 5.416237
40.393974 21.689135 6.496235
-0.000130 -0.061868 -0.002623
40.285725 21.606617 8.667704
0.522015 0.217516 -0.352915
0.513798 0.212915 -0.329194
2.949968 1.514456 -1.776378
3.101417 1.594113 -1.763040
3.288761 1.692799 -1.762058
3.518040 1.813683 -1.772438
3.719805 1.920567 -1.757843
3.976079 2.055546 -1.755996
4.282162 2.216778 -1.762125
4.590155 2.379824 -1.753078
4.949633 2.568994 -1.744995
5.351721 2.780516 -1.733035
5.822063 3.029225 -1.720532
6.169923 3.211378 -1.649443
6.462406 3.363895 -1.548932
8.199397 4.281283 -1.740258
9.341507 4.938874 -1.731556
10.836183 5.734523 -1.716032
13.026151 6.903467 -1.711037
16.262039 8.627021 -1.702420
19.440619 10.317301 -1.519403
26.171175 13.905712 -1.353462
26.251074 13.937511 -0.660722
26.401417 14.006793 0.030178
26.436289 14.020389 0.725667
26.473217 14.029140 1.428898
26.545183 14.056514 2.132973
40.899048 21.673834 4.369743
40.848095 21.639105 5.458003
40.809067 21.601559 6.542502
-0.000122 -0.061779 -0.002620
40.703396 21.521132 8.730165
0.508392 0.206575 -0.342725
0.527722 0.216560 -0.337009
2.958995 1.497574 -1.776356
3.101397 1.571362 -1.757644
3.304892 1.677912 -1.765449
3.526817 1.793313 -1.771600
3.734421 1.900969 -1.759353
3.989486 2.034302 -1.756694
4.298142 2.194706 -1.763460
