# This PCD file was generated using the MATLAB® pcwrite function
# from Computer Vision Toolbox®.
# .PCD v.7 - Point Cloud Data file format
VERSION .7
FIELDS x y z
SIZE 4 4 4
TYPE F F F
COUNT 1 1 1
WIDTH 1658
HEIGHT 1
VIEWPOINT 0 0 0 1 0 0 0
POINTS 1658
DATA ascii
-2.681308 0.607700 -0.946819
-2.736679 0.623387 -0.893004
-2.722290 0.620162 -0.817017
-2.718964 0.620379 -0.745761
-2.708504 0.618178 -0.673211
-2.699829 0.616957 -0.602894
-2.698972 0.617808 -0.535210
-2.696028 0.604998 -0.466724
-2.671063 0.599042 -0.396783
-2.682786 0.603163 -0.332503
-2.662214 0.598843 -0.265327
-2.665283 0.600204 -0.201153
-2.647468 0.596580 -0.136008
-14.038280 3.594689 -0.361643
0.003419 -0.099851 -0.004380
0.003419 -0.099851 -0.004380
-15.616446 4.025569 0.726535
-15.583457 4.020128 1.100496
-10.331546 2.636019 0.978058
-9.821541 2.504903 1.169952
0.003419 -0.099851 -0.004380
0.003419 -0.099851 -0.004380
-2.473937 0.559429 0.474933
-0.435037 0.017166 -0.274335
-0.451065 0.021618 -0.269543
-2.696889 0.621967 -1.495548
-2.665738 0.614732 -1.396480
-2.666290 0.615943 -1.317384
-2.673566 0.618967 -1.243085
-2.652388 0.613860 -1.157533
-2.643277 0.612480 -1.079037
-2.653682 0.616338 -1.010325
-2.677194 0.623244 -0.946823
-2.730626 0.638745 -0.892411
-2.719840 0.636928 -0.817575
-2.709174 0.634616 -0.744238
-2.706069 0.634846 -0.673681
-2.697407 0.633571 -0.603319
-2.698455 0.634943 -0.535961
-2.690015 0.620096 -0.466403
-2.666868 0.614977 -0.396789
-2.678687 0.618694 -0.332509
-2.663907 0.615803 -0.265898
-2.663015 0.616629 -0.201301
-2.647279 0.612958 -0.136204
0.003426 -0.099765 -0.004376
-15.520019 4.086454 -0.026747
-15.502011 4.084863 0.346135
-15.424657 4.070111 0.718622
-10.556906 2.758658 0.745343
-9.894180 2.583208 0.937946
0.003426 -0.099765 -0.004376
0.003426 -0.099765 -0.004376
-9.520319 2.491444 1.603078
-2.470108 0.573762 0.474929
-0.434333 0.019859 -0.274332
-0.445299 0.023037 -0.266594
-2.692571 0.638087 -1.495553
-2.664882 0.631576 -1.398287
-2.663733 0.632337 -1.318247
-2.667621 0.633978 -1.242274
-2.653435 0.631158 -1.159859
-2.649774 0.631228 -1.083423
-2.649518 0.631723 -1.010329
-2.671038 0.638727 -0.946185
-2.724353 0.654532 -0.891818
-2.715540 0.652671 -0.817581
-2.704761 0.650777 -0.744244
-2.698053 0.649491 -0.672758
-2.691270 0.648689 -0.602905
-2.696082 0.651109 -0.536339
-2.691401 0.637706 -0.467390
-2.664620 0.630950 -0.397075
-2.674382 0.634683 -0.332514
-2.655787 0.630652 -0.265526
-2.654997 0.630992 -0.201022
-2.641082 0.628228 -0.136113
-11.580915 3.093464 -0.300122
-15.351087 4.135920 -0.026585
-15.313115 4.131544 0.342375
-15.316862 4.138672 0.714685
-10.076859 2.691161 0.712361
0.003413 -0.099656 -0.004371
0.003413 -0.099656 -0.004371
0.003413 -0.099656 -0.004371
-9.497660 2.544167 1.601765
-2.464185 0.587981 0.474557
-0.430310 0.021530 -0.272286
-0.449617 0.027118 -0.269538
-2.691678 0.654646 -1.497440
-2.670943 0.649914 -1.403691
-2.668173 0.650226 -1.322542
-2.672140 0.651907 -1.246359
-2.654505 0.648032 -1.162184
-2.656272 0.649614 -1.087808
-2.652477 0.649099 -1.013082
-2.666729 0.654196 -0.946191
-2.721816 0.670853 -0.892421
-2.714857 0.669446 -0.818694
-2.700402 0.666450 -0.744249
-2.693694 0.665124 -0.672763
-2.690669 0.665338 -0.603747
-2.693594 0.667253 -0.536717
-2.685225 0.652783 -0.467067
-2.673708 0.650111 -0.399049
-2.668204 0.649646 -0.332284
-2.653453 0.646572 -0.265719
-2.656504 0.647983 -0.201454
-2.634925 0.642980 -0.136022
0.003420 -0.099570 -0.004368
-15.357262 4.232972 -0.026676
-23.356844 6.498601 0.525252
-10.180217 2.780892 0.474337
-9.645931 2.631805 0.682798
0.003420 -0.099570 -0.004368
0.003420 -0.099570 -0.004368
-9.499448 2.599943 1.369921
-9.493704 2.602122 1.603667
-2.441280 0.596867 0.470877
-0.432926 0.025084 -0.274327
-0.450545 0.030284 -0.270518
-2.680490 0.668297 -1.493680
-2.666597 0.665414 -1.403694
-2.672493 0.668179 -1.326838
-2.676552 0.669929 -1.250443
-2.651942 0.663944 -1.162961
-2.653707 0.665524 -1.088542
-2.655345 0.666551 -1.015833
-2.655073 0.667555 -0.943623
-2.717321 0.686602 -0.892427
-2.712237 0.685715 -0.819252
-2.699671 0.683181 -0.745271
-2.691118 0.681269 -0.673231
-2.686221 0.680926 -0.603752
-2.689132 0.682853 -0.536722
-2.677059 0.667251 -0.466417
-2.661738 0.663424 -0.397929
-2.663856 0.665109 -0.332288
-2.651028 0.662491 -0.265912
-2.652174 0.663391 -0.201457
-2.630613 0.658251 -0.136027
-14.394564 4.048057 -0.373237
0.003407 -0.099461 -0.004363
-10.251318 2.860822 0.228479
-9.679812 2.699727 0.451537
0.003407 -0.099461 -0.004363
0.003407 -0.099461 -0.004363
-9.506671 2.659303 1.139541
-9.491385 2.656879 1.370997
-9.481804 2.657906 1.604283
-2.441000 0.612101 0.471608
-0.432195 0.027679 -0.274325
-0.441428 0.030553 -0.265604
-2.674323 0.683330 -1.492743
-2.665576 0.681878 -1.405498
-2.669750 0.684169 -1.327701
-2.673691 0.686419 -1.251264
-2.654572 0.681380 -1.166059
-2.658175 0.683513 -1.092198
-2.657967 0.684537 -1.018584
-2.659700 0.685622 -0.946842
-2.714584 0.702892 -0.893029
-2.707541 0.701917 -0.819257
-2.695116 0.698819 -0.745276
-2.692032 0.698986 -0.674628
-2.683435 0.697529 -0.604174
-2.686333 0.699466 -0.537100
-2.680173 0.684970 -0.467730
-2.657172 0.679313 -0.397933
-2.661311 0.681093 -0.332528
-2.644681 0.677280 -0.265729
-2.653331 0.680882 -0.201890
-2.628129 0.674054 -0.136127
0.003413 -0.099375 -0.004360
-10.475003 2.988678 -0.019699
-9.879305 2.815219 0.220381
0.003413 -0.099375 -0.004360
0.003413 -0.099375 -0.004360
-9.495159 2.713386 0.905810
-9.496352 2.715742 1.140203
-9.482486 2.715455 1.372072
-9.474748 2.716966 1.605862
-2.433107 0.625132 0.470870
-0.424857 0.028406 -0.270231
-0.445664 0.034784 -0.268548
-2.676395 0.701324 -1.496513
-2.671142 0.700840 -1.410904
-2.668527 0.701160 -1.329422
-2.677858 0.704530 -1.255349
-2.649881 0.697217 -1.166065
-2.653486 0.699387 -1.092203
-2.653410 0.699937 -1.018588
-2.649553 0.699860 -0.944918
-2.711598 0.719638 -0.893633
-2.684474 0.712037 -0.813722
-2.694030 0.716015 -0.746300
-2.685527 0.714015 -0.674169
-2.682534 0.714193 -0.605017
-2.679820 0.714467 -0.536731
-2.673585 0.700400 -0.467408
-2.650759 0.694154 -0.397656
-2.658546 0.697547 -0.332767
-2.643855 0.694215 -0.266110
-2.648802 0.696258 -0.201894
-2.623488 0.689727 -0.136132
0.003423 -0.099287 -0.004356
-9.951480 2.896855 -0.018985
-9.590004 2.791923 0.214160
0.003423 -0.099287 -0.004356
0.003423 -0.099287 -0.004356
-9.486444 2.770380 0.906515
-9.485223 2.773839 1.140865
-9.469923 2.771209 1.372596
-9.462173 2.772683 1.606479
0.003423 -0.099287 -0.004356
-0.429035 0.032453 -0.273297
-0.446557 0.037979 -0.269527
-2.668364 0.715805 -1.494635
-2.688697 0.723109 -1.422607
-2.674230 0.719790 -1.334576
-2.674938 0.720588 -1.256168
-2.652309 0.714745 -1.169162
-2.650622 0.715312 -1.092937
-2.655941 0.717518 -1.021339
-2.653958 0.717996 -0.948137
-2.710504 0.736489 -0.894833
-2.699959 0.733811 -0.819820
-2.687454 0.731061 -0.745794
-2.684525 0.730730 -0.675100
-2.674073 0.728581 -0.604184
-2.676962 0.730566 -0.537108
-2.667046 0.715306 -0.467086
-2.651819 0.711231 -0.398504
-2.653905 0.712938 -0.332772
-2.641159 0.710124 -0.266302
-2.644176 0.711596 -0.201899
-2.624643 0.706689 -0.136424
-10.191607 3.031137 -0.267002
-9.620544 2.857845 -0.018549
0.003410 -0.099177 -0.004351
0.003410 -0.099177 -0.004351
-9.486609 2.826380 0.675994
-9.473588 2.826194 0.906856
-9.478027 2.831397 1.141987
-9.458945 2.827519 1.373398
-9.447396 2.827772 1.606776
0.003410 -0.099177 -0.004351
-0.426630 0.034530 -0.272272
-0.445765 0.040668 -0.269524
-2.660258 0.730228 -1.492756
-2.683919 0.738698 -1.422610
-2.672922 0.736372 -1.336296
-2.680636 0.739367 -1.261068
-2.652867 0.731778 -1.171486
-2.649434 0.731776 -1.094401
-2.651200 0.732915 -1.021343
-2.643776 0.731660 -0.946213
-2.703824 0.751619 -0.894239
-2.678635 0.744282 -0.814838
-2.684465 0.747200 -0.746308
-2.675983 0.745102 -0.674177
-2.676730 0.746432 -0.605862
-2.674015 0.746660 -0.537486
-2.662321 0.730769 -0.467089
-2.647115 0.726596 -0.398508
-2.654896 0.730105 -0.333479
-2.636448 0.725414 -0.266307
-2.637570 0.726328 -0.201760
-2.619953 0.721881 -0.136428
-9.652563 2.926623 -0.253585
0.003417 -0.099091 -0.004348
0.003417 -0.099091 -0.004348
-9.478894 2.881908 0.445106
-9.482932 2.885200 0.676925
-9.466093 2.883740 0.907745
-9.468599 2.888386 1.142880
-9.455174 2.886160 1.375302
-9.439815 2.885150 1.608358
0.003417 -0.099091 -0.004348
-0.417660 0.034501 -0.267156
-0.439963 0.041757 -0.266575
-2.663840 0.748314 -1.497467
-2.672246 0.752091 -1.419014
-2.671512 0.752962 -1.338016
-2.674022 0.754347 -1.260256
-2.656814 0.749943 -1.175358
-2.655256 0.750539 -1.098786
-2.662475 0.753432 -1.027527
-2.655196 0.752191 -0.952002
-2.704329 0.769027 -0.896039
-2.692018 0.765651 -0.820383
-2.681385 0.763337 -0.746822
-2.678502 0.763001 -0.676035
-2.671815 0.761937 -0.605866
-2.670974 0.762756 -0.537863
-2.663140 0.747979 -0.468074
-2.640438 0.741340 -0.398230
-2.650081 0.745485 -0.333483
-2.631662 0.740688 -0.266311
-2.640376 0.744026 -0.202333
-2.618994 0.738275 -0.136624
0.003404 -0.098982 -0.004343
0.003404 -0.098982 -0.004343
-9.491078 2.942112 0.212996
-9.482530 2.943233 0.446076
-9.473211 2.942261 0.677447
-9.460175 2.941937 0.908820
-9.456928 2.944735 1.143544
-9.441622 2.941836 1.375829
-9.431890 2.942540 1.609941
-9.418473 2.942072 1.846472
-0.428331 0.040716 -0.274312
-0.437484 0.043859 -0.265591
-2.662275 0.764845 -1.499354
-2.694477 0.776391 -1.433417
-2.668263 0.768983 -1.338879
-2.677590 0.773131 -1.264341
-2.662400 0.768763 -1.180003
-2.660936 0.769383 -1.103170
-2.668075 0.772811 -1.031652
-2.688059 0.779924 -0.965507
-2.701103 0.785293 -0.896641
-2.672249 0.776955 -0.815954
-2.676381 0.778878 -0.746825
-2.667787 0.777154 -0.674649
-2.668520 0.778493 -0.606289
0.003410 -0.098896 -0.004339
-2.658224 0.763406 -0.468078
-2.642938 0.759534 -0.399359
-2.656511 0.764514 -0.334895
-2.630573 0.757164 -0.266692
-7.967847 2.495049 -0.602461
0.003410 -0.098896 -0.004339
0.003410 -0.098896 -0.004339
-9.506697 3.005615 -0.018533
-9.488623 3.001733 0.213319
-9.466759 2.998463 0.446142
-9.455023 2.998479 0.677422
-9.449558 3.000558 0.909527
-9.452477 3.003535 1.145126
-9.438496 3.002804 1.378008
-9.424973 3.002226 1.611846
-9.410160 2.999378 1.848285
-0.425871 0.042840 -0.273286
-0.431682 0.044948 -0.262641
-2.668823 0.784607 -1.505948
-2.697713 0.795283 -1.437921
-2.676941 0.788989 -1.345749
-2.675992 0.789796 -1.265977
-2.678366 0.791162 -1.189288
-2.701829 0.800062 -1.122157
-2.743384 0.814480 -1.062557
-2.708113 0.803873 -0.974512
-2.712418 0.805890 -0.902031
-2.681896 0.796830 -0.820389
-4.658321 1.457038 -1.298350
-4.960093 1.559784 -1.252191
0.003397 -0.098787 -0.004334
0.003397 -0.098787 -0.004334
-6.382981 2.012149 -1.119226
-7.116057 2.256002 -1.069083
0.003397 -0.098787 -0.004334
0.003397 -0.098787 -0.004334
0.003397 -0.098787 -0.004334
0.003397 -0.098787 -0.004334
0.003397 -0.098787 -0.004334
-9.494919 3.060610 -0.018564
-9.466832 3.055128 0.213209
-9.458809 3.054496 0.446571
-9.448963 3.055084 0.678221
-9.438328 3.053562 0.910054
-9.440685 3.058219 1.145793
-9.415978 3.052000 1.377162
-9.413690 3.055089 1.612789
-9.400743 3.052787 1.849735
-0.423503 0.044644 -0.272259
-0.422659 0.044534 -0.257727
-2.669029 0.800844 -1.508775
-2.716686 0.817479 -1.450523
-2.726880 0.822046 -1.373214
-2.889113 0.877958 -1.368805
0.003404 -0.098701 -0.004331
0.003404 -0.098701 -0.004331
0.003404 -0.098701 -0.004331
-2.681504 0.811787 -0.966800
-2.779444 0.846147 -0.925973
0.003404 -0.098701 -0.004331
-4.616049 1.473525 -1.289194
-4.937581 1.584042 -1.248953
-5.296160 1.708339 -1.202817
0.003404 -0.098701 -0.004331
-6.368116 2.044373 -1.118583
-7.097599 2.292658 -1.068253
-7.957750 2.585589 -0.997455
-7.946738 2.583589 -0.799165
0.003404 -0.098701 -0.004331
0.003404 -0.098701 -0.004331
-9.493838 3.117253 -0.251413
-9.476588 3.115301 -0.018587
-9.458577 3.111236 0.213406
-9.446198 3.110911 0.446820
-9.438229 3.112088 0.678745
-9.428917 3.112789 0.910945
-9.433107 3.118100 1.147146
-9.404636 3.110415 1.378239
-9.402308 3.113488 1.614051
-9.390652 3.113384 1.851547
-0.420953 0.046845 -0.271235
-0.425047 0.048438 -0.259689
-2.668493 0.818964 -1.511603
-2.707496 0.833479 -1.448728
-2.808158 0.869271 -1.416989
-2.983217 0.930183 -1.416143
-3.018254 0.943519 -1.344764
-2.706989 0.837296 -1.128735
-2.677485 0.827700 -1.041276
-2.668732 0.825780 -0.964233
-2.770005 0.861953 -0.924781
0.003411 -0.098615 -0.004327
-4.588372 1.494653 -1.284111
-4.925661 1.612753 -1.248501
-5.300119 1.744959 -1.206178
-5.843968 1.936430 -1.180002
-6.354530 2.084428 -1.118600
-7.073495 2.332824 -1.066866
-7.944971 2.635517 -0.997945
-7.935384 2.635480 -0.799753
-7.936971 2.637747 -0.603656
-8.611715 2.873821 -0.442356
-9.475920 3.175897 -0.251488
-9.464919 3.174143 -0.018623
-9.448263 3.172282 0.213599
-9.437768 3.172537 0.447337
-9.430330 3.171995 0.679540
-9.424765 3.173955 0.912385
-9.425126 3.177965 1.148499
-9.406035 3.173371 1.381246
-2.582324 0.801610 0.441485
-2.541726 0.788518 0.499509
-0.421747 0.049966 -0.272254
-0.440642 0.056751 -0.269507
0.003398 -0.098506 -0.004322
-2.727382 0.858043 -1.462229
-2.809348 0.887920 -1.420426
-2.818742 0.891843 -1.341067
-2.692020 0.848501 -1.202447
-2.657644 0.837536 -1.110485
-2.679193 0.845704 -1.044026
-2.677655 0.846277 -0.969379
0.003398 -0.098506 -0.004322
-4.323954 1.429165 -1.327332
-4.619244 1.535332 -1.295323
-4.915734 1.641192 -1.248510
-5.270994 1.769030 -1.202001
-5.839548 1.972751 -1.181508
-6.336280 2.119128 -1.117631
-7.050045 2.370340 -1.065475
-7.945976 2.687217 -1.000076
-7.932683 2.685841 -0.801091
-7.924856 2.684803 -0.603959
-8.569965 2.914824 -0.441127
-9.466353 3.233797 -0.251757
-9.461026 3.233971 -0.018668
-9.440602 3.230693 0.213838
-9.426327 3.229553 0.447676
-9.418904 3.228988 0.680066
-9.415181 3.231560 0.913278
-9.411752 3.234244 1.149166
-9.392680 3.229544 1.382052
-2.539892 0.803367 0.435053
-2.514360 0.795356 0.495096
-0.420887 0.052511 -0.272251
-2.565168 0.816295 -1.541417
-2.634478 0.841573 -1.498429
-2.733593 0.878035 -1.468533
-2.744089 0.882938 -1.390390
-2.672007 0.857790 -1.274151
-2.656991 0.853524 -1.189302
-2.660965 0.856063 -1.114139
-2.666641 0.858693 -1.041282
0.003405 -0.098420 -0.004319
0.003405 -0.098420 -0.004319
-4.298812 1.448291 -1.322354
-4.591564 1.555458 -1.290238
-4.889165 1.663638 -1.244344
-5.269355 1.802766 -1.204105
-5.786873 1.991764 -1.173311
-6.319698 2.154350 -1.116990
-7.035724 2.410985 -1.065490
-7.929814 2.733015 -1.000093
-7.920264 2.732882 -0.801486
-7.918109 2.733845 -0.604688
-8.541196 2.960159 -0.440570
-9.454558 3.291029 -0.251975
-9.454878 3.293195 -0.018710
-9.430704 3.288448 0.214035
-9.420185 3.288572 0.448286
-9.410871 3.287282 0.680865
-9.399611 3.287124 0.913622
-9.407385 3.293843 1.150980
-9.378959 3.285630 1.382856
-2.555087 0.825455 0.438586
-2.540614 0.821286 0.501341
-0.420002 0.055038 -0.272248
-2.550034 0.827607 -1.535526
-2.615736 0.852013 -1.490901
-2.712809 0.888380 -1.460437
-2.645002 0.864861 -1.343190
-2.659582 0.870761 -1.270890
-2.649734 0.868292 -1.188531
-2.655437 0.871491 -1.114142
-3.508061 1.183254 -1.370919
0.003392 -0.098311 -0.004314
0.003392 -0.098311 -0.004314
-4.298868 1.476436 -1.325130
-4.572889 1.578645 -1.287700
-4.875295 1.690532 -1.243424
-5.258314 1.833165 -1.204115
-5.809795 2.038034 -1.180411
-6.315884 2.194142 -1.118640
-7.011860 2.448170 -1.064099
-7.928324 2.784142 -1.001989
-7.915081 2.782621 -0.802634
-7.909185 2.782210 -0.605274
-8.478416 2.992959 -0.438284
-9.446157 3.349585 -0.252293
-9.437091 3.348346 -0.018733
-9.427971 3.348947 0.214406
-9.413692 3.347650 0.448898
-9.404353 3.346282 0.681800
-9.393085 3.346070 0.914882
-9.393316 3.350072 1.151648
-9.374228 3.345116 1.385040
-2.583076 0.852501 0.444368
-2.540806 0.838024 0.502440
-0.425556 0.059939 -0.276336
-2.539748 0.840575 -1.532583
-2.630081 0.874512 -1.502201
-2.695356 0.899761 -1.454140
-2.641114 0.880826 -1.344051
-2.667492 0.891726 -1.277421
0.003398 -0.098225 -0.004310
0.003398 -0.098225 -0.004310
-3.496868 1.202843 -1.369551
0.003398 -0.098225 -0.004310
-4.070576 1.418711 -1.367679
-4.293050 1.503355 -1.326247
-4.546846 1.598969 -1.283124
-4.873700 1.722916 -1.245754
-5.228453 1.857584 -1.199939
-5.802542 2.074627 -1.181542
-6.297050 2.228536 -1.117670
-6.994769 2.489118 -1.063834
-7.915325 2.831203 -1.002476
-7.898355 2.828218 -0.802652
-7.901309 2.832620 -0.606004
-8.426771 3.029294 -0.436574
-9.439295 3.408877 -0.252658
-9.433359 3.410609 -0.018781
-9.415475 3.406033 0.214559
-9.401195 3.404645 0.449239
-9.394998 3.406270 0.682599
-9.383705 3.405983 0.915959
-9.382630 3.407641 1.152775
-9.366638 3.405577 1.386947
-2.553368 0.858916 0.440187
-9.343521 3.402906 1.861362
-0.426237 0.063198 -0.277355
-2.537399 0.856977 -1.534549
-2.620955 0.888964 -1.500322
-2.711124 0.924043 -1.465842
-2.652336 0.902498 -1.352636
0.003388 -0.098113 -0.004305
-3.088600 1.069493 -1.390420
0.003388 -0.098113 -0.004305
-3.492832 1.224393 -1.370930
-3.758657 1.325795 -1.369956
-4.043938 1.435480 -1.361700
-4.296325 1.532913 -1.330132
-4.542429 1.627288 -1.284660
-4.850417 1.746226 -1.242514
-5.211972 1.884762 -1.198691
-5.788481 2.106381 -1.181179
-6.281288 2.265247 -1.117356
-6.972347 2.526655 -1.062723
-7.912684 2.883797 -1.004372
-7.888331 2.877937 -0.803423
-7.895516 2.882382 -0.606874
-8.381929 3.069438 -0.435247
-9.417089 3.462538 -0.252628
-9.422383 3.468496 -0.018815
-9.405744 3.466135 0.214799
-9.393969 3.463747 0.449851
-9.383994 3.463898 0.683261
-9.371460 3.461212 0.916672
-9.375308 3.466607 1.154361
-9.359300 3.464457 1.388856
-2.571974 0.882389 0.444363
0.003388 -0.098113 -0.004305
-0.436569 0.069984 -0.284511
-2.522250 0.867497 -1.528659
-2.612116 0.902448 -1.498440
-2.710363 0.941181 -1.468545
0.003395 -0.098027 -0.004302
-2.954425 1.036572 -1.420245
-3.104402 1.095415 -1.400480
-3.250251 1.152152 -1.371168
-3.488901 1.245332 -1.372308
-3.732958 1.340044 -1.363532
-4.047768 1.462933 -1.365896
-4.290752 1.558376 -1.331246
-4.529114 1.651329 -1.283648
-4.836417 1.771984 -1.241593
-5.206286 1.916040 -1.199956
-5.746784 2.127433 -1.175217
-6.279049 2.304595 -1.119330
-6.946492 2.561387 -1.061048
-7.894063 2.927303 -1.004152
-7.886466 2.927714 -0.804947
-7.886204 2.929349 -0.607459
-8.369723 3.118423 -0.435551
-9.412005 3.520874 -0.253041
-9.415399 3.526144 -0.018854
-9.393186 3.521545 0.214955
-9.385141 3.520526 0.450375
-9.377028 3.521351 0.684200
-9.362613 3.517854 0.917751
-9.366410 3.523274 1.155720
-9.346680 3.519583 1.389940
-9.339047 3.518690 1.626762
-9.328946 3.518731 1.866470
-0.443607 0.075727 -0.289621
0.003402 -0.097941 -0.004298
-2.598077 0.914381 -1.493735
-2.712671 0.960143 -1.473046
-2.820720 1.003436 -1.444476
-2.954446 1.056854 -1.423513
-3.090626 1.110718 -1.397388
-3.253183 1.175599 -1.375553
-3.484379 1.267499 -1.373685
-3.710254 1.356752 -1.358394
-4.001138 1.472409 -1.353333
-4.266528 1.578278 -1.326821
-4.479045 1.662705 -1.272451
-4.816195 1.797192 -1.239281
-5.184796 1.944318 -1.197872
-5.703828 2.151050 -1.169259
-6.279836 2.346541 -1.121957
-6.921391 2.599068 -1.059655
-7.889477 2.977849 -1.005810
-7.881924 2.978243 -0.806282
-7.873700 2.978355 -0.607902
-8.343632 3.163729 -0.435183
-9.401562 3.581097 -0.253356
-9.408653 3.587850 -0.018896
-9.387109 3.581490 0.215285
-9.374688 3.580586 0.450897
-9.362841 3.579901 0.684727
-9.345931 3.577213 0.918279
-9.355874 3.583195 1.157077
-9.343506 3.582287 1.392675
-9.322327 3.577895 1.627706
-9.318321 3.578396 1.868655
-0.445756 0.079721 -0.291664
-2.502691 0.893953 -1.523752
-2.580555 0.925361 -1.487146
-2.683100 0.967122 -1.460449
-2.835968 1.028933 -1.455636
-2.954527 1.076643 -1.426781
-3.069682 1.123687 -1.391204
-3.266342 1.203263 -1.384318
-3.474709 1.286951 -1.373003
-3.689245 1.373939 -1.353898
-4.011249 1.503999 -1.359922
-4.263955 1.605784 -1.329043
-4.493682 1.699420 -1.279588
-4.792550 1.819927 -1.236042
-5.183854 1.978608 -1.200392
-5.730927 2.200045 -1.177477
-6.268897 2.385295 -1.122623
-6.903902 2.638225 -1.059387
-7.882188 3.029086 -1.007235
-7.865378 3.025748 -0.806488
-7.865146 3.027416 -0.608628
-8.307430 3.206601 -0.434336
-9.390738 3.641323 -0.253672
-9.398429 3.646461 -0.018933
-9.378123 3.642359 0.215569
-9.362000 3.639911 0.451328
-9.356359 3.639746 0.685802
-9.341294 3.637697 0.919907
-9.346799 3.643861 1.158663
-9.322180 3.636083 1.392657
-9.324865 3.641134 1.631867
-9.298196 3.634400 1.869003
-0.457493 0.087537 -0.299842
-2.490473 0.905862 -1.519825
-2.589349 0.946249 -1.495622
-2.698441 0.991327 -1.472153
-2.834458 1.047389 -1.458214
-2.942636 1.091699 -1.424336
-3.076266 1.146972 -1.397396
-3.238080 1.213776 -1.375560
-3.464931 1.306335 -1.372321
-3.705285 1.405224 -1.362904
-4.003722 1.527888 -1.360527
-4.234493 1.622470 -1.322954
-4.479667 1.723899 -1.278576
-4.772421 1.843930 -1.233729
-5.186311 2.014423 -1.203749
-5.686664 2.220495 -1.171143
-6.256340 2.422197 -1.122961
-6.888038 2.678018 -1.059400
-7.873263 3.078210 -1.008424
-7.860204 3.076295 -0.807822
-7.859968 3.077947 -0.609640
-8.266058 3.245477 -0.433199
-9.382040 3.700658 -0.254035
-9.386001 3.704345 -0.018965
-9.365720 3.700126 0.215769
-9.353293 3.699073 0.451942
-9.349478 3.699611 0.686876
-9.330715 3.695982 0.920986
-9.338024 3.702943 1.160252
-9.322587 3.698745 1.395946
-9.303199 3.694820 1.631848
-9.282049 3.690171 1.870088
-0.518462 0.115640 -0.339723
-2.492704 0.923588 -1.524738
-2.571852 0.956565 -1.489034
-2.687180 1.004943 -1.469454
-2.829483 1.064484 -1.459074
-2.944187 1.112209 -1.428419
-3.052001 1.157784 -1.389663
-3.232192 1.233213 -1.376294
-3.455068 1.325672 -1.371637
-3.680812 1.420151 -1.357122
-3.957246 1.535744 -1.347963
-4.217412 1.643991 -1.320743
-4.456593 1.744598 -1.275017
-4.766562 1.873716 -1.235128
-5.179487 2.046596 -1.205013
-5.682311 2.257063 -1.173017
-6.259995 2.465747 -1.126242
-6.868291 2.716235 -1.058849
-7.862216 3.126603 -1.009377
-7.854705 3.126879 -0.809157
-7.854481 3.128541 -0.610651
-8.233761 3.287793 -0.432541
-9.371113 3.759244 -0.254349
-9.367669 3.759921 -0.018989
-9.358508 3.760158 0.216100
-9.335008 3.754479 0.452106
-9.340400 3.758791 0.687816
-9.321624 3.755033 0.922249
-9.327016 3.761257 1.161611
-9.306078 3.754683 1.396755
-9.293995 3.753668 1.634080
-9.278262 3.751133 1.873744
-0.529927 0.124012 -0.347902
-2.493216 0.940716 -1.528668
-2.560847 0.969432 -1.486212
-2.680782 1.020511 -1.469456
-2.809403 1.075305 -1.452211
-2.930431 1.126439 -1.425156
-3.054938 1.179715 -1.394306
-3.224480 1.251916 -1.376297
-3.443337 1.344193 -1.370268
-3.666776 1.439244 -1.355196
-3.912580 1.543858 -1.335997
-4.189589 1.660915 -1.315208
-4.440577 1.768104 -1.273494
-4.747958 1.898212 -1.233279
-5.154449 2.071185 -1.202089
-5.666857 2.289084 -1.172652
-6.250604 2.504121 -1.127233
-6.850153 2.755063 -1.058579
-7.852689 3.175720 -1.010565
-7.848878 3.177502 -0.810492
-7.841311 3.176107 -0.611092
-8.193856 3.326746 -0.431499
-9.361696 3.818631 -0.254711
-9.358251 3.819290 -0.019025
-9.347227 3.818692 0.216345
-9.336640 3.818271 0.453262
-9.327261 3.816437 0.688482
-9.319511 3.817195 0.924244
-9.310151 3.817265 1.162282
-9.296561 3.813657 1.398667
-9.282617 3.811782 1.635992
-9.295844 3.821368 1.881813
-0.536552 0.130511 -0.353013
-2.477566 0.951102 -1.522776
-2.572548 0.991846 -1.496569
-2.679229 1.038126 -1.472158
-2.809267 1.094405 -1.455645
-2.933208 1.148200 -1.430056
-3.035632 1.192333 -1.388895
-3.216649 1.270560 -1.376300
-3.433001 1.363975 -1.369584
-3.643927 1.454509 -1.350057
-3.929403 1.577688 -1.344979
-4.182630 1.687364 -1.316321
-4.415518 1.787656 -1.269426
-4.734245 1.925681 -1.232822
-5.128906 2.096447 -1.199167
-5.614654 2.306510 -1.164826
-6.242782 2.543222 -1.128553
-6.831302 2.794982 -1.058309
-7.846536 3.226400 -1.012222
-7.839065 3.226609 -0.811449
-7.834635 3.228121 -0.612102
-8.144611 3.361479 -0.429975
-9.351874 3.878003 -0.255074
-9.344062 3.878720 -0.019058
-9.337428 3.878006 0.216633
-9.321305 3.875162 0.453606
-9.324090 3.880380 0.689967
-9.301646 3.874832 0.924776
-9.302102 3.877120 1.164101
-9.284149 3.873477 1.400302
-9.270188 3.871519 1.637904
0.003379 -0.097439 -0.004276
-0.547834 0.139239 -0.361191
-2.479300 0.969334 -1.527689
-2.566029 1.007196 -1.496571
-2.675736 1.055538 -1.473960
-2.795712 1.107810 -1.452214
-2.920949 1.163008 -1.427610
-3.029637 1.211182 -1.389671
-3.186502 1.279586 -1.366810
-3.433143 1.387541 -1.373022
-3.633201 1.474827 -1.349417
-3.942462 1.610245 -1.352764
-4.184618 1.716856 -1.320205
-4.401057 1.811632 -1.268412
-4.704681 1.945276 -1.228188
-5.130936 2.131381 -1.202522
-5.620978 2.346539 -1.168938
-6.219768 2.577193 -1.127254
-6.812724 2.833583 -1.058038
-7.833984 3.276121 -1.013175
-7.828361 3.277081 -0.812406
-7.828182 3.278778 -0.613113
-8.079926 3.390804 -0.427685
-9.341713 3.937424 -0.255434
-9.335730 3.938888 -0.019096
-9.328368 3.939739 0.216963
-9.312978 3.935201 0.454313
-9.301052 3.934072 0.689951
-9.293964 3.933108 0.926224
-9.288218 3.934653 1.165233
-9.277499 3.934025 1.402765
-9.264197 3.930353 1.640782
-16.160105 6.934348 3.290166
-0.548089 0.143103 -0.362210
-2.471721 0.982596 -1.526707
-2.553366 1.018812 -1.492805
-2.639793 1.057701 -1.457761
-2.772165 1.116750 -1.443634
-2.918666 1.182117 -1.430060
-3.030719 1.231879 -1.393541
-3.193869 1.304757 -1.373384
-3.422831 1.406659 -1.372337
-3.615420 1.492023 -1.346205
-3.895884 1.616902 -1.340199
-4.153016 1.731761 -1.313560
-4.381142 1.833146 -1.265871
-4.692854 1.972445 -1.228193
-5.101512 2.154767 -1.198762
-5.636950 2.393445 -1.175289
-6.219205 2.618283 -1.129880
-6.795740 2.872847 -1.058049
-7.825950 3.324658 -1.014596
-7.824010 3.327216 -0.813926
-7.817775 3.327897 -0.613836
-8.053022 3.432744 -0.427312
-9.332981 3.997635 -0.255845
-9.325167 3.998271 -0.019133
-9.316699 3.996675 0.217211
-9.295115 3.991244 0.454569
-9.295977 3.995672 0.691302
-9.277195 3.991445 0.926939
-9.273962 3.992140 1.166365
-9.252351 3.986646 1.402475
-9.241976 3.986103 1.641087
-24.475697 10.719900 4.997599
-0.545063 0.145752 -0.361186
-2.463661 0.996632 -1.525727
-2.551529 1.036194 -1.495632
-2.660642 1.085772 -1.473063
-2.766562 1.134021 -1.444494
-2.914588 1.200502 -1.431694
-3.039629 1.257448 -1.401279
-3.192301 1.326821 -1.376308
-3.402104 1.421093 -1.367533
-3.630139 1.524358 -1.355211
-3.836850 1.618287 -1.323445
-4.130118 1.750240 -1.309687
-4.374908 1.861572 -1.267405
-4.700396 2.008276 -1.233302
-5.100956 2.189798 -1.201699
-5.600999 2.416303 -1.170819
-6.217440 2.661648 -1.132505
-6.778535 2.912019 -1.058059
-7.805533 3.371122 -1.014608
-7.816307 3.379325 -0.815260
-7.805228 3.376184 -0.614418
-8.015527 3.473225 -0.426461
-9.321321 4.058701 -0.256207
-9.316067 4.058494 -0.019171
-9.239319 4.028312 0.215933
-9.236043 4.030883 0.452837
-9.237659 4.033714 0.688691
-9.237164 4.037543 0.925278
-9.244114 4.044706 1.165660
-9.228718 4.039923 1.402460
-9.220137 4.040117 1.641393
-24.452431 10.883414 5.006002
-0.540538 0.147611 -0.359136
-2.457337 1.010931 -1.525727
-2.544962 1.050982 -1.495633
-2.652158 1.100457 -1.472164
-2.766245 1.152553 -1.447928
-2.907057 1.217361 -1.431697
-3.030102 1.274281 -1.400507
-3.187687 1.346258 -1.377770
-3.388171 1.438442 -1.365476
-3.610677 1.540017 -1.351356
-3.848070 1.649245 -1.330631
-4.037178 1.736778 -1.283648
-4.370956 1.889282 -1.269445
-4.679343 2.031381 -1.230988
-5.086349 2.217553 -1.201285
-5.594043 2.450895 -1.172318
-6.194251 2.694241 -1.131206
-6.759308 2.950290 -1.057787
-7.790866 3.418538 -1.015325
-7.807065 3.429281 -0.816403
-7.797827 3.426888 -0.615427
-7.969380 3.507892 -0.425126
-9.316208 4.118997 -0.256713
-9.306573 4.118731 -0.019209
-9.222713 4.084813 0.216093
-9.223794 4.087414 0.453366
-9.222833 4.091034 0.689361
-9.215770 4.089940 0.925448
-9.217247 4.094666 1.165188
-9.208374 4.094695 1.402997
-9.216687 4.100598 1.644915
-24.426596 11.036046 5.013309
-0.543854 0.152879 -0.362201
-2.457446 1.027640 -1.529656
-2.532083 1.062341 -1.491868
-2.643792 1.114599 -1.471266
-2.760633 1.169309 -1.448788
-2.897791 1.233444 -1.430881
-3.025744 1.292820 -1.402056
-3.165794 1.358491 -1.371930
-3.375854 1.456459 -1.364105
-3.616671 1.568006 -1.357146
-3.829297 1.667503 -1.327641
-4.009107 1.752064 -1.278111
-4.364719 1.916947 -1.270978
-4.672316 2.060840 -1.232384
-5.044126 2.234669 -1.194592
-5.585975 2.487443 -1.173817
-6.201902 2.739537 -1.135466
-6.739858 2.988430 -1.057514
-7.769325 3.461245 -1.015100
-7.801740 3.479526 -0.817924
-7.791936 3.478481 -0.616577
-7.958209 3.556565 -0.425618
-9.306343 4.179333 -0.257121
-9.296702 4.179010 -0.019246
-9.206501 4.139651 0.216254
-9.203213 4.142210 0.453533
-9.200395 4.144970 0.689483
-9.198027 4.147943 0.926164
-9.205622 4.153574 1.166781
-9.200292 4.155183 1.405462
-9.207784 4.162729 1.647793
-24.392494 11.190509 5.019513
-0.540791 0.155479 -0.361176
-2.436499 1.035706 -1.520818
-2.528362 1.078947 -1.493752
-2.628475 1.126633 -1.466766
-2.762901 1.190356 -1.453939
-2.894808 1.253032 -1.433332
-3.015790 1.310098 -1.401284
-3.173971 1.385225 -1.379235
-3.366585 1.476575 -1.364107
-3.618753 1.595163 -1.361650
-3.832599 1.696770 -1.332432
-4.078124 1.813389 -1.303604
-4.354454 1.943737 -1.271492
-4.662947 2.090265 -1.233318
-5.031977 2.265477 -1.195017
-5.590118 2.529821 -1.177930
-6.184977 2.776378 -1.135474
-6.723239 3.029288 -1.057805
-7.740892 3.504018 -1.014172
-7.791237 3.530883 -0.819067
-7.786873 3.532308 -0.617871
-7.932791 3.602110 -0.425438
-9.295321 4.241303 -0.257531
-9.285700 4.240941 -0.019284
-9.192108 4.199359 0.216501
-9.179729 4.197646 0.453609
-9.187749 4.205474 0.690425
-9.183527 4.207573 0.927247
-9.196463 4.215772 1.168831
-9.200048 4.221546 1.409304
-9.203820 4.227409 1.651635
-24.351877 11.347538 5.024980
-0.534667 0.156515 -0.358105
-2.436242 1.052808 -1.524747
-2.518357 1.092101 -1.491869
-2.626234 1.144153 -1.469466
-2.760360 1.208688 -1.456514
-2.892180 1.271633 -1.435781
-3.007626 1.327538 -1.401286
-3.162023 1.401997 -1.377776
-3.333981 1.484197 -1.354493
-3.562743 1.594165 -1.344291
-3.808408 1.712360 -1.327647
-4.067402 1.836235 -1.303606
-4.230829 1.915731 -1.238898
-4.640127 2.111356 -1.230538
-5.022250 2.295323 -1.195858
-5.566485 2.556850 -1.176070
-6.175487 2.815419 -1.136789
-6.709261 3.068546 -1.058376
-7.721829 3.549458 -1.014417
-7.772043 3.576633 -0.819265
-7.775515 3.580069 -0.618592
-7.895125 3.640122 -0.424583
-9.279241 4.299109 -0.257790
-9.279427 4.301358 -0.019324
-9.176269 4.256569 0.216706
-9.169303 4.257350 0.454318
-9.181640 4.265345 0.691781
-9.182761 4.269968 0.929613
-9.194818 4.279807 1.171800
-9.186539 4.278002 1.410945
-9.188466 4.283035 1.653230
-24.340654 11.513758 5.036330
-0.544066 0.164904 -0.365260
-2.442156 1.072948 -1.532605
-2.509877 1.105936 -1.490928
-2.615820 1.157822 -1.467667
-2.751151 1.223875 -1.455658
-2.870835 1.282551 -1.429253
-3.001051 1.345757 -1.402059
-3.158370 1.422705 -1.379969
-3.334708 1.508953 -1.358616
-3.568312 1.622155 -1.350080
-3.799656 1.735205 -1.328248
-4.069722 1.867126 -1.308042
-4.090270 1.877988 -1.201210
-4.649724 2.149946 -1.236574
-5.067840 2.354107 -1.210100
-5.534748 2.582241 -1.172716
-6.165746 2.854433 -1.138104
-6.690378 3.108390 -1.058384
-7.688191 3.587957 -1.012782
-7.774106 3.632594 -0.821728
-7.767964 3.633121 -0.619743
-7.835672 3.667439 -0.422575
-9.271826 4.361214 -0.258296
-9.265807 4.362472 -0.019359
-9.167296 4.317219 0.217086
-9.171106 4.323156 0.455660
-9.175397 4.329343 0.693270
-9.174652 4.333090 0.931429
-9.189181 4.342260 1.174312
-9.172944 4.338535 1.412861
-9.178352 4.345277 1.656110
-10.185855 4.835062 2.111318
-0.533215 0.163729 -0.359121
-2.425765 1.082962 -1.526712
-2.510642 1.124784 -1.495636
-2.598690 1.168740 -1.462268
-2.743511 1.239822 -1.455658
-2.871069 1.303183 -1.433334
-3.005694 1.370100 -1.408250
-3.156276 1.444255 -1.382890
-3.323716 1.527406 -1.357931
-3.578772 1.652750 -1.357799
-3.780475 1.752969 -1.325257
-4.047991 1.885563 -1.304720
-4.155269 1.939027 -1.223624
-4.629737 2.173373 -1.234722
-5.045310 2.378167 -1.208010
-5.491491 2.599359 -1.166750
-6.135715 2.885023 -1.135822
-6.673602 3.147814 -1.058673
-7.675134 3.637924 -1.013967
-7.759021 3.682220 -0.822494
-7.760724 3.684862 -0.620892
-7.788082 3.701693 -0.421240
-9.258595 4.420728 -0.258654
-9.257966 4.424593 -0.019401
-9.151752 4.376868 0.217334
-9.167073 4.386495 0.456731
-9.169489 4.391808 0.694760
-9.178444 4.398347 0.934345
-9.184915 4.405659 1.177053
-9.175732 4.405287 1.417255
-9.176460 4.407804 1.660276
-9.963213 4.798350 2.070890
-0.531761 0.166823 -0.359118
-2.409772 1.091992 -1.520818
-2.494288 1.134218 -1.489986
-2.583576 1.179393 -1.457767
-2.726054 1.250914 -1.450508
-2.874419 1.325468 -1.439048
-2.997453 1.386964 -1.408251
-3.130655 1.454242 -1.375590
-3.314313 1.546631 -1.357933
-3.561864 1.670081 -1.355228
-3.762926 1.771423 -1.322865
-4.055451 1.918347 -1.310818
-4.285522 2.033564 -1.265394
-4.609622 2.196628 -1.232870
-5.018280 2.402049 -1.205084
-5.510577 2.649498 -1.174220
-6.133141 2.926305 -1.138444
-6.651276 3.184538 -1.058117
-7.650620 3.679060 -1.013505
-7.752100 3.732625 -0.824011
-7.751359 3.735760 -0.621898
-7.759616 3.741673 -0.420863
-9.248590 4.482032 -0.259109
-9.247935 4.485893 -0.019438
-9.133804 4.431502 0.217496
-9.142924 4.440168 0.456810
-9.157824 4.451705 0.695842
-9.160542 4.457200 0.935246
-9.174869 4.466485 1.179106
-9.156784 4.461645 1.418346
-9.161981 4.468391 1.662513
-9.720243 4.748741 2.026055
-0.534809 0.172400 -0.362182
-2.407349 1.108718 -1.523765
-2.494831 1.153054 -1.494694
-2.596717 1.205199 -1.469469
-2.729323 1.272844 -1.456517
-2.862923 1.340475 -1.437416
-2.972115 1.396563 -1.400517
-3.133051 1.478755 -1.380702
-3.294724 1.560736 -1.353813
-3.529318 1.680222 -1.346872
-3.780755 1.808404 -1.333044
-4.043781 1.941764 -1.310821
-4.257277 2.051228 -1.260812
-4.589400 2.219733 -1.231017
-5.000315 2.429234 -1.204251
-5.473628 2.670637 -1.169747
-6.115106 2.962728 -1.138451
-6.628728 3.221091 -1.057562
-7.621001 3.720918 -1.012575
-7.741709 3.784863 -0.825343
-7.743463 3.787580 -0.623045
-7.736724 3.787721 -0.420872
-9.251639 4.552131 -0.259961
-9.235722 4.546327 -0.019472
-9.113959 4.489287 0.217659
-9.119444 4.496199 0.456979
-9.133278 4.505313 0.695967
-9.141320 4.513534 0.935967
-9.152997 4.523602 1.179783
-9.155188 4.526873 1.422192
-9.146139 4.526465 1.664430
-9.493116 4.706122 1.984526
-0.536318 0.177141 -0.364224
-2.414346 1.129758 -1.532605
-2.484432 1.165902 -1.492812
-2.598740 1.225103 -1.474868
-2.719783 1.287832 -1.455659
-2.852975 1.356218 -1.436600
-2.966757 1.415435 -1.402064
-3.140520 1.505330 -1.388006
-3.303550 1.589181 -1.361369
-3.530844 1.706649 -1.351374
-3.734047 1.812036 -1.320475
-4.028557 1.963371 -1.309715
-4.241397 2.074045 -1.259797
-4.600237 2.258618 -1.237516
-4.989187 2.459877 -1.205092
-5.462873 2.704918 -1.170870
-6.085084 2.991741 -1.136167
-6.606003 3.257513 -1.057006
-7.595359 3.763019 -1.012113
-7.733454 3.836690 -0.826860
-7.735209 3.839424 -0.624193
-7.721369 3.835907 -0.421265
-9.228321 4.607235 -0.260069
-9.226658 4.608569 -0.019513
-9.206767 4.602652 0.220562
-9.194304 4.600503 0.462111
-9.186633 4.598769 0.702103
-9.173170 4.596088 0.941991
-9.172247 4.599813 1.185735
-9.156638 4.594005 1.426588
-9.142243 4.590827 1.668598
-9.260664 4.655765 1.941528
-0.530144 0.177979 -0.361153
-2.407247 1.143755 -1.532605
-2.475565 1.179505 -1.491869
-2.595850 1.242616 -1.477568
-2.702127 1.298612 -1.450509
-2.846169 1.373550 -1.437418
-2.958009 1.432611 -1.402064
-3.126277 1.520927 -1.385816
-3.307141 1.615187 -1.366864
-3.515360 1.724449 -1.349446
-3.753492 1.849400 -1.331251
-3.992740 1.974257 -1.301960
-4.227120 2.097651 -1.259289
-4.591799 2.287877 -1.238910
-4.969189 2.485963 -1.203839
-5.437943 2.731891 -1.169008
-6.091770 3.039451 -1.140753
-6.586598 3.295592 -1.057012
-7.573025 3.806780 -1.012121
-7.723083 3.887624 -0.828189
-7.728374 3.892195 -0.625484
-7.712808 3.887711 -0.422042
-9.217088 4.668624 -0.260524
-9.213651 4.669039 -0.019547
-9.195562 4.663926 0.220943
-9.188420 4.664460 0.463184
-9.173643 4.658996 0.703186
-9.163714 4.658071 0.943810
-9.159185 4.659936 1.187561
-9.147094 4.655848 1.429332
-9.134396 4.653463 1.672122
0.003370 -0.096203 -0.004224
-0.523988 0.178760 -0.358082
-2.401616 1.158524 -1.533586
-2.466604 1.193029 -1.490928
-2.591269 1.259309 -1.479368
-2.697242 1.315923 -1.452226
-2.844135 1.393420 -1.440683
-2.945897 1.448030 -1.400517
-3.110330 1.535565 -1.382895
-3.297220 1.634293 -1.366866
-3.489738 1.736861 -1.343660
-3.755750 1.878193 -1.336041
-4.002882 2.008953 -1.309164
-4.238394 2.134672 -1.266422
-4.586593 2.318889 -1.241234
-4.924824 2.499136 -1.196724
-5.407674 2.755927 -1.166026
-6.078880 3.077320 -1.141738
-6.568725 3.334467 -1.057299
-7.550434 3.850400 -1.012128
-7.714152 3.939507 -0.829705
-7.717675 3.943188 -0.626488
-7.698625 3.936790 -0.422529
-9.207229 4.730972 -0.261027
-9.209110 4.734165 -0.019595
-9.183955 4.725224 0.221325
-9.171477 4.722916 0.463715
-9.165552 4.722002 0.704678
-9.153838 4.720092 0.945629
-9.147505 4.720995 1.189616
-9.131896 4.714979 1.431252
-9.129630 4.718007 1.676290
0.003357 -0.096094 -0.004219
-0.520873 0.181083 -0.357056
-2.392810 1.171630 -1.532603
-2.460701 1.208148 -1.491869
-2.588146 1.276820 -1.482068
-2.701850 1.338327 -1.459092
-2.840090 1.412952 -1.443131
-2.936965 1.465084 -1.400517
-3.104178 1.555311 -1.384355
-3.296867 1.659249 -1.370986
-3.490831 1.763256 -1.348162
-3.719050 1.886424 -1.327064
-3.986922 2.030949 -1.308059
-4.203291 2.147307 -1.259802
-4.546457 2.332433 -1.234276
-4.947299 2.548690 -1.205939
-5.350798 2.766732 -1.157447
-6.004704 3.082834 -1.131274
-6.550027 3.374410 -1.057585
-7.527603 3.893903 -1.012135
-7.708400 3.993276 -0.831599
-7.704169 3.994605 -0.627350
-7.689409 3.988631 -0.423305
-9.198719 4.794299 -0.261580
-9.197974 4.798181 -0.019634
-9.177240 4.789362 0.221837
-9.161254 4.785130 0.464609
-9.147401 4.781999 0.705487
-9.140945 4.782816 0.947265
-9.138932 4.783950 1.192131
-9.125934 4.781265 1.434823
-9.116610 4.780524 1.679172
-9.101035 4.774407 1.925336
-0.513166 0.181039 -0.352961
-2.385259 1.185933 -1.532602
-2.451377 1.222022 -1.490926
-2.567380 1.285515 -1.474867
-2.677381 1.345885 -1.450508
-2.826545 1.426809 -1.440682
-2.948756 1.493957 -1.410574
-3.095964 1.574689 -1.385086
-3.268517 1.668501 -1.363432
-3.484729 1.786729 -1.350093
-3.707227 1.908564 -1.327065
-3.930659 2.030223 -1.293653
-4.232438 2.195304 -1.272539
-4.546082 2.366069 -1.237991
-4.923390 2.572564 -1.203849
-5.342881 2.802288 -1.159315
-6.053540 3.154874 -1.144039
-6.524704 3.409341 -1.056747
-7.512558 3.943280 -1.013316
-7.703302 4.049392 -0.833683
-7.694568 4.046557 -0.628496
-7.682644 4.043734 -0.424273
-9.188943 4.859313 -0.262131
-9.185506 4.859677 -0.019669
-9.163953 4.852339 0.222218
-9.147970 4.847997 0.465411
-9.143775 4.847954 0.707392
-9.128491 4.843959 0.948902
-9.123820 4.845707 1.193956
-9.118622 4.845105 1.438119
-9.107502 4.843354 1.682699
-9.089295 4.837752 1.929001
-0.516088 0.186563 -0.356026
-2.382421 1.202250 -1.535548
-2.453042 1.241283 -1.496575
-2.568784 1.305505 -1.480267
-2.675379 1.364853 -1.453941
-2.825732 1.447532 -1.444763
-2.941178 1.511907 -1.411347
-3.087936 1.593504 -1.385816
-3.256650 1.686496 -1.362746
-3.442269 1.789602 -1.337875
-3.687273 1.925421 -1.324072
-3.918362 2.052931 -1.293653
-4.220873 2.220671 -1.273050
-4.526725 2.389507 -1.236600
-4.909682 2.601932 -1.204268
-5.336438 2.838776 -1.161558
-6.015682 3.179416 -1.140443
-6.504433 3.446954 -1.056751
-7.489192 3.986557 -1.013322
-7.695056 4.102349 -0.835388
-7.689860 4.101384 -0.630069
-7.670956 4.094671 -0.424953
-9.179579 4.922767 -0.262682
-9.172638 4.921194 -0.019704
-9.152882 4.914703 0.222646
-9.138664 4.911229 0.466396
-9.132675 4.910166 0.708749
-9.119139 4.907050 0.950905
-9.117900 4.910667 1.196931
-9.095270 4.900464 1.438938
-9.103162 4.909082 1.687189
-9.081434 4.901433 1.933401
-0.520486 0.192977 -0.360113
-2.374915 1.216072 -1.535547
-2.440670 1.252946 -1.493749
-2.555977 1.317791 -1.477566
-2.674832 1.384718 -1.458232
-2.805609 1.457696 -1.439049
-2.923799 1.524456 -1.407479
-3.048826 1.595104 -1.372673
-3.249622 1.707149 -1.364119
-3.464494 1.827888 -1.350735
-3.665567 1.941167 -1.320481
-3.931123 2.089553 -1.301966
-4.192265 2.236596 -1.268466
-4.515750 2.417531 -1.237529
-4.876980 2.620740 -1.200084
-5.312594 2.865726 -1.160068
-6.000186 3.215998 -1.141101
-6.487393 3.486338 -1.057319
-7.469062 4.031636 -1.013797
-7.686448 4.155334 -0.837092
-7.679540 4.153388 -0.631215
-7.664213 4.148549 -0.425919
-9.169786 4.986266 -0.263234
-9.161132 4.983716 -0.019740
-9.148397 4.980989 0.223248
-9.132402 4.976429 0.467561
-9.121178 4.972437 0.710108
-9.107604 4.969203 0.952726
-9.106304 4.972805 1.199216
-9.083684 4.962446 1.441685
-9.082855 4.966291 1.688789
-9.066276 4.961354 1.936333
-0.512801 0.192713 -0.356020
-2.370364 1.231544 -1.537510
-2.440568 1.271410 -1.498455
-2.549361 1.333479 -1.478465
-2.667837 1.401089 -1.459089
-2.798222 1.474843 -1.439864
-2.911202 1.539567 -1.405931
-3.063404 1.626430 -1.383625
-3.247382 1.730543 -1.367553
-3.456651 1.849755 -1.352022
-3.647113 1.958586 -1.318088
-3.906761 2.105665 -1.298087
-4.204057 2.275053 -1.276107
-4.482563 2.433080 -1.232426
-4.871475 2.654633 -1.202598
-5.310873 2.905077 -1.163428
-5.982756 3.251561 -1.141431
-6.475314 3.528566 -1.058728
-7.453848 4.079508 -1.014976
-7.677495 4.208374 -0.838795
-7.670628 4.206408 -0.632502
-7.657090 4.202470 -0.426885
-9.159559 5.049816 -0.263784
-9.152679 5.048210 -0.019782
-9.136463 5.043448 0.223676
-9.120489 5.038803 0.468457
-9.107517 5.033752 0.711331
-9.102614 5.035323 0.955279
-9.096041 5.035961 1.201733
-9.082039 5.030296 1.446084
-9.067343 5.026337 1.691354
-9.059290 5.026113 1.941103
-0.512628 0.196622 -0.357039
-2.361164 1.244425 -1.536526
-2.429577 1.283800 -1.496571
-2.547305 1.351779 -1.482064
-2.667017 1.420987 -1.463381
-2.796798 1.496048 -1.443944
-2.885702 1.547294 -1.398195
-3.058286 1.646904 -1.385816
-3.216899 1.738724 -1.359311
-3.447048 1.870678 -1.352665
-3.623628 1.973044 -1.313898
-3.878629 2.120354 -1.293100
-4.163462 2.283973 -1.267958
-4.482703 2.468435 -1.236603
-4.858485 2.685542 -1.203437
-5.328787 2.957125 -1.171268
-5.999428 3.306463 -1.148305
-6.445105 3.562135 -1.057326
-7.433144 4.124396 -1.015451
-7.668182 4.261440 -0.840499
-7.665803 4.263755 -0.634217
-7.646111 4.254453 -0.427659
-9.145449 5.111456 -0.264234
-9.144608 5.115353 -0.019828
-9.118905 5.102968 0.223973
-9.104697 5.099238 0.469173
-9.101210 5.101601 0.713234
-9.091066 5.100171 0.957283
-9.085349 5.099161 1.204250
-9.070424 5.094980 1.449107
-9.059101 5.092849 1.695524
-9.048465 5.089014 1.945139
-0.510897 0.199791 -0.357035
-0.529892 0.210954 -0.350930
-2.421357 1.298313 -1.496570
-2.530944 1.362535 -1.477562
-2.650431 1.431948 -1.459087
-2.797074 1.517698 -1.448841
-2.880706 1.567270 -1.400515
-3.054656 1.668320 -1.388736
-3.216058 1.762973 -1.363431
-3.430752 1.887765 -1.350735
-3.652973 2.017868 -1.328862
-3.890762 2.157193 -1.301412
-4.174802 2.322535 -1.275599
-4.452713 2.485525 -1.232428
-4.834423 2.707818 -1.201344
-5.299772 2.980030 -1.168657
-5.977437 3.341107 -1.147981
-6.425665 3.600260 -1.057610
-7.411445 4.170497 -1.015925
-7.659480 4.316889 -0.842391
-7.654437 4.315891 -0.635360
-7.639223 4.310794 -0.428722
-9.141319 5.179088 -0.264981
-9.131795 5.177989 -0.019864
-9.110437 5.170052 0.224531
-9.097135 5.164626 0.470339
-9.084981 5.161985 0.714321
-9.074019 5.157907 0.958559
-9.074228 5.162407 1.206767
-9.067835 5.163075 1.453508
-9.045399 5.152331 1.698411
-2.050622 1.096755 0.439606
-0.510728 0.203617 -0.358054
-0.529677 0.214896 -0.351909
-2.424210 1.318140 -1.503159
-2.516587 1.373158 -1.473960
-2.633775 1.442728 -1.454795
-2.786168 1.532973 -1.448023
-2.879342 1.588090 -1.404381
-3.042847 1.685057 -1.388004
-3.206932 1.782524 -1.364117
-3.412751 1.903779 -1.348162
-3.632514 2.034152 -1.325869
-3.849552 2.163145 -1.291992
-4.137465 2.332949 -1.268468
-4.467994 2.528961 -1.240780
-4.819404 2.737544 -1.201764
-5.284842 3.013518 -1.169404
-5.959884 3.375529 -1.148309
-6.407719 3.639294 -1.058175
-7.385817 4.210911 -1.015693
-7.646770 4.366688 -0.843716
-7.647864 4.371027 -0.636932
-7.630065 4.362551 -0.429589
-9.128078 5.241796 -0.265481
-9.122027 5.242683 -0.019905
-9.099912 5.232026 0.225005
-9.087422 5.229125 0.471417
-9.076967 5.227402 0.716091
-9.070199 5.227829 0.961477
-9.059245 5.223678 1.208826
-9.054536 5.225316 1.456258
-9.037971 5.219978 1.702904
-2.048810 1.111628 0.440710
-0.503015 0.203256 -0.353960
-0.527816 0.218137 -0.351906
-2.412742 1.330817 -1.501274
-2.520133 1.395445 -1.481159
-2.616845 1.453862 -1.450501
-2.765743 1.542591 -1.442308
-2.866126 1.603369 -1.402833
-3.016215 1.693699 -1.380701
-3.194436 1.800093 -1.363430
-3.389421 1.917323 -1.343661
-3.572233 2.027520 -1.308509
-3.824908 2.178493 -1.288113
-4.132960 2.363486 -1.271525
-4.454492 2.555743 -1.241244
-4.796302 2.761355 -1.200089
-5.261793 3.040977 -1.168286
-5.945986 3.414923 -1.149621
-6.382714 3.674210 -1.057614
-7.361865 4.255750 -1.015932
-7.639037 4.423209 -0.845796
-7.640921 4.426239 -0.638503
-7.624118 4.420021 -0.430748
-9.123805 5.312247 -0.266277
-9.111814 5.307436 -0.019945
-9.087090 5.297213 0.225477
-9.074606 5.294235 0.472403
-9.066783 5.291870 0.717725
-9.054844 5.289202 0.963119
-9.053180 5.292635 1.212260
-9.042491 5.288558 1.459281
-9.027597 5.284112 1.706755
-2.031486 1.117821 0.438507
-0.499828 0.205399 -0.352932
-0.536474 0.227545 -0.358778
-2.404487 1.344797 -1.501273
-2.506906 1.407286 -1.478458
-2.618718 1.475499 -1.456509
-2.767237 1.565177 -1.448020
-2.862630 1.623756 -1.405926
-2.999486 1.707317 -1.377778
-3.188304 1.821467 -1.365489
-3.398891 1.949607 -1.352019
-3.559954 2.048161 -1.308509
-3.829869 2.211485 -1.294208
-4.102181 2.377377 -1.266430
-4.430820 2.576424 -1.238925
-4.779791 2.789036 -1.200089
-5.238607 3.068271 -1.167167
-5.915526 3.443124 -1.147660
-6.366015 3.714043 -1.058460
-7.338399 4.299167 -1.016170
-7.628286 4.476420 -0.847498
-7.630190 4.479487 -0.639788
-7.615143 4.474201 -0.431712
-9.107975 5.374032 -0.266725
-9.099445 5.371220 -0.019982
-9.078186 5.362901 0.226037
-9.069118 5.361899 0.473751
-9.061292 5.359494 0.719769
-9.049316 5.356735 0.965857
-9.042461 5.357050 1.215009
-9.018166 5.344694 1.460379
-9.015092 5.347276 1.710285
-2.021122 1.127579 0.437776
-0.502502 0.211055 -0.355997
-0.542072 0.235273 -0.363685
-2.397671 1.359653 -1.502212
-2.502799 1.424593 -1.481156
-2.609635 1.490670 -1.456506
-2.752944 1.578348 -1.445570
-2.863725 1.647027 -1.411339
-2.995424 1.728540 -1.380698
-3.167607 1.834066 -1.361366
-3.380591 1.965314 -1.349445
-3.573641 2.084630 -1.318084
-3.836221 2.245612 -1.300857
-4.101088 2.409116 -1.270505
-4.418693 2.604028 -1.239852
-4.753092 2.810487 -1.197577
-5.203553 3.088235 -1.163435
-5.891692 3.475183 -1.147006
-6.337214 3.746626 -1.057337
-7.309602 4.339384 -1.015702
-7.623975 4.533775 -0.849955
-7.622495 4.534820 -0.641358
-7.604104 4.527408 -0.432579
-9.095142 5.437881 -0.267273
-9.088339 5.436055 -0.020022
-9.068844 5.428682 0.226599
-9.058058 5.426586 0.474830
-9.046801 5.422034 0.721131
-9.038213 5.421272 0.968047
-9.027896 5.419438 1.217298
-9.010398 5.411061 1.464231
-9.007217 5.413576 1.714779
-4.217606 2.487532 0.920508
-0.503660 0.215856 -0.358039
-0.540148 0.238487 -0.363682
-2.387753 1.372628 -1.501268
-2.497050 1.440960 -1.482954
-2.602008 1.506738 -1.457362
-2.733927 1.588538 -1.440672
-2.847375 1.659747 -1.408242
-2.978541 1.741968 -1.377775
-3.161236 1.855324 -1.363426
-3.357394 1.977899 -1.344942
-3.551277 2.099250 -1.314493
-3.832505 2.273840 -1.304180
-4.098112 2.439903 -1.274070
-4.365033 2.606003 -1.229179
-4.734627 2.836879 -1.197158
-5.158418 3.101693 -1.157463
-5.860970 3.502964 -1.145043
-6.320061 3.786245 -1.058182
-7.287357 4.383580 -1.016173
-7.614175 4.588113 -0.851844
-7.614432 4.590226 -0.642927
-7.596085 4.582705 -0.433640
-9.081884 5.501772 -0.267820
-9.078501 5.502016 -0.020064
-9.064147 5.497677 0.227291
-9.051650 5.494473 0.476180
-9.036992 5.487740 0.722903
-9.023256 5.483741 0.969871
-9.014629 5.482911 1.219819
-9.007204 5.480622 1.468909
-8.993842 5.476840 1.718310
0.003342 -0.094944 -0.004169
-0.503309 0.219757 -0.359059
-0.536737 0.240785 -0.362696
-2.376263 1.384599 -1.499383
